# .PCD v0.7 - Point Cloud Data file format
VERSION 0.7
FIELDS x y z
SIZE 4 4 4
TYPE F F F
COUNT 1 1 1
WIDTH 1554
HEIGHT 1
VIEWPOINT 0 0 0 1 0 0 0
POINTS 1554
DATA ascii
3.6094844 14.36629 -0.76582962
3.6303363 14.360082 -0.7496739
3.6142125 14.340732 -0.75775367
3.6316309 14.336568 -0.74466377
3.6269901 14.317 -0.74431169
3.6489568 14.317645 -0.72989041
4.7186375 14.097303 -0.33100599
4.7018499 14.129772 -0.33794689
4.7405314 14.096113 -0.3297573
4.7297602 14.112263 -0.33288959
4.7419972 14.118365 -0.33362669
4.7428255 14.149642 -0.3391268
4.722414 14.151358 -0.3402665
4.7366409 14.152171 -0.33972979
4.7859468 14.114501 -0.3319943
2.6216714 15.078823 -2.6588004
2.4889328 15.024768 -2.6492703
2.5031307 15.031444 -2.6504483
2.5310123 15.064069 -2.6561999
4.1525898 13.801174 -0.38759401
4.1442747 13.817684 -0.39350721
4.1468143 13.835881 -0.3957938
4.1696043 13.833715 -0.38798669
4.1460905 13.852934 -0.39907199
3.367136 14.506299 -1.7983712
3.3862784 14.587179 -1.7752788
3.3874249 14.56473 -1.7691711
3.38395 14.54175 -1.7719247
3.22839 14.464175 -2.1758325
3.2280598 14.496757 -2.1832004
3.2283299 14.5022 -2.1828001
3.2323234 14.520659 -2.1701422
3.2267418 14.515122 -2.1926725
3.2265141 14.525866 -2.1956513
3.2260025 14.535686 -2.1997325
3.2185819 14.503251 -2.2309203
3.2149322 14.465418 -2.2420056
0 15.165044 -2.6548181
0.0036432999 15.16979 -2.6746569
0.0036432999 15.156602 -2.6723306
0.0036432999 15.143414 -2.6700041
5.16e-05 15.133736 -2.6427498
6.1999999e-05 15.103227 -2.6279707
0.0036432999 15.130227 -2.6676781
0.0036432999 15.117041 -2.6653519
0.0036432999 15.103853 -2.6630256
0.0001188 15.091859 -2.6396723
2.5626466 16.327036 -0.74664259
2.5824914 16.380554 -0.73720801
2.5542524 16.369574 -0.73914248
3.4008973 14.34442 -0.9305824
3.414567 14.330989 -0.91619158
3.3963001 14.332026 -0.93250918
3.3918426 14.319622 -0.93458879
3.4149747 14.313073 -0.9126631
3.3963001 14.30865 -0.9283855
3.4374797 14.31861 -0.89374858
3.4568794 14.297062 -0.87272191
3.3963001 14.296963 -0.92632359
3.3474877 14.33567 -0.98046649
3.3696752 14.333482 -0.958574
3.3829494 14.334787 -0.94593751
2.8480058 14.198442 -1.7200377
2.8566189 14.189256 -1.6974022
2.8661287 14.16942 -1.6705887
2.8792651 14.212306 -1.64595
2.8874676 14.216214 -1.6278905
2.88396 14.208425 -1.633755
2.8809452 14.186211 -1.6371051
2.8778863 14.156869 -1.6393853
2.8870561 14.193773 -1.6243834
2.88396 14.173363 -1.6275675
2.8979366 14.153175 -1.5937027
2.900497 14.202144 -1.5968817
2.9133 14.183075 -1.5657007
3.022146 14.088061 -2.4532061
2.9990747 14.093722 -2.420979
3.05109 14.08748 -2.4565127
3.0682678 14.083746 -2.4796519
3.0185425 14.104595 -2.3591607
2.9805543 14.107821 -2.3408625
3.1840568 13.717216 -1.0516634
3.1887596 13.738958 -1.0495045
3.1574101 13.735841 -1.0892166
3.2006915 13.69865 -1.0279911
3.1847639 13.695552 -1.0469811
3.1930599 13.7104 -1.0390249
3.2405534 13.674958 -0.9773618
4.7922893 17.794781 -0.48782101
4.7934847 17.815939 -0.48404431
3.1879056 14.238207 -2.4406514
3.1879067 14.250906 -2.4428563
3.1879041 14.225507 -2.4384463
3.1875615 14.286113 -2.4650536
3.188359 14.294568 -2.440197
3.1894746 14.268794 -2.4199045
2.3215568 16.3841 -0.7365796
2.3310113 16.344196 -0.74361849
2.3728631 16.368793 -0.73928428
2.2899547 16.340834 -0.7442106
2.2857616 16.36878 -0.7392804
2.2822843 16.324642 -0.7470668
2.2818546 16.344551 -0.74355489
3.1009557 14.470618 -2.5515597
3.1248114 14.479111 -2.5530586
3.1045582 14.391461 -2.5376074
3.1251957 14.381785 -2.5359125
3.0803349 14.403562 -2.539736
3.0959797 14.451883 -2.5482554
0.97744608 14.838164 -2.6163678
0.96721029 14.8375 -2.6162512
1.0173411 14.834928 -2.6157942
0.9998551 14.857907 -2.6198447
1.0327123 14.837973 -2.6163299
1.8513432 15.196797 -2.6794636
1.8619173 15.203602 -2.6623645
1.8633919 15.196797 -2.6794636
1.8754407 15.196797 -2.6794636
1.8818097 15.206432 -2.6458583
1.9170442 15.206628 -2.6448431
1.8874894 15.196797 -2.6794636
1.8995382 15.196797 -2.6794636
1.9115869 15.196797 -2.6794636
1.9236238 15.196797 -2.679467
1.8629605 15.171062 -2.6750636
1.8942351 15.140458 -2.6696682
3.973835 13.830342 -0.46289641
3.9695699 13.800563 -0.45948359
3.0801785 13.65788 -1.1811112
3.0719669 13.680314 -1.1971004
3.07478 13.6715 -1.1912175
3.048234 13.750573 -1.2465245
3.0639403 13.702163 -1.2133715
3.077533 13.703807 -1.1929862
3.0714023 13.729112 -1.2065666
3.0781307 13.724092 -1.1957107
3.1227529 13.684801 -1.1257941
3.0959599 13.69919 -1.166205
3.3204696 17.442636 -0.54993862
3.2799399 17.447874 -0.54900998
2.3364928 14.398768 -2.5388882
2.3313487 14.345045 -2.5294158
2.341604 14.394986 -2.5382223
2.8814332 13.692778 -1.5487781
2.8628759 13.695025 -1.5948228
2.8811452 13.710012 -1.5526716
2.8605821 13.732763 -1.6072078
2.88396 13.740624 -1.5512775
2.890424 13.742495 -1.5375797
2.8915937 13.715469 -1.5301957
2.9142604 13.736352 -1.4849018
2.8151345 13.376647 -1.6670643
2.8071971 13.39285 -1.6949281
2.8151853 13.400448 -1.6710929
2.8130751 13.40485 -1.677905
2.8121147 13.425731 -1.6846611
2.8018274 13.367253 -1.7081786
2.7868042 13.364666 -1.7567374
2.7925854 13.399803 -1.7441977
1.5880715 14.868114 -2.6216519
1.596091 14.906834 -2.6284819
1.5898772 14.892522 -2.625957
1.5246602 14.854212 -2.6191988
1.5479541 14.883566 -2.624377
1.5558116 14.781727 -2.606421
1.3605229 14.161994 -2.4971409
1.3552794 14.174867 -2.4994106
1.3496196 14.11811 -2.4894023
1.3244876 14.1265 -2.4908803
1.2696064 14.20558 -2.5048249
1.2822847 14.241223 -2.5111115
1.2920123 14.220732 -2.5074978
4.541151 14.429786 -0.40642801
4.5651212 14.4165 -0.4013035
4.5708861 14.431399 -0.4032501
4.5772891 14.42164 -0.40081951
4.595264 14.43775 -0.4014959
4.6074529 14.43215 -0.39907229
4.6196413 14.4324 -0.3976796
4.6318302 14.4385 -0.39731801
4.6409483 14.413273 -0.3921766
4.6257396 14.414984 -0.39385271
4.6227746 14.392605 -0.390259
4.6379399 14.391776 -0.38861409
4.627892 14.372312 -0.38609841
2.1332645 12.999346 -2.2921402
2.1375575 12.97054 -2.2870617
2.0613701 12.957263 -2.2847204
2.0900328 12.975757 -2.2879791
2.1565466 13.076074 -2.3056679
2.1338782 13.028511 -2.2972822
3.1425502 15.509686 -0.92678308
3.1724191 15.506999 -0.94212222
3.2161181 15.518764 -0.87525278
3.2311058 15.512654 -0.9098919
4.4858751 14.429318 -0.41521001
4.5032439 14.423947 -0.41144261
4.5216994 14.418399 -0.4075658
4.5343199 14.436513 -0.40845901
4.5404015 14.413258 -0.40360171
4.5343199 14.40145 -0.402273
4.528266 14.389603 -0.40114599
4.5343199 14.378075 -0.39814901
4.5551639 14.398549 -0.39930809
4.5542865 14.373765 -0.39503869
0.71892577 14.562769 -2.5678031
0.6358543 14.591097 -2.5727997
0.65178078 14.572341 -2.5694928
0.58147079 14.638352 -2.5811327
0.62775773 14.666631 -2.5861187
4.6897726 15.225559 -0.75304919
4.6926618 15.221015 -0.7788021
4.7234964 15.214245 -0.81717652
4.6908631 15.21404 -0.8183198
3.7371061 14.297673 -1.2641355
3.4710801 14.471675 -1.6136075
3.4681888 14.506409 -1.6242223
3.4901564 14.53584 -1.5978528
3.4946084 14.568316 -1.5972579
3.460016 14.470286 -1.6307224
4.471632 15.594766 -0.44439721
4.4160681 15.594725 -0.44462261
4.072813 14.008745 -0.45339599
4.0674553 14.000203 -0.45386469
4.0479317 14.008322 -0.46309671
2.5315821 14.71803 -2.5951886
2.5311444 14.711736 -2.5940781
2.3716424 14.787447 -2.6074278
2.4114087 14.854358 -2.6192279
2.3875084 14.83621 -2.6160276
2.4128032 14.850382 -2.6185267
2.4290824 14.883456 -2.6243596
2.4470773 14.70805 -2.5934246
2.4700367 14.697798 -2.5916169
2.4383829 14.773756 -2.6050131
2.4379153 14.816164 -2.6124921
2.450983 14.801548 -2.6099143
2.429256 14.784454 -2.6069
2.0493007 13.053624 -2.3017056
2.0116932 13.065815 -2.3038549
2.033411 13.075535 -2.3055668
4.7297602 13.714687 -0.2627849
4.7297602 13.726375 -0.26484671
4.7172103 13.756824 -0.27110359
4.7236452 13.749684 -0.26935151
4.7388997 13.765497 -0.2714797
4.7041888 13.774809 -0.2751016
4.7297602 13.784813 -0.27515611
4.7534351 13.749371 -0.26834789
2.1426578 12.726011 -2.2439413
2.1872785 12.771816 -2.2520165
2.7037866 13.654745 -2.3687234
2.7028291 13.621988 -2.3980453
2.7028291 13.633688 -2.4001079
2.7028291 13.645389 -2.4021707
2.7045441 13.693639 -2.3424027
2.7028291 13.657088 -2.4042332
2.7028291 13.668789 -2.4062955
2.7028291 13.680489 -2.4083581
2.7028291 13.692189 -2.4104204
2.6849222 13.690163 -2.4139135
2.6730721 13.67994 -2.4121368
2.6425121 13.629417 -2.403204
0.27624461 15.060981 -2.6556585
0.406876 15.006434 -2.6460419
0.39827961 15.017963 -2.6480756
3.6448798 17.36746 -0.5631842
3.6263928 17.388849 -0.55941308
3.6115372 17.452637 -0.5481658
3.6673958 17.424015 -0.55321169
3.6501243 17.410786 -0.55554491
3.2501523 13.876692 -1.0016747
3.2354736 13.901378 -1.0232134
3.2117205 13.88431 -1.0479167
3.1916406 13.880309 -1.0707808
3.2037354 13.914197 -1.0624459
3.1870403 13.913683 -1.0825423
3.1970594 13.927557 -1.0725977
3.1708763 13.935761 -1.1071204
3.1970537 13.945108 -1.0756837
3.14326 13.943398 -1.1438416
3.1930599 14.014424 -1.092635
3.183908 13.99412 -1.1007136
3.1892264 14.025298 -1.0994058
3.1619785 13.996441 -1.1293013
3.2015097 13.988145 -1.0780811
3.1930599 13.967674 -1.084385
3.1838999 13.982424 -1.0986439
3.2054243 13.969383 -1.0701935
3.1815953 13.958443 -1.0974514
3.1359818 14.035778 -1.1695671
3.1352234 13.996529 -1.1635896
3.1321101 14.0245 -1.1725399
2.8524036 13.664844 -1.6152532
2.8427882 13.640944 -1.6358986
2.8334303 13.644149 -1.6627089
2.8151052 13.639695 -1.7134613
2.8243062 13.670125 -1.6928811
2.80724 13.637791 -1.7379756
2.8151052 13.674792 -1.7196479
2.8184669 13.692358 -1.7132564
2.8252931 13.717292 -1.698613
2.81306 13.708899 -1.7315249
2.8110049 13.724169 -1.7408234
2.8157403 13.748407 -1.7308526
2.8094597 13.675134 -1.7372447
2.8002841 13.688553 -1.7698253
2.8024168 13.726063 -1.7692693
2.7876194 13.695979 -1.8125433
2.7868838 13.718536 -1.8189192
2.1050742 16.466969 -0.72196889
2.1644859 16.491653 -0.71761513
2.1361032 16.445889 -0.72568202
2.1919875 16.451256 -0.7247355
2.2214615 16.490465 -0.71782333
2.22403 16.468952 -0.72161579
2.2274952 16.493599 -0.71727049
3.5418715 13.762132 -0.70900983
3.5525477 13.752287 -0.69906408
3.5522518 13.734701 -0.6961838
3.5424738 13.780178 -0.71170419
3.5651734 13.768521 -0.69275957
3.568444 13.793601 -0.6947946
3.6010554 13.770717 -0.66693741
3.6920075 15.538672 -0.76240402
3.700531 15.540314 -0.75310808
2.7840426 13.365175 -1.76612
2.7826085 13.384825 -1.7750574
2.7891388 13.408569 -1.7568527
2.7823648 13.408772 -1.7801841
2.7840276 13.411924 -1.77438
2.7814276 13.429511 -1.7874131
2.9271424 13.752404 -1.4602615
2.9137237 13.761055 -1.4902619
2.9613283 13.688531 -1.3830661
2.9256799 13.721 -1.4575775
2.9230413 13.708334 -1.4609613
2.9236419 13.688627 -1.4562228
2.9416816 13.676766 -1.4187772
2.9048202 13.7659 -1.5106137
2.9143574 13.810181 -1.4977223
0.95197678 14.958257 -2.6375384
1.0094362 14.932334 -2.6329699
1.0206147 14.965344 -2.6387928
1.0180466 14.945588 -2.635308
0.98067111 14.990967 -2.6433084
1.0026968 15.012099 -2.6470363
0.9426983 14.91603 -2.6300931
3.1504552 17.365124 -0.56354707
3.1061788 17.339367 -0.56813622
3.1781304 17.384085 -0.5602529
3.0351994 17.310144 -0.57329643
3.0629194 17.329144 -0.56994069
2.4279997 13.247244 -1.60981
2.4279327 13.206726 -1.5915301
2.4279077 13.281824 -1.5917097
2.4279087 13.283737 -1.6361787
2.4279549 13.216211 -1.631592
3.3465657 14.433828 -1.8277897
3.360414 14.461748 -1.8034865
3.3559549 14.4628 -1.81241
3.3598678 14.476207 -1.8070928
0.0026594 14.864475 -2.62095
0 14.857625 -2.6197901
0.0057826 14.833918 -2.6141441
0 14.841409 -2.5753968
0 14.831249 -2.61514
0 14.818062 -2.6128149
0.0113469 14.797687 -2.6091232
3.3600001e-05 14.802812 -2.6028502
-0 14.820933 -2.4936974
4.5000002e-06 14.819988 -2.539432
0.056587599 14.850137 -2.6184697
0.1060351 14.879768 -2.6236959
4.1006856 14.719151 -1.1011245
4.0878243 14.70447 -1.1051484
4.1340618 14.643798 -1.0719815
4.089601 14.678542 -1.0996401
4.1118464 14.671627 -1.0874707
4.0921259 14.66762 -1.0963703
4.1092262 14.65635 -1.0860275
4.6251564 16.729124 -0.3620401
4.6379075 16.728802 -0.3611708
4.6251688 16.704176 -0.35763639
4.6069589 16.694 -0.35762471
4.6144996 16.667419 -0.35223261
4.6401992 16.695354 -0.3551223
4.6404376 16.654919 -0.3479602
4.6251936 16.654274 -0.34882891
4.6880693 16.733662 -0.3590298
4.6852632 16.68273 -0.35021189
3.6549842 13.789315 -0.63274419
3.6303365 13.798781 -0.650702
3.6269901 13.779099 -0.64946347
3.7101364 13.774115 -0.59357798
3.6225288 13.761682 -0.64962173
3.6369047 13.753939 -0.63841861
3.6419249 13.724487 -0.62989861
3.6194513 13.661642 -0.63420039
3.6269901 13.650487 -0.62678289
3.6083045 13.685696 -0.64665091
3.6269901 13.68555 -0.63296849
3.6321025 13.697824 -0.63170528
3.6202424 13.712203 -0.64253891
3.6527607 13.672171 -0.61355573
4.70713 14.431731 -0.5039506
3.2006521 14.248544 -2.2941
3.2015288 14.261024 -2.2888012
3.2030733 14.301289 -2.2859883
3.2020247 14.278699 -2.2887044
3.7680776 14.091587 -0.61502761
3.79386 14.0777 -0.59719151
3.7986302 14.079906 -0.59500581
3.820961 14.054735 -0.57864028
3.8619993 14.024667 -0.55130661
4.0420322 14.161299 -0.49261281
3.975219 14.169327 -0.52209753
3.9752159 14.18686 -0.5251826
3.9713416 14.204193 -0.53003871
0.14919581 14.674771 -0.54680759
2.4891033 14.447669 -2.5475113
2.4722159 14.438269 -2.5458565
2.5376945 14.458179 -2.5493617
2.5176246 14.436693 -2.5455756
2.5622728 14.36282 -2.5325511
2.5721426 14.330653 -2.5268805
2.5128291 14.404232 -2.5398545
2.5281699 14.361256 -2.5322776
1.0109566 14.390283 -2.5373919
0.98492497 14.379258 -2.5354462
0.98309982 14.260761 -2.5145514
0.96938342 14.31074 -2.5233634
0.94740218 14.340343 -2.528579
2.1025403 14.673944 -2.5874107
2.0954475 14.611053 -2.5763221
4.6308451 14.138143 -0.3444933
2.0030749 12.6055 -2.2227001
2.022676 12.606387 -2.2194381
2.0419207 12.607189 -2.2137384
2.0598369 12.606263 -2.2193322
2.053025 12.6055 -2.2227001
2.0280499 12.6055 -2.2227001
2.0372436 12.619542 -2.2251742
1.3285002 13.449144 -0.26786211
1.3285002 13.437104 -0.3295629
1.3285002 13.439626 -0.28821111
1.3285002 13.477195 -0.34489399
1.3285 13.553451 -0.3588317
1.3285081 13.595245 -0.36035451
1.3285098 13.616881 -0.36924481
2.5852289 16.633879 -0.69253868
2.5539923 16.645597 -0.69047099
2.6059339 16.63307 -0.69268233
2.8257141 16.704304 -0.68012679
2.7908888 16.645037 -0.69057328
2.7702701 16.640688 -0.69133919
2.8078291 16.697819 -0.68126982
2.6611185 16.673456 -0.68556201
2.6823802 16.636242 -0.69212252
2.7464185 16.633253 -0.69264948
2.8101168 14.44849 -2.5476618
2.8042009 14.45615 -2.5490129
2.7266462 14.504938 -2.5576138
2.7300632 14.500617 -2.5568519
2.7915435 14.415339 -2.5418134
2.774147 14.401902 -2.5394423
2.6973708 14.438317 -2.545866
2.8032033 14.307096 -2.5227275
2.8074799 14.346227 -2.5296266
2.8044217 14.381035 -2.5357628
2.81794 16.438776 -0.72693622
2.8232076 16.43009 -0.72846723
2.8555474 16.443552 -0.72609597
2.8677888 16.47304 -0.72089589
2.9028633 16.435797 -0.72746289
2.9269876 16.471672 -0.72113758
3.221478 16.439627 -0.72679353
3.2448866 16.446548 -0.72557211
3.3297465 16.428665 -0.72872609
3.2998319 16.419521 -0.7303369
3.7294204 17.583771 -0.52504063
3.7881134 17.59701 -0.52271092
3.790617 17.592999 -0.52341813
4.8278999 14.254921 -0.1396956
4.3028436 14.6829 -1.0098057
4.3119416 14.696108 -1.0090467
4.3119879 14.708796 -1.0112692
4.3188195 14.735823 -1.013888
4.3522034 14.69869 -0.99692208
4.3621235 14.676169 -0.98984158
4.376061 14.685204 -0.98701352
3.0718646 13.745153 -1.2086886
3.0281036 13.740285 -1.2759602
3.0245094 13.745844 -1.2826062
3.0283816 13.781755 -1.2828836
3.0121741 13.798826 -1.3125223
3.0352759 13.824941 -1.279735
2.9859083 13.810531 -1.360056
3.006994 13.82317 -1.3258734
2.9658718 16.32802 -0.74647278
2.9800768 16.30542 -0.75045991
2.9561293 16.27714 -0.75544661
1.8011945 15.248494 -2.3919256
3.1285012 13.976837 -1.1691661
3.123358 13.976456 -1.1763541
3.1293192 13.957098 -1.1645567
3.0935061 13.965535 -1.2166342
3.1124134 14.006648 -1.1970963
3.0812886 14.011692 -1.2419519
3.1444829 13.964872 -1.1461924
1.813212 14.74471 -2.5998895
1.8450522 14.694865 -2.5910978
1.8217 14.731041 -2.5974784
1.8630855 14.705638 -2.5929966
0.65163589 14.866033 -2.6212864
0.67858273 14.897315 -2.6268005
1.2013032 14.935472 -2.6335258
1.2555698 14.982203 -2.6417713
1.2498994 15.006109 -2.6459875
1.2241578 15.010242 -2.6467147
1.3029658 14.960991 -2.6380332
1.279305 14.9134 -2.6296382
1.2652894 14.901341 -2.6275108
1.2116911 14.836043 -2.6159885
1.2331964 14.885942 -2.6247919
1.2302268 14.868382 -2.6216946
1.1656947 14.907841 -2.62865
1.1683514 14.853691 -2.6190987
4.0699587 17.659702 -0.51165068
4.0380182 17.606318 -0.52106899
4.001339 17.691881 -0.50597823
3.7980242 14.387189 -0.64948589
3.8307106 14.386006 -0.63189018
3.8481412 14.39255 -0.62365782
3.8589973 14.39355 -0.61802292
3.8698535 14.39455 -0.61238807
3.8807099 14.401401 -0.60778409
3.8807099 14.3897 -0.60572219
3.8538656 14.355264 -0.61395782
3.8807099 14.378 -0.6036604
3.8890038 14.363824 -0.5971536
3.8893046 14.340532 -0.59290332
3.8181787 14.351468 -0.632451
1.6016227 13.958146 -2.4611952
1.5942715 13.967439 -2.4628346
1.6239684 13.972927 -2.4638026
1.5696502 14.003114 -2.4691274
1.7031168 14.059327 -2.4790442
1.6761624 14.0619 -2.4794984
1.6423635 14.031187 -2.4740798
1.6039586 14.032651 -2.4743383
1.5782301 14.03029 -2.4739218
2.430968 16.864902 -0.6518091
2.4531367 16.861286 -0.65244639
2.5288785 16.841358 -0.655954
2.4850366 16.85371 -0.65377879
1.6691878 14.479947 -2.5532072
1.6393045 14.462724 -2.5501692
1.6499377 14.487455 -2.5545304
1.6993685 14.558425 -2.5670414
1.7033288 14.53636 -2.563153
1.7791075 14.540405 -2.56387
1.7761617 14.488351 -2.5546918
2.8172295 14.184472 -1.8036574
2.811311 14.181882 -1.8206486
2.8198757 14.169635 -1.7936022
2.8107598 14.150666 -1.8169
2.8198972 14.156892 -1.791344
2.8505812 14.135698 -1.7026466
2.8448088 14.104476 -1.7119803
2.8438098 14.13977 -1.7209184
2.8198826 14.128076 -1.7859786
2.8294919 14.089953 -1.7525092
2.8178711 14.110117 -1.7884835
2.836726 14.140774 -1.7411382
2.8118966 14.112976 -1.8065416
2.7862813 14.166912 -1.9006177
2.7949443 14.155142 -1.8696119
2.8060644 14.112254 -1.8255874
1.9554923 15.218483 -2.5762298
1.9837708 15.216894 -2.5856631
1.9724439 15.207565 -2.6393185
2.0175974 15.214174 -2.6014144
2.0134895 15.207884 -2.6375859
2.0318198 15.200992 -2.6766319
2.0199413 15.1968 -2.6794653
3.7308142 17.318363 -0.57184571
3.6990304 17.234833 -0.58657712
3.6942332 17.242306 -0.58525878
3.6937556 17.235876 -0.5863927
3.7113361 17.257193 -0.58263469
3.7088513 17.268036 -0.58072168
3.6952498 17.279762 -0.57865262
1.5891043 13.029044 -2.2973678
1.5925764 13.05396 -2.3017626
1.5359329 13.139936 -2.3169265
1.6024817 13.173603 -2.3228662
1.5601315 13.193214 -2.3263214
1.6930081 13.219196 -2.3309076
1.6254405 13.206869 -2.3287313
1.5655365 13.268474 -2.3395875
1.6095752 13.233164 -2.3333654
2.4405487 13.895264 -2.45011
2.4508893 13.889413 -2.4490776
1.3661678 12.965961 -2.2862141
2.6726012 13.806512 -2.4344318
3.2164729 14.143328 -1.0879329
3.1930599 14.17815 -1.1215
3.2051444 14.163019 -1.1047319
3.6242673 14.483495 -1.4208672
3.6518109 14.478343 -1.3906224
2.0527961 13.180911 -2.3241479
2.0535085 13.185931 -2.3250337
0.55077291 14.997133 -2.6443937
0.48217171 15.01232 -2.6470759
0.5452466 14.981576 -2.6416495
0.5614928 14.965788 -2.6388655
0.59454072 14.977919 -2.641006
2.9927063 17.086172 -0.61279362
3.0014186 17.114407 -0.60781598
2.9235539 17.166437 -0.59863889
4.0157113 14.501891 -1.1088941
4.032814 14.497178 -1.0980674
4.0327668 14.484478 -1.095855
4.0327191 14.471777 -1.0936425
4.0243793 14.458284 -1.0959827
4.0326242 14.446378 -1.0892175
0.22097071 15.20074 -2.6767869
0.2168763 15.2005 -2.6802599
0.2416442 15.200851 -2.6762717
0.2650708 15.2005 -2.6802599
0.2771194 15.2005 -2.6802599
0.2592127 15.201134 -2.6759415
0.2093329 14.466059 -2.5506947
0.19564541 14.466059 -2.5506947
0.1712455 14.475049 -2.5523157
0.16827039 14.466059 -2.5506947
0.1545829 14.466059 -2.5506947
0.1408954 14.466059 -2.5506947
0.12716021 14.466071 -2.5506968
0.1363755 14.500061 -2.5567522
3.5294793 14.24713 -0.80449033
3.5392718 14.229419 -0.79346538
3.5473001 14.2135 -0.78427881
3.5424738 14.24795 -0.79418248
3.5220993 14.296116 -0.81911039
3.5622427 14.221224 -0.7747221
4.4149981 14.228895 -0.39263749
4.4434714 14.229331 -0.38693991
4.4421115 14.196573 -0.38139859
2.0779903 14.718555 -2.5952792
2.1227348 14.721211 -2.5957465
2.0834694 14.720918 -2.5956957
4.5412383 16.300995 -0.29499111
4.5191092 16.265381 -0.29117751
4.5355692 16.283016 -0.29240179
3.1277163 14.627762 -2.5792754
3.0665448 14.620235 -2.5779462
3.0528407 14.584599 -2.5716629
3.0234191 14.608018 -2.5757899
3.01421 14.603077 -2.5749185
3.0393517 14.613387 -2.5767379
2.0186403 12.741427 -2.2466595
2.0209055 12.729217 -2.2445047
2.0586593 12.733155 -2.2451985
2.0967021 12.783421 -2.2540648
2.0680132 12.764976 -2.2508121
2.5968559 13.712419 -2.4178472
2.5999599 13.668932 -2.4101775
2.5973043 13.680486 -2.412215
2.5758471 13.649405 -2.4067397
1.1463774 14.446074 -2.5472279
1.0873187 14.470908 -2.551604
1.1425729 14.456413 -2.5490506
2.2012429 14.262829 -2.5149214
2.2635136 14.328636 -2.5265236
2.2322476 14.268482 -2.5159178
2.2349899 14.285756 -2.5189636
2.2504182 14.268543 -2.5159283
2.2420156 14.253176 -2.5132186
2.2766809 14.24102 -2.5110748
2.3019259 14.268007 -2.5158329
1.7791855 13.361605 -2.3560078
1.7436459 13.370374 -2.3575559
1.7466575 13.415883 -2.3655818
1.7298082 13.360496 -2.3558145
1.7461402 13.299352 -2.3450325
1.8056647 13.451159 -2.3718047
1.788185 13.439184 -2.3696918
1.8643084 13.377096 -2.3587463
1.8104044 13.39372 -2.3616741
1.8264916 13.379675 -2.3591983
0.7406714 15.101955 -2.662874
0.7256453 15.136193 -2.66891
0.64648002 15.145595 -2.6705699
0.70188802 15.060577 -2.655581
0.71316642 15.080838 -2.6591556
3.0256786 16.416983 -0.73078251
3.0080822 16.413563 -0.73138648
3.0450251 16.419035 -0.73041928
3.067977 16.358635 -0.74107111
3.0703211 16.380774 -0.73716629
3.0737572 16.378923 -0.73749238
3.0870421 16.807201 -0.66197783
3.0858071 16.834814 -0.65711081
3.1175961 16.801386 -0.66300392
2.9618802 14.346301 -2.5296359
2.9237216 14.416842 -2.5420804
3.0381503 14.373743 -2.5344794
2.9896677 14.371386 -2.5340621
2.9952173 14.415956 -2.5419223
3.0278444 14.427159 -2.5438962
2.9577341 14.424291 -2.5433924
3.2973526 16.890953 -0.64720899
3.2428544 16.913771 -0.64318353
3.3697295 17.018644 -0.62469929
3.3644133 16.986618 -0.63034528
3.329308 16.986479 -0.63036978
3.3374145 16.983763 -0.63084882
2.4024494 13.110313 -2.3117037
2.4022903 13.152049 -2.3190587
2.4092221 13.126243 -2.3145094
2.3589163 13.161185 -2.320668
2.8442836 14.179999 -1.7266695
2.8442745 14.161562 -1.7234693
2.8487093 14.158585 -1.7112938
2.8234627 14.187654 -1.7870334
2.8316982 14.184399 -1.7629502
2.840142 14.183816 -1.7392792
2.4377048 16.15834 -0.77638692
2.3952477 16.111021 -0.78472751
2.4105194 16.122715 -0.78266621
2.497911 16.201925 -0.76869881
2.4877851 16.156809 -0.77665478
2.4276354 16.172457 -0.77389771
2.4147086 16.182163 -0.7721864
1.749395 12.720831 -2.2430279
1.729277 12.702024 -2.2397146
1.7405914 12.784658 -2.2542775
1.6391536 12.708719 -2.2408936
1.6923943 12.724334 -2.2436466
2.7104199 14.102632 -2.4866676
2.7028365 14.181488 -2.5005746
2.6534524 14.13052 -2.4915879
2.6599102 14.123775 -2.4903979
2.7814784 14.100735 -2.4863329
2.7505083 14.113914 -2.4886544
2.5512624 14.053599 -2.4780259
2.519639 14.062662 -2.479625
2.5076106 14.042198 -2.4760189
2.5410385 14.087358 -2.4839778
2.5530753 14.094814 -2.4852929
2.3967576 12.960388 -2.2852635
2.3270085 13.005314 -2.2931876
2.3300622 13.009467 -2.2939196
2.3548658 12.984495 -2.2895157
2.8997724 16.119604 -0.78322262
2.9060719 16.163805 -0.7754299
2.9259658 16.882393 -0.64872372
2.9284701 16.860924 -0.65250939
2.8864849 16.881365 -0.64890331
2.9061756 16.880497 -0.64905733
1.3285067 13.123048 -0.51378608
1.3285074 13.115917 -0.51641071
1.3284996 13.194059 -0.41065291
1.328499 13.156212 -0.4262237
1.3284992 13.187387 -0.3920418
4.8278766 16.442141 -0.29964191
4.8278999 16.418425 -0.2990765
4.8278999 16.405937 -0.29687521
4.823771 16.395012 -0.29467151
4.8278999 16.380962 -0.29247269
4.827527 16.36783 -0.28612921
4.8102355 16.365156 -0.29004079
4.7800589 16.376921 -0.29271859
4.8277373 16.352242 -0.281023
4.7496743 16.415058 -0.30000511
4.7328391 16.430628 -0.30309939
4.8278365 16.432543 -0.2684339
4.8278999 16.3944 -0.26895329
3.6592078 16.893263 -0.64679623
3.674619 16.927828 -0.64070487
3.6394253 16.85725 -0.65314692
3.8849058 14.010242 -0.53678989
3.8752711 13.991611 -0.5383985
3.8856566 13.985973 -0.53215051
3.9052148 13.966955 -0.51950192
1.6804321 14.399933 -2.5390959
1.6374155 14.241186 -2.5111022
1.6061918 14.228473 -2.5088627
1.609457 14.265268 -2.5153496
1.6216097 14.267783 -2.5157926
1.6682498 14.298155 -2.521148
1.6768003 14.270874 -2.5163376
1.6773688 14.160301 -2.4968488
1.6709965 14.100699 -2.4863403
1.6664188 14.103645 -2.4868598
1.6436666 14.195738 -2.5030932
1.6301314 14.122246 -2.4901402
1.6286782 14.144617 -2.4940834
1.6724865 14.236238 -2.5102308
4.5166616 16.597178 -0.34999859
4.5230789 16.602537 -0.3500554
4.523231 16.577562 -0.3456336
4.5200987 16.562395 -0.3433944
4.5360632 16.571545 -0.34327051
3.4751294 13.630564 -0.73949361
3.4645879 13.66103 -0.75379092
3.47035 13.665 -0.74945599
3.4761472 13.676455 -0.74674928
1.3285002 13.117853 -1.4661877
1.3285023 13.093344 -1.4232514
1.3285019 13.097195 -1.4174603
1.3285006 13.105451 -1.4741504
1.3285027 13.060901 -1.4967684
3.2059834 14.421188 -2.288831
3.2155552 14.523631 -2.2492065
3.2130575 14.51475 -2.26017
3.2115912 14.474698 -2.2612834
3.2131262 14.451375 -2.24862
4.8240809 14.351904 -0.3727721
4.8240809 14.340217 -0.37071019
4.8240809 14.328529 -0.36864829
4.8240809 14.316842 -0.36658639
4.8240809 14.305154 -0.36452451
4.8240809 14.293467 -0.36246261
4.8278999 14.295994 -0.35087669
4.8278518 14.323332 -0.32392731
4.8278999 14.331056 -0.35706231
4.8278551 14.358068 -0.35259649
4.8278999 14.393974 -0.26133001
2.4088168 14.973774 -2.6402802
2.3703945 15.020482 -2.6485107
2.3824599 14.998578 -2.6446509
2.3826156 15.062094 -2.6558461
2.3753777 15.054013 -2.6544209
3.1382587 13.730003 -1.1126236
3.1163242 13.738544 -1.1442962
3.1293199 13.746606 -1.127442
3.1370747 13.704596 -1.1097429
3.1224947 13.702643 -1.1292509
3.1358843 13.662816 -1.1038675
3.0990748 13.755029 -1.171569
4.6315861 16.211151 -0.27026749
4.6315861 16.186176 -0.2658647
4.6315861 16.173689 -0.26366341
4.6315861 16.161201 -0.261462
4.6411481 16.149035 -0.25871429
1.6228111 13.453522 -2.372215
1.6017725 13.47201 -2.3754754
1.5848453 13.449495 -2.3715053
1.5158027 13.477039 -2.3763709
1.5511569 13.460186 -2.3733945
1.5605578 13.478273 -2.3765831
1.6954381 13.51806 -2.3835962
1.7112408 13.544089 -2.3881869
1.6915751 13.511383 -2.3824189
1.6476794 13.530597 -2.3858056
1.6563876 13.547676 -2.3888168
3.128891 13.808064 -1.1388782
3.1372931 13.80721 -1.1275029
3.128891 13.784664 -1.1347533
3.1177776 13.804675 -1.1540112
3.1363499 13.784674 -1.1247545
3.1285012 13.766337 -1.1320511
3.0936906 13.793351 -1.1859144
3.0812004 13.814874 -1.2073671
3.0806794 13.833683 -1.2114182
3.1467636 13.768336 -1.1085929
3.4757864 13.987818 -0.80197293
3.515554 13.998059 -0.7718327
3.4902451 13.96452 -0.7862736
3.5168941 13.956878 -0.76349092
3.5473001 13.991313 -0.74510199
3.5473001 13.967937 -0.740978
3.5219765 13.938211 -0.75610679
3.5473001 13.95625 -0.73891598
3.5595808 13.943598 -0.72766572
3.5473001 13.932876 -0.73479199
3.5522518 13.921802 -0.72917402
1.725965 15.237396 -2.4613183
1.734942 15.239644 -2.4474072
4.6252775 16.91695 -0.39513981
4.6318073 16.903557 -0.39229131
4.6391363 16.913794 -0.39365551
4.6172385 16.87817 -0.38907269
4.6251726 16.86665 -0.38628519
1.9743917 14.107538 -2.4875433
2.0675254 14.14808 -2.4946969
2.0397096 14.146937 -2.4944935
2.0289514 14.122155 -2.490124
2.0234404 14.15712 -2.4962883
1.8278394 14.134642 -2.492326
1.8272132 14.148446 -2.4947603
1.9211034 14.138181 -2.4929478
1.9220941 14.190935 -2.5022488
1.9120113 14.157126 -2.4962883
1.9567245 14.137725 -2.4928672
1.9462898 14.185513 -2.5012927
1.9754595 14.18222 -2.5007124
2.1464138 16.136642 -0.78021961
2.0532079 16.190908 -0.77064389
2.0686314 16.148672 -0.77809048
2.0876555 16.123899 -0.78246212
2.0861478 16.119783 -0.78318799
3.01263 14.140846 -2.1535773
3.0442815 14.154704 -2.0751355
2.9290721 14.142725 -2.1428971
2.9554658 14.156513 -2.0647128
2.9416034 14.147016 -2.1185732
2.9926653 14.14597 -2.1245275
1.7119122 15.217473 -2.5823822
1.7089067 15.223288 -2.5474448
2.9685597 13.653313 -1.3629456
2.9661193 13.626611 -1.3629363
2.9691994 13.668674 -1.3644077
2.8330481 13.574022 -1.6515484
2.8169315 13.566425 -1.6953033
2.8188324 13.598134 -1.6956439
2.8083208 13.576856 -1.7235717
2.8112195 13.596778 -1.7176864
2.8141706 13.619316 -1.7125136
2.8364112 13.609737 -1.6481819
2.8032148 13.609571 -1.7463152
3.106195 14.237275 -2.5104058
4.825285 14.588002 -0.90527463
4.7872281 14.600614 -0.90860742
4.8252878 14.600709 -0.90751457
4.8252878 14.613409 -0.90975302
4.7839499 14.633358 -0.9144538
4.8252878 14.62611 -0.9119913
4.7574511 14.659507 -0.91964269
4.8252878 14.638809 -0.91422969
4.8252878 14.651509 -0.91646808
4.8252878 14.664209 -0.91870648
4.8278127 14.592474 -0.8836422
4.8278999 14.604875 -0.89535969
4.8278375 14.614285 -0.8783192
4.8278327 14.637162 -0.86641002
4.8278999 14.650437 -0.89686489
4.8278999 14.663137 -0.89910328
2.0846002 16.416615 -0.7308495
2.1149712 16.389914 -0.73555398
2.1210186 16.399992 -0.73377562
3.7324648 15.172475 -1.0540297
3.7101674 15.178049 -1.0224075
3.7805746 15.170136 -1.0673201
3.7903471 15.169787 -1.0693057
0.1088505 15.138703 -2.6693573
1.4575783 15.05155 -2.6539886
1.4785506 15.056561 -2.6548717
3.4056976 13.752312 -0.82191628
3.3825181 13.761972 -0.84534478
3.3869724 13.737596 -0.83667219
3.400897 13.736399 -0.82336169
3.3918118 13.716535 -0.82828331
3.3412273 13.77112 -0.88690501
2.3275094 15.958963 -0.81306821
2.3203869 15.974657 -0.80913562
2.3330884 15.974657 -0.80913562
2.3076859 15.974657 -0.80913562
2.3584907 15.974657 -0.80913562
2.3452592 15.98702 -0.8065291
2.3870423 16.071461 -0.79170078
2.3668456 16.067677 -0.79236943
2.3713202 15.998244 -0.80461168
4.0916305 15.571668 -0.57534212
4.049819 15.573704 -0.56386459
4.0393543 15.573938 -0.56255281
4.1550879 14.558517 -1.0468514
4.1107302 14.579312 -1.071701
4.1433878 14.579688 -1.0561829
4.0919056 14.566019 -1.0785717
4.1004491 14.592151 -1.0788578
4.1141863 14.613693 -1.0761459
4.0920033 14.604119 -1.0852393
4.1005144 14.617551 -1.0833029
4.1005483 14.630255 -1.0855249
3.2002785 14.372315 -2.3192265
3.2013774 14.40045 -2.3144951
3.2000635 14.349527 -2.3171351
3.2014186 14.362425 -2.3074825
2.7112515 13.371357 -2.1684072
2.7049839 13.286233 -2.2492857
2.7057288 13.320009 -2.2387917
2.7048137 13.312721 -2.2608955
2.7046604 13.326805 -2.2705884
2.7066784 13.344981 -2.2314091
2.7053969 13.360352 -2.2522998
2.7049839 13.344733 -2.2596047
2.704762 13.394915 -2.2783895
2.7055993 13.380004 -2.2528596
2.7037337 13.429789 -2.3311863
2.7062614 13.410008 -2.2484498
2.7051699 13.409838 -2.2648661
2.7048202 13.419442 -2.2801085
2.7058222 13.435096 -2.2591734
2.7047825 13.446583 -2.2861927
2.7058332 13.455412 -2.2626109
2.71071 13.394164 -2.1804273
2.7095902 13.403952 -2.1984129
2.7037091 13.509992 -2.346601
2.7028296 13.505091 -2.3774309
2.7046707 13.498551 -2.3024266
2.7055242 13.509522 -2.27689
2.705565 13.486922 -2.2722499
2.7038825 13.470908 -2.3320796
2.7047949 13.469316 -2.291816
2.7066457 13.47928 -2.2551982
2.7095249 13.445791 -2.2069902
2.7090418 13.538844 -2.2300973
2.7112916 13.47335 -2.1858134
2.7115164 13.455075 -2.1795955
0.57243103 14.79767 -2.6092191
0.639283 14.765103 -2.6034834
0.63357401 14.79396 -2.608573
0.58303952 14.880743 -2.6238735
0.58222342 14.826807 -2.6143599
0.678819 14.834002 -2.6156409
0.6724124 14.784319 -2.6068766
0.56002879 14.728029 -2.5969419
0.58779299 14.740676 -2.5991724
0.6169579 14.729064 -2.5971265
0.60064417 14.704629 -2.592818
0.59126502 14.669906 -2.5866959
1.2061253 14.08306 -2.4832182
1.2017657 14.076526 -2.4820659
2.3773613 14.711087 -2.5939598
2.3654873 14.722012 -2.5958869
2.3094988 14.71083 -2.5939188
2.3368876 14.720992 -2.5957088
2.4049196 14.728307 -2.5969968
2.3869059 14.753206 -2.6013885
3.0292411 14.101358 -1.3379092
3.0211899 14.078213 -1.3464475
3.0091369 14.078222 -1.3672737
3.0249143 14.073124 -1.3396727
3.012502 14.044455 -1.3553998
3.0249124 14.014682 -1.3293622
3.024502 13.997277 -1.3269331
3.0020261 14.003723 -1.3663192
2.9880474 14.076055 -1.4033278
2.9800513 14.035233 -1.4098721
2.9796982 14.057047 -1.4142618
2.973469 14.071717 -1.4277219
3.0257742 14.051994 -1.3345853
3.0522037 14.063794 -1.2955739
3.0691535 14.025682 -1.2623864
3.0701568 13.997559 -1.2558632
3.0423915 13.996159 -1.2988222
3.0357523 14.027404 -1.3147893
2.7848415 17.162771 -0.59928
3.0118437 14.172518 -1.3790561
3.0265152 14.164496 -1.3532866
3.0061879 14.142658 -1.3837384
3.024503 14.137594 -1.3516786
3.0150003 14.128145 -1.3658357
3.0339782 14.139861 -1.3373146
3.0150955 14.106246 -1.3618367
2.9875729 14.110927 -1.4101661
2.981184 14.13517 -1.4255173
2.9749007 14.152041 -1.4393547
2.9714501 14.1688 -1.44835
3.0576336 14.118065 -1.2965556
3.0661125 14.095765 -1.2794262
3.0614829 14.154012 -1.297016
2.7362382 13.535991 -2.0078042
2.7412944 13.547814 -1.9808923
2.7371049 13.534537 -2.0023108
2.7365994 13.500221 -1.9992011
2.7420297 13.507613 -1.9708148
2.7283504 13.548862 -2.0591207
2.7259116 13.58934 -2.0814106
1.3209471 15.365419 -1.4679408
1.3457869 15.365419 -1.4679408
1.3311921 15.362727 -1.491625
1.3582069 15.365419 -1.4679408
1.3584225 15.362434 -1.4946129
1.3706269 15.365419 -1.4679408
1.3742152 15.366439 -1.4617147
1.1760173 14.135429 -2.492456
1.1574372 14.204841 -2.5046985
0.70195758 14.60476 -2.5752077
0.66484398 14.613117 -2.5766819
0.67010301 14.627834 -2.579277
0.79021859 14.54436 -2.5645561
0.77203667 14.527843 -2.5616441
0.70692998 14.526198 -2.5613558
0.68424571 14.51949 -2.560174
4.5115423 15.165104 -1.0367156
2.7223375 14.188246 -2.5017679
2.8407423 14.130028 -2.4914825
2.8012264 14.100899 -2.4862878
2.730365 14.14853 -2.4947612
2.8674908 14.083564 -2.4800551
2.8554034 14.083564 -2.4800551
2.8433156 14.083564 -2.4800551
2.8223598 14.087488 -2.4565647
2.8312283 14.083564 -2.4800551
2.8191409 14.083564 -2.4800551
2.8070533 14.083564 -2.4800551
2.8959649 13.918454 -1.5566673
2.9112327 13.889934 -1.5186213
2.9256799 13.8847 -1.4864424
2.9285033 13.873944 -1.4790246
2.9230413 13.895435 -1.4939513
2.9236252 13.910824 -1.4953846
2.9241941 13.938481 -1.4990678
2.9416893 13.903781 -1.4589703
2.9432662 13.864567 -1.4489537
2.937505 13.936199 -1.4727492
2.9685678 13.904711 -1.4072771
2.9714501 13.8881 -1.39886
2.9588177 13.943482 -1.4328651
2.9649758 13.819836 -1.3992428
2.9407098 13.823314 -1.4466655
2.9238038 13.824324 -1.4798253
2.9222617 13.845143 -1.4867383
2.9278274 13.856434 -1.4772745
2.9125197 13.85204 -1.5089163
2.8895762 13.841026 -1.5567065
2.8856356 13.85331 -1.567452
2.8934441 13.839472 -1.5480912
1.837141 12.795674 -0.33023939
1.8032317 12.796227 -0.30969131
1.8461066 12.798221 -0.20940959
1.8723727 12.797312 -0.25870201
1.8930703 12.795699 -0.33032721
1.8960059 12.798467 -0.1962207
1.863609 12.798742 -0.17562561
1.8368942 12.79718 -0.26405099
3.5100513 14.607875 -1.58222
3.5199697 14.637707 -1.5740972
3.5078895 14.584841 -1.5813138
3.5151887 14.596663 -1.5730338
3.5225408 14.585415 -1.5615094
3.533113 14.610625 -1.5523906
2.4694321 13.293974 -2.3440988
2.471077 13.276018 -2.3409317
3.257894 16.462692 -0.72272623
3.2582581 16.481205 -0.71946341
3.3523154 16.497456 -0.71659827
3.2415869 16.504929 -0.71528041
3.3260078 16.526878 -0.71140951
3.5926638 17.05113 -0.61896282
3.6072371 17.064745 -0.61656362
3.6773102 17.101063 -0.61016327
3.6323893 17.092318 -0.61170411
3.672713 17.102573 -0.60989702
3.6792026 17.129137 -0.60521448
1.7416196 15.356456 -1.5551759
1.7509192 14.688393 -2.5899611
1.7382067 14.704041 -2.5927205
1.7454726 14.748017 -2.6004748
1.7405735 14.777052 -2.6055956
1.7459767 14.786674 -2.6072924
3.7409625 14.54884 -1.3167955
3.7152953 14.528648 -1.3364418
3.72018 14.547 -1.33495
3.7252259 14.565265 -1.333672
3.7093616 14.578103 -1.3509514
3.7200825 14.5851 -1.3417525
3.7127614 14.550716 -1.3427521
3.6850314 14.532178 -1.3664794
3.7672465 14.560889 -1.2956446
4.4500031 14.728312 -0.97501409
4.4501529 14.753712 -0.9794566
4.4589672 14.677882 -0.96399587
4.442831 14.686763 -0.96953583
4.3853545 14.750812 -0.99592447
4.4370065 14.710981 -0.97536838
4.4499278 14.715611 -0.9727928
4.8239069 16.834324 -0.372062
4.8239069 16.821836 -0.3698608
4.8239069 16.809349 -0.36765951
4.7962279 16.817831 -0.3701359
4.7962279 16.830318 -0.37233719
4.8239069 16.796864 -0.36545831
4.8239069 16.784376 -0.36325699
4.7962279 16.792856 -0.36573341
4.8239069 16.771889 -0.36105579
4.8239064 16.759399 -0.35885441
4.7759495 16.7617 -0.36064449
4.7962275 16.780367 -0.36353201
4.7476811 16.791264 -0.36638749
4.7916632 16.803648 -0.36770669
4.7328682 16.823885 -0.37243271
4.8278804 16.810583 -0.282114
4.8278818 16.84639 -0.3108736
4.4278235 17.730162 -0.4992381
4.4690247 17.748812 -0.4959507
4.4912686 17.655596 -0.51235801
4.5057602 17.66819 -0.51013392
1.1775596 14.798944 -2.6094501
1.1443739 14.81561 -2.6123865
1.1527982 14.831291 -2.61515
1.1125723 14.788361 -2.6075847
1.0848793 14.785569 -2.6070936
1.0974779 14.780066 -2.6061237
0.87941581 15.233735 -2.4841051
0.89795041 15.23958 -2.4479027
1.7714608 14.051065 -2.4775822
1.7699312 14.053746 -2.4780555
1.762592 13.999453 -2.4684777
1.7835749 13.985585 -2.4660296
1.7249695 13.999584 -2.4685051
1.6880316 13.907686 -2.4522986
1.6979955 13.877914 -2.4470508
1.7110586 13.879624 -2.4473519
4.8227916 15.808619 -0.1910314
4.8278999 15.831713 -0.19561771
4.8278999 15.819225 -0.19341651
4.8278999 15.781762 -0.1868127
4.8278999 15.769275 -0.1846115
4.8278999 15.778994 -0.1507578
4.8278999 15.783897 -0.1078198
1.8367434 12.741388 -1.2230802
1.8770958 12.743441 -1.2015432
1.8390125 12.747305 -1.1605583
1.8444922 12.752199 -1.1040726
1.880006 12.749628 -1.1338779
1.9750285 12.745722 -1.1774863
1.9453446 12.745872 -1.175887
1.9405231 12.740344 -1.2339489
1.9098879 12.745898 -1.1756407
1.8834572 12.738431 -1.2543159
1.9326444 12.753209 -1.0925508
2.0010521 12.746109 -1.173406
2.0502768 12.753448 -1.0895813
2.0212007 12.740618 -1.2310749
2.0420678 12.746165 -1.1728272
1.9724092 12.743932 -1.1962821
2.6910224 13.4396 -2.3697627
2.7028296 13.434891 -2.3650558
2.7029872 13.440949 -2.3618371
2.6850836 13.4513 -2.3718252
2.7028296 13.458291 -2.3691807
2.6850836 13.462999 -2.3738875
2.7028296 13.46999 -2.371243
2.6850836 13.4747 -2.3759501
2.7029958 13.483677 -2.3681819
2.6850836 13.486401 -2.3780127
2.7028296 13.49339 -2.3753684
3.9974368 14.358507 -0.91918278
3.9743099 14.359594 -0.91303402
1.8120811 12.762175 -0.98330402
1.8143947 12.755938 -1.0606185
1.8626763 12.761102 -0.99670732
1.8317391 12.765625 -0.93681651
1.8725181 12.766631 -0.92351609
1.917942 12.761856 -0.98721981
1.8934656 12.764655 -0.9504407
1.907497 12.757584 -1.0402608
1.9556302 12.764229 -0.95639622
2.0061755 12.761614 -0.99007589
2.0041585 12.764855 -0.94756252
2.0178082 12.769105 -0.88900089
4.7595315 16.049667 -0.2353812
4.7432671 16.069782 -0.23926049
4.72651 16.0935 -0.243825
4.7201867 16.105921 -0.246364
4.7591872 16.104176 -0.2450574
4.7404881 16.126165 -0.24927101
4.805654 16.054998 -0.2354482
4.8238072 16.058624 -0.2355452
4.8278999 16.0439 -0.23303901
4.7825208 16.087885 -0.2416838
1.6603929 13.173098 -2.3227766
1.6521738 13.173659 -2.3228757
1.7525866 13.221135 -2.3312414
1.7575102 13.202314 -2.3279226
1.7285519 13.144456 -2.3177202
1.7426916 13.122525 -2.3138509
1.703685 13.15145 -2.3189552
1.6847368 13.160671 -2.3205836
2.2834349 14.067536 -2.4804845
2.2684841 14.095898 -2.4854858
2.2734394 14.104585 -2.4870176
2.059685 14.960476 -2.6379354
1.9930543 14.917124 -2.630296
1.992963 14.950727 -2.6362174
1.9486687 14.892609 -2.625972
1.9505607 14.899931 -2.6272633
1.8659915 15.032265 -2.6505816
1.8911293 14.984823 -2.6422246
1.8724366 15.014558 -2.6474626
1.3285002 13.203686 -1.5675894
1.3285002 13.13054 -1.5973973
1.3285002 13.133601 -1.5727053
1.3285002 13.14162 -1.5584222
1.3285002 13.118658 -1.539487
1.3285002 13.152509 -1.5100501
1.740273 14.56805 -2.5687397
1.7631129 14.640646 -2.5815413
1.7056352 14.618776 -2.5776837
1.7173413 14.629267 -2.5795336
2.8810031 13.818742 -1.5721818
2.8815808 13.798136 -1.567149
2.8943915 13.790669 -1.5375462
4.3582139 14.729388 -1.0004532
4.3852954 14.738107 -0.99370241
4.391984 14.713418 -0.98760492
4.3733134 14.711469 -0.99247968
4.3851228 14.700006 -0.98703527
4.3850083 14.674607 -0.9825905
2.88396 13.869287 -1.5739613
2.885716 13.881399 -1.5722861
2.88396 13.90435 -1.580145
2.88396 13.916038 -1.5822062
2.8832383 13.933778 -1.5871514
3.4047091 16.552126 -0.70695019
3.3223233 16.634892 -0.69236219
3.3219039 16.595324 -0.69933808
2.236614 15.196814 -2.6794546
2.2486625 15.196814 -2.6794546
2.2607114 15.196814 -2.6794546
2.2848089 15.196814 -2.6794546
2.2721877 15.20099 -2.6767037
2.2589648 15.171877 -2.6751816
1.9476674 15.1968 -2.6794622
1.9488817 15.206828 -2.6435792
1.9597148 15.1968 -2.6794622
1.9717623 15.1968 -2.6794622
1.9356714 15.200994 -2.6766031
1.9243484 15.213933 -2.6028988
1.9838098 15.1968 -2.6794622
1.9882964 15.191804 -2.678664
2.0131159 15.192922 -2.6786611
1.9398375 15.182706 -2.6771212
1.9276549 15.158525 -2.6728539
1.979249 15.151423 -2.671602
1.9398719 15.080508 -2.6590941
2.0966647 15.203754 -2.6614704
2.0697901 15.204515 -2.6570737
2.1042275 15.196804 -2.6794603
2.0921788 15.196804 -2.6794603
2.0801301 15.196804 -2.6794603
2.0742865 15.192745 -2.6785834
2.0477667 15.204401 -2.6577308
2.0560327 15.196804 -2.6794603
2.0439839 15.196804 -2.6794603
2.0252318 15.166773 -2.6742833
2.0696783 15.1554 -2.6723039
2.0427215 15.059745 -2.6554303
2.0456989 15.134677 -2.6686382
2.8158331 16.202339 -0.7686311
2.7969341 16.176165 -0.77324581
2.7699323 16.221806 -0.76519662
2.8278387 16.208382 -0.76756579
2.6672058 16.330063 -0.74611109
2.6458302 16.290691 -0.75305182
2.6634691 16.272621 -0.75623602
2.7018216 16.266918 -0.7572394
2.6568096 16.541874 -0.70875633
2.6461627 16.564146 -0.704831
3.7999275 14.164941 -0.60928112
3.79386 14.206313 -0.61987209
1.3384298 15.050862 -2.6538754
1.3242872 15.112603 -2.6647551
1.2602901 15.063285 -2.6560647
1.279797 15.00959 -2.6466029
1.284698 15.039573 -2.6518857
4.0065999 17.458099 -0.54720592
4.0266604 17.452135 -0.54825771
4.0170321 17.467453 -0.54555559
3.989444 17.285183 -0.57770067
3.9992597 17.329319 -0.56991857
2.7165728 13.928823 -2.2163281
2.7115164 13.946172 -2.2661991
2.7144313 13.953509 -2.2397416
2.7124555 13.973526 -2.2604046
2.7108619 13.979722 -2.2812152
2.714952 13.998398 -2.2428429
2.7110493 14.014699 -2.2844999
2.7125671 14.007009 -2.2653174
2.7193735 13.971066 -2.1995754
2.7220931 13.947206 -2.171226
2.7059321 13.99578 -2.3565316
2.7081149 13.983624 -2.3230009
2.7090919 13.935734 -2.2992084
4.8278999 16.274588 -0.1432344
4.8278995 16.329191 -0.1146216
4.8278999 16.331989 -0.1408875
4.8278971 16.29966 -0.2120785
2.7108824 13.840321 -2.2568243
2.7119701 13.871263 -2.2467775
2.712723 13.853891 -2.2367704
2.7112906 13.870885 -2.2559285
2.7146044 13.884347 -2.2260246
2.7134459 13.848761 -2.2295225
2.7127233 13.900641 -2.2450192
2.7095687 13.895162 -2.285243
2.7119701 13.918013 -2.2550275
2.7193244 13.842377 -2.1773269
2.7218714 13.867011 -2.1589737
2.7217515 13.847321 -2.1557498
2.7192247 13.880153 -2.1848631
2.7057669 13.919235 -2.3453107
2.7063284 13.908208 -2.3355095
2.7075105 13.844263 -2.306565
2.7064712 13.880669 -2.3284166
2.711508 13.741546 -2.2301168
2.7163062 13.75562 -2.1877491
2.7143023 13.741346 -2.2034616
2.7115657 13.759881 -2.2326889
2.7126381 13.778742 -2.2242839
2.7110448 13.774315 -2.2425966
2.7108898 13.794401 -2.2481871
2.7156508 13.806856 -2.2032008
2.7127233 13.81959 -2.2307208
2.7090104 13.80989 -2.2781839
2.7183523 13.794488 -2.1773708
2.7207432 13.785103 -2.1547897
2.7220745 13.761391 -2.1386466
2.7060704 13.82902 -2.3250909
2.7055678 13.803522 -2.3280196
2.707567 13.757872 -2.2901909
2.7093778 13.726229 -2.2586038
2.8226471 13.937588 -1.7446817
2.7953625 13.951588 -1.8323567
2.809885 13.957311 -1.7856236
2.817997 13.96129 -1.7619669
2.7924907 13.985013 -1.8476595
2.7859421 13.98181 -1.8684536
2.8151052 13.978831 -1.7732571
2.8263333 13.995359 -1.7447246
2.7184625 13.55109 -2.1334887
2.7220609 13.586697 -2.1080244
2.7193346 13.61797 -2.1372733
2.7139163 13.542601 -2.1714313
2.7147975 13.577256 -2.1701863
2.7126386 13.568237 -2.1871634
2.7125676 13.585204 -2.1909359
2.711508 13.589503 -2.2033045
2.7119505 13.609035 -2.2010748
2.7145119 13.61766 -2.1798177
2.7115164 13.63041 -2.2105238
2.7152987 13.657243 -2.1799281
2.7110474 13.645944 -2.2195001
2.8414745 14.051035 -1.7118475
2.8281436 14.033685 -1.7463804
2.8404112 14.03226 -1.7115171
2.81306 14.036301 -1.789255
2.8181224 14.053916 -1.778048
2.814374 14.063975 -1.7904276
2.8071136 14.061157 -1.8129913
2.815408 14.092196 -1.7924241
2.81306 14.0597 -1.79338
2.7926605 14.103966 -1.8680742
2.7071242 13.69518 -2.2866008
2.708812 13.664874 -2.255924
2.7061505 13.743751 -2.308892
2.7059059 13.713387 -2.3070993
2.7119701 13.730901 -2.2220376
2.7105448 13.699854 -2.2374034
2.7125759 13.713614 -2.2134621
2.7119701 13.6958 -2.2158501
2.711508 13.683048 -2.2198057
2.7126515 13.668499 -2.2048042
2.7171247 13.699312 -2.1713502
2.7223253 13.675701 -2.1213205
2.7205744 13.654522 -2.1327527
1.5541198 12.823995 -2.2612193
1.5479898 12.775382 -2.2526486
3.2500284 13.918865 -1.009246
3.2575099 13.910399 -0.999084
3.2617135 13.899464 -0.99263138
3.3009088 13.860814 -0.94419563
1.5291388 13.43042 -2.3681452
1.4808217 13.402591 -2.3632367
1.5586509 13.365431 -2.3566821
1.5501206 13.337632 -2.3517804
1.5201894 13.364308 -2.3564849
1.418792 13.373842 -2.3581665
1.5136548 13.300635 -2.3452573
1.4817122 13.319799 -2.3486373
1.4790207 13.329462 -2.3503413
1.582602 12.693598 -2.2382181
1.545018 12.681593 -2.2360952
3.2104321 17.127703 -0.6054619
3.164758 17.126387 -0.60569477
3.1823442 17.149668 -0.60159022
2.4279003 13.14872 -0.57338071
2.4279003 13.13512 -0.5948649
2.4279003 13.133046 -0.5674383
2.4278998 13.203196 -0.60148817
2.4278996 13.249591 -0.53839833
2.4278998 13.201813 -0.5517869
2.4278996 13.216964 -0.47868651
2.4278998 13.202204 -0.50383902
1.0875014 15.212336 -2.6118381
1.0690976 15.20345 -2.6631956
1.1502156 15.228224 -2.5173965
1.1481464 15.212745 -2.6094537
1.159479 15.203266 -2.664259
1.1664153 15.200995 -2.6763916
1.1809915 15.205248 -2.6527874
1.1360852 15.204042 -2.6597705
3.5334606 17.555965 -0.52995491
2.5616899 15.067598 -2.6568189
2.4710538 15.112833 -2.6647966
2.479449 15.067148 -2.6567402
2.4956422 15.07247 -2.6576791
4.8278999 16.038044 -0.2174055
4.8238063 16.071108 -0.2377452
4.8278985 16.069279 -0.1894826
4.8275704 16.082184 -0.2369771
4.8238063 16.096083 -0.2421477
4.8238063 16.10857 -0.2443489
4.8278999 16.104265 -0.23040719
4.8238063 16.121058 -0.2465502
4.8238063 16.133545 -0.2487514
4.8279123 16.132219 -0.2172488
4.827899 16.105253 -0.1466452
2.0168955 12.777901 -0.75028861
2.0131526 12.774266 -0.80998158
4.8278847 16.008234 -0.1902582
4.8278999 16.033762 -0.13605569
4.8277092 15.962238 -0.21657389
4.823863 15.972319 -0.2206137
4.823863 15.984806 -0.22281501
4.823863 15.997293 -0.22501621
4.8277092 16.012188 -0.2253789
4.8139014 16.020018 -0.2289959
4.823863 16.034756 -0.23162
0 15.012742 -0.89482617
0 15.042039 -0.99999559
0 14.943319 -0.9415257
0 14.987725 -0.92506742
0 14.965136 -0.93356311
-0 15.142458 -0.92669261
-0 15.218359 -0.85658717
0 15.203712 -0.9571085
-0 15.185887 -0.9320544
-0 15.208726 -0.91607481
-0 15.2967 -0.28721619
-0 15.210491 -0.2552872
-0 15.288877 -0.23214041
-0 15.285849 -0.2416302
0 14.885848 -0.52151889
-0 14.861067 -0.56594992
-0 14.862631 -0.58019561
0 14.857497 -0.71996027
0 14.841241 -0.62939042
0 14.836661 -0.6773991
0 14.858017 -0.61109859
0 14.901372 -0.6336593
0 14.901944 -0.66807848
0 14.89698 -0.6510663
3.0000001e-07 15.27702 -0.60944182
2e-07 15.273472 -0.57453078
0 14.826371 -0.51772672
0 14.847354 -0.53649551
-0 14.882865 -0.4291223
