# .PCD v0.7 - Point Cloud Data file format
VERSION 0.7
FIELDS x y z
SIZE 4 4 4
TYPE F F F
COUNT 1 1 1
WIDTH 1568
HEIGHT 1
VIEWPOINT 0 0 0 1 0 0 0
POINTS 1568
DATA ascii
29.410435 -24.455399 330.05261
37.03669 -33.021217 267.40659
42.750477 -27.095654 267.37485
48.20071 -21.50098 267.46356
59.066788 -10.055817 266.89853
8.5864506 -41.695435 349.35104
8.4441643 -40.699905 339.25449
16.827673 -37.328636 348.49738
18.226929 -36.692558 338.98297
-47.751968 -94.991226 315.29279
84.558525 45.062119 388.09656
89.765656 51.384338 385.77768
-41.612259 -89.335068 315.43118
8.0795898 -60.335762 309.89792
13.608818 -54.497757 310.30658
-36.408318 -83.742943 315.84528
19.494022 -49.399338 310.29388
103.33047 63.910011 379.02234
25.016869 -43.540543 310.70197
64.933289 -4.0366058 267.0647
107.18544 68.117371 376.4328
112.29882 73.479836 366.64941
30.932842 -37.750122 310.95123
111.07758 74.163071 375.27728
36.278885 -32.373993 311.21628
114.96799 81.635376 375.20782
115.34598 80.292892 366.61099
118.37473 89.50235 377.87943
117.66021 87.169579 374.8696
118.27197 87.334007 367.02551
2.27878 -43.667503 357.71945
2.649559 -43.587967 348.60962
9.2006702 -40.130058 357.92416
13.353357 -38.952835 353.76056
17.035172 -35.025246 356.54272
82.002258 46.503918 393.41089
86.60923 53.330902 393.31265
102.6567 14.119356 295.1911
98.321442 69.566498 394.05487
2.4819393 -38.296745 372.48349
0.89690399 -42.06279 366.3797
6.7764244 -34.979614 372.86456
7.7272987 -37.482788 366.74768
147.72324 136.15604 338.93552
79.249741 49.086239 399.53085
83.696838 54.047245 399.07755
47.394825 -20.721584 311.96112
53.349365 -15.460991 312.00162
104.25282 12.631474 304.19373
49.342773 -11.219727 315.31793
182.75507 92.774399 309.68854
126.44408 69.530075 320.2233
132.13013 75.561256 320.59613
186.53354 97.386703 310.30841
13.72784 -26.80946 380.43872
138.19785 80.893753 320.54544
145.10362 74.187408 315.55414
17.221434 -23.922134 380.90674
150.90141 79.913696 315.78558
143.96227 86.550659 320.74933
147.96004 82.327728 317.74103
149.42157 92.304909 321.10751
156.41112 84.798111 315.77484
153.41774 87.721802 317.91434
162.25589 90.627861 316.00137
159.07616 93.412109 318.1864
168.35081 96.471252 316.18881
164.86763 98.931824 318.31519
85.833626 34.326241 353.12161
86.770157 35.358505 351.59875
87.37114 35.837231 353.87808
177.79192 105.79088 316.61505
119.50489 31.323753 295.80206
-14.602875 -49.63253 330.45276
-14.722816 -49.353844 322.93237
-8.2502518 -47.349442 329.97534
-7.2260437 -45.749214 322.53671
49.245274 -11.312824 330.35632
141.65585 54.417248 296.44186
49.472828 -11.407764 321.61658
55.344025 -5.9403038 330.90063
55.344498 -6.1759033 322.20654
9.0566368 -61.559067 267.51147
14.863083 -55.907143 267.90884
20.404896 -50.087158 267.54327
25.918243 -44.349113 267.1167
155.03336 97.986153 321.33765
160.63086 103.58986 321.57947
31.568192 -38.971756 267.91727
113.76733 85.973152 332.32739
166.75471 109.41341 321.69342
114.68135 86.180679 338.65396
90.478607 40.264809 369.35071
116.54832 92.139122 332.80914
116.07433 91.553894 339.80911
18.246544 -70.818527 294.80499
94.749893 45.417526 368.05093
118.07099 98.990242 339.87289
121.32057 97.505356 332.918
99.502548 51.30529 366.65057
124.01048 106.07047 335.30237
104.2478 58.271492 366.26492
102.35123 59.965279 375.01645
104.97908 58.303631 357.49622
108.47495 65.545898 366.52643
106.65708 65.399803 372.94031
-14.68998 -71.491386 313.29443
155.31204 120.56197 330.05627
-8.776268 -66.107521 313.38196
159.23495 125.04462 330.53345
-3.317646 -60.296478 313.79312
2.2951546 -54.7146 314.07977
7.8810062 -49.451096 314.22122
70.297165 -20.862942 303.18295
13.854092 -43.826218 314.3844
75.994301 -14.95491 303.65323
87.121742 -4.2166061 303.87848
31.341211 -27.359718 314.9104
93.236771 1.5380955 303.95135
36.948265 -21.942833 315.26749
98.640541 7.0731869 304.1709
42.780128 -16.913658 315.42694
97.188927 8.1535435 295.45117
124.67263 108.58512 375.99307
123.61179 107.9102 366.8093
122.88283 112.29964 359.93103
134.21362 62.474937 275.32104
131.64081 64.967667 268.23041
122.53562 114.72424 356.87048
110.28459 18.436623 303.96674
13.076506 -39.617744 340.13538
12.589771 -40.03653 348.20822
116.03817 23.730637 304.11023
-37.723492 -57.771484 340.28891
-38.468719 -59.647827 348.78564
-25.77356 -55.066589 340.17896
-30.439018 -56.020256 339.41541
-25.263779 -54.028397 336.75226
-20.733971 -53.387321 339.35709
29.445885 -25.136559 348.86591
-13.245255 -50.761681 338.88159
36.352364 -20.904263 339.44012
36.923855 -21.422352 348.4227
42.717682 -16.00333 339.50641
43.351444 -16.44379 330.67438
48.829998 -10.746548 339.50049
54.971081 -5.6874046 339.52487
94.532074 57.249516 385.2561
132.05327 112.7459 335.18481
99.934364 63.267113 384.5014
135.86517 117.45156 335.65204
-79.769829 -96.466057 325.77881
141.91504 122.85097 335.67526
-75.770073 -92.343437 325.95483
113.20779 82.170029 383.36206
147.37802 127.92572 335.70413
116.30511 86.516296 380.72549
151.73383 132.59955 336.32526
-3.6922646 -47.777267 319.61832
-1.3096104 -51.195396 316.67078
1.7504997 -42.812683 320.6431
4.4880428 -46.25106 316.64758
10.456734 -40.537285 316.80606
8.8697243 -38.738327 321.42487
19.315817 -37.993172 314.79208
105.85945 34.463985 274.05991
15.69891 -34.789673 320.48694
25.022064 -32.278988 315.09964
111.36714 39.730042 274.82245
19.38402 -31.836319 318.20316
116.80525 45.376656 274.60431
122.655 51.28228 274.57147
128.8434 57.329651 274.83731
-30.663822 -57.649178 348.01312
43.281391 -16.163395 348.5419
49.07629 -11.11623 348.66626
100.39202 73.708244 395.93134
105.95857 79.415009 394.44785
110.79675 85.714127 393.79681
115.25616 92.533424 393.46301
119.08503 99.309593 392.76233
122.15731 104.30035 390.31299
147.57951 60.320225 297.05447
95.889977 79.210075 406.07779
-38.789009 -58.188057 328.10352
101.18462 85.030777 405.9165
-32.507713 -54.373619 330.34702
106.29675 90.546814 405.22498
-25.575012 -52.561371 329.65891
111.51472 96.62291 404.21722
116.34415 102.49124 402.49796
83.44043 21.9326 316.29541
119.9029 109.63488 402.67731
89.406769 28.088514 316.65271
144.17119 51.871155 303.79468
149.77025 57.715439 303.81128
46.336407 25.523945 409.68298
52.072517 31.326077 409.85687
-42.20256 -67.051239 324.48148
52.898445 42.671547 418.99622
57.349133 36.872959 410.06995
-36.406311 -61.24501 324.76245
58.690212 48.086876 418.61835
63.09322 42.672321 410.06674
-30.069141 -56.055389 324.59723
69.004807 48.287552 409.58972
63.824432 53.578003 418.77325
-23.931458 -51.590591 324.83926
74.255188 53.91806 409.48856
68.843552 59.186607 418.97632
119.50417 91.82885 375.91992
37.059078 -21.55658 321.68768
41.390881 -14.985027 357.5509
-8.8060722 -48.872101 357.52765
113.49552 105.34483 409.43143
87.191277 30.34947 321.09317
-44.721817 -64.02626 326.50443
34.260799 -18.868618 364.94604
-8.3533554 -43.899895 375.20743
-7.3716431 -46.5 367.57709
-2.5026474 -42.701027 370.14175
-2.0603352 -39.418236 375.77615
90.41967 73.508881 406.14099
-94.437637 -82.387238 336.45831
92.810722 81.391891 410.88342
-19.431416 -45.098152 385.56207
-21.593647 -41.740074 391.97949
-13.090439 -39.761253 386.86804
-10.243473 -41.161499 382.19287
-15.454304 -36.661026 392.61108
115.44836 69.510406 323.96939
121.34845 75.065186 324.12393
-4.6788101 -36.278198 383.31946
-43.605797 -62.336189 367.60333
107.95916 68.899055 329.45813
110.63947 74.430099 329.85428
77.538811 28.537643 376.51556
114.72578 74.355026 326.1543
118.78604 78.314575 326.26712
114.50964 80.918335 329.59933
83.082153 34.399006 375.77304
126.24191 84.638481 326.18518
1.679018 -28.621735 389.70645
-38.827103 -104.20694 308.63214
130.21082 88.765373 326.4194
-32.948353 -98.168503 309.0015
135.91597 94.320419 326.561
-26.879448 -92.849495 309.04993
141.59492 99.705811 326.67941
-21.527496 -87.766312 309.23553
22.224037 -7.0710182 398.10187
-15.721245 -82.340263 309.38123
27.534765 -2.271637 398.59125
-9.784668 -76.758926 309.56116
133.36914 63.635231 315.55603
-43.469231 -61.72213 374.25507
139.36542 69.213837 315.65137
-38.075195 -59.470352 375.51282
-37.411335 -60.470551 366.66675
88.093018 40.463066 375.48703
85.58287 42.745499 383.46011
92.435493 47.323845 375.84619
90.374695 48.603241 381.98343
97.33371 53.45853 375.52493
96.161819 55.620354 380.79544
65.529152 -16.324989 285.57486
10.819028 -7.3795509 407.72235
-76.472137 -99.848618 323.28043
17.021175 -2.0878105 408.06015
-71.403107 -94.466721 323.63406
23.723192 4.0625877 408.67694
-3.97995 -71.17572 309.77405
-66.145432 -88.580673 324.1376
-59.935471 -94.246399 319.77484
-54.206955 -88.748413 319.98199
1.8702507 -65.855972 309.86499
-48.139328 -82.737457 320.25952
118.24284 103.47807 338.03201
-42.602898 -77.158943 320.58136
-37.249218 -71.775787 320.90137
-31.597015 -66.044128 321.20941
-25.673088 -60.416283 321.39804
113.43282 84.921692 387.27182
117.4958 90.992432 384.79651
120.91312 98.17495 384.00647
123.07202 103.87555 383.78534
127.0331 137.03918 346.50436
132.31039 143.15833 347.05844
-9.2589722 -49.644714 358.69113
137.26349 146.70605 346.90393
-5.0704594 -47.273521 357.54523
-55.037537 -62.95224 358.43207
-48.084885 -61.923904 357.72339
-48.026138 -60.89473 348.34335
16.043753 -34.672516 359.25272
17.875698 -33.00832 349.73395
127.00488 125.17337 376.31146
21.015203 -29.976501 354.11096
21.281105 -29.227283 348.10605
25.158264 -26.37241 348.72504
119.0183 55.525112 317.32346
121.60725 52.51133 315.26245
124.39561 60.347118 317.3252
127.22823 57.710484 315.36169
121.194 63.991558 319.85968
129.84044 66.024109 317.69632
-54.242943 -61.575493 390.14847
-49.863937 -58.616714 392.68341
135.89287 71.678009 317.79913
-48.193512 -61.172729 384.25986
-41.379356 -57.667274 385.97803
-43.224876 -54.505852 393.92953
-37.984154 -57.486015 382.44302
86.215004 0.73457336 290.77921
-59.920311 -83.610527 323.96057
-61.130028 -79.342567 326.13382
-58.687828 -76.393272 326.51709
-50.577385 -69.239189 326.48715
89.170647 61.911835 396.42804
121.83437 115.59816 354.49179
94.777054 67.656448 396.17932
125.2676 120.95863 362.72427
-87.895752 -88.760559 331.64325
-92.030495 -85.438683 334.38779
125.1281 123.86719 364.54086
-82.656464 -83.088318 332.02011
-85.872452 -79.187485 334.70905
-88.631721 -77.072792 336.53842
-80.064148 -74.037262 334.7959
-82.741066 -71.792198 336.58929
-76.993568 -77.550865 332.29861
-76.710121 -66.341621 336.68088
-71.274529 -71.964821 332.5325
36.72813 -21.125034 330.86877
-65.322426 -65.638893 333.00705
119.7652 103.12315 396.09399
-70.692657 -60.921814 336.84354
-59.676353 -61.051109 332.87875
-65.05909 -58.981209 338.74179
122.59921 108.32554 393.58453
122.96189 115.24729 400.8522
124.82693 115.53143 393.50946
-54.09803 -57.848991 332.65872
60.766201 -0.13305283 339.61551
153.54211 66.326057 297.53741
61.21101 -0.35760117 330.48688
158.7731 71.752861 297.18115
66.195724 5.5373783 339.98575
-26.542313 -56.46254 366.14972
-21.180336 -53.915871 366.78546
164.06685 77.102768 297.22916
-22.148605 -52.355057 374.22592
169.70534 82.655136 297.42255
-15.550457 -48.189896 375.40649
-13.753136 -50.158836 366.82904
-4.2765808 -45.855293 364.16037
-65.225143 -65.799088 375.34262
-64.91526 -65.188881 366.69589
-59.365791 -65.362282 377.16516
-54.847778 -64.559464 366.60858
-59.832993 -65.098389 365.67538
92.102402 36.345268 330.31927
92.180901 36.516838 320.82513
95.53949 42.451534 329.63538
-25.046501 -94.772865 267.38135
103.5793 47.121464 319.28278
-19.901951 -89.580704 266.97986
110.1857 52.346947 319.07809
-14.371418 -83.766983 267.87936
115.79621 58.466103 319.55267
-8.6630821 -77.685852 267.23212
-2.4008942 -72.544312 267.42273
3.4752007 -67.014282 267.44916
99.058884 36.213326 316.55414
155.63719 63.57378 304.20587
-43.279266 -57.975677 338.57513
0.5806675 14.933264 434.90494
161.1666 69.208679 303.80093
22.622564 -28.374786 339.9751
6.7335739 20.354839 435.24023
104.4504 41.673897 316.80969
165.26898 76.491615 309.53729
25.59437 -25.829262 338.71188
166.81262 74.931793 303.79077
12.329437 25.392229 435.50565
172.20653 80.878143 302.85669
157.66315 95.096191 263.3288
171.61932 81.665085 309.33325
18.408781 31.18306 435.92688
24.582928 36.644604 435.854
50.068279 45.417171 423.54822
55.221027 51.003883 423.84506
55.825043 49.450874 422.12045
-26.274094 -56.391388 357.88766
49.778164 56.473125 432.25269
60.830372 56.278114 423.45251
55.143761 62.451355 432.55081
58.056953 59.206612 427.93375
60.79528 68.019531 432.21191
66.058411 61.92691 423.46808
63.480297 65.187958 428.03918
-30.027153 -45.100914 395.21777
-24.119308 -39.760284 396.43231
28.932425 -13.306755 382.95453
-35.072906 -39.540085 405.4201
-32.668953 -41.886559 401.06335
-26.879875 -37.055588 401.62946
-65.384171 -111.50577 314.85742
-38.006096 -36.898643 410.21533
21.544662 -51.530922 273.85797
-32.024414 -31.992729 410.60104
-70.861717 -105.80573 319.02789
-59.533081 -106.09869 314.95947
-61.591377 -102.54233 317.1098
-65.670578 -100.01424 319.43484
79.677933 39.697433 388.75385
-15.35302 -22.803787 408.92508
79.881393 36.512798 384.27319
117.95316 91.651413 348.5863
119.41973 97.504158 350.0264
1.3691235 -6.1850433 416.23764
5.9888325 -24.777061 391.4913
12.194283 -19.854076 392.08084
74.677826 -14.452721 294.73679
80.324692 -8.7248764 294.79568
85.983551 -2.9000397 294.76105
76.538788 40.476761 393.70117
119.35692 92.065598 356.96686
91.528648 2.4298859 295.24045
86.082985 58.415504 397.97369
120.81176 97.271553 358.38855
82.369049 56.88271 403.24457
91.66214 59.720623 391.56714
86.378609 64.880997 402.01385
-4.6806316 -0.46932793 425.70892
6.4653511 -1.2495193 417.10455
0.40831947 3.6309643 425.77399
96.37957 65.20356 391.82394
92.167274 70.361778 401.5217
97.245911 76.324532 402.00137
12.1371 4.1212845 417.80923
-82.722023 -93.785789 327.8345
5.7983837 8.7704372 426.44849
-76.901413 -88.417236 327.91962
12.242011 14.329865 426.67358
102.772 81.690025 400.99408
18.100172 9.0966644 417.86774
-71.514893 -83.087448 328.16309
107.90985 88.208588 400.90253
112.23296 49.726761 263.9122
-9.2624817 -49.677544 341.02563
-65.37252 -77.386375 328.34393
-5.0919876 -47.613358 339.69168
-59.579399 -71.314888 328.74884
2.3677254 -43.907257 339.58246
85.236267 68.641235 406.19284
-48.33535 -58.694984 339.84271
-99.524254 -77.152824 340.3479
-95.738892 -79.964767 337.84085
-93.679695 -71.686653 340.43817
-91.332802 -75.361336 338.16772
-85.652878 -69.560699 338.52026
47.353958 -4.2357445 371.69873
52.419975 0.57035446 371.9968
51.851814 -2.7318802 366.34738
96.845657 46.222763 336.23041
97.190445 46.766029 332.54559
100.65614 51.159332 339.06656
100.04602 51.435516 330.55472
104.43835 58.480434 338.8945
103.81479 58.802727 330.36234
107.77979 65.364761 339.99399
106.85792 65.457954 331.02429
77.444946 25.402401 371.38477
-65.462402 -61.756912 399.31934
-44.278152 -108.97523 308.60059
-60.868477 -58.866798 401.56961
-65.771759 -54.503189 411.20676
-54.163383 -54.946877 402.45349
-54.914879 -50.935936 408.06104
-59.468292 -50.023392 412.18301
-47.832245 -50.409241 403.36847
-53.358505 -45.132706 413.15411
1.3352184 -19.59565 402.12439
-47.005318 -39.758858 413.92902
-41.295776 -45.091553 404.33798
7.6226349 -14.853405 402.23029
-20.516144 -54.358673 347.77368
112.75394 93.632034 399.53674
-12.998074 -51.309326 348.83481
-64.280975 -61.932053 349.15271
-9.3413658 -48.691467 336.36328
-59.897621 -61.145241 347.86053
-59.338905 -58.941933 339.18665
94.555527 32.275581 316.59534
-105.50629 -70.638351 345.09229
89.161469 83.508392 415.88696
-99.757675 -65.607941 345.0162
95.590324 90.0196 415.54788
-87.836327 -65.799385 340.77692
-94.139809 -59.857323 345.35007
101.46348 95.758232 414.85129
-82.707748 -60.441528 341.13196
-88.906113 -56.77562 344.69135
106.34139 101.83683 414.84988
-78.946922 -62.752403 338.88293
100.94545 107.08806 423.9754
111.74548 107.99564 413.78607
176.92599 87.48867 309.72025
106.12359 113.05634 423.59421
-76.285843 -60.261581 338.93646
-76.929848 -58.315025 340.47083
116.63427 114.25484 412.31995
-55.251999 -63.628494 383.69913
119.98448 113.68196 406.5123
111.59583 118.96126 422.15887
120.61756 121.21688 411.17615
123.245 119.22034 403.62784
120.01053 125.14964 414.95248
116.21851 125.2674 420.70062
122.19543 130.36041 413.67972
123.30168 127.03665 409.276
124.81749 125.20143 403.18661
119.2767 132.18167 420.09308
-30.356052 -56.033508 375.7059
-32.355717 -53.636116 384.44775
-37.523174 -54.456337 388.5928
-36.358982 -50.363785 393.91843
-25.499245 -49.389931 384.90524
-24.348907 -52.065201 378.11517
23.700342 -18.115242 382.15656
-84.644485 -64.888519 393.67914
-76.198929 -65.888138 384.57883
-81.858871 -65.485855 387.71234
-73.824936 -65.67778 375.3595
-82.473473 -64.878593 394.66064
34.823612 -7.9617004 383.42413
-71.250671 -66.02829 378.64954
-71.056259 -65.819061 386.29651
40.501289 -2.5704422 384.06598
-6.9569359 -34.457382 387.7345
46.311211 2.6446056 384.05911
48.968777 -0.49861145 375.58713
54.487083 5.3238754 376.69501
51.948673 8.1932144 384.48553
57.814613 13.776146 384.52921
60.833168 11.306917 376.57938
66.823776 17.275948 376.59573
63.743046 19.615013 384.56821
69.596054 25.414284 384.29846
71.965469 22.725864 376.80753
-72.11869 -58.521477 409.58734
74.600861 30.778179 384.40967
-66.055946 -49.973854 416.60471
60.771648 -0.13263321 348.83224
-8.5069733 23.719366 446.94357
-3.0782337 29.619808 448.05609
2.9565201 35.33551 448.59091
8.469677 40.773956 449.09393
142.32556 77.281158 317.73489
34.657635 59.476658 445.14459
66.523087 5.4372005 348.54016
-31.936829 -50.333954 390.10654
40.509109 64.818176 444.73615
72.093628 11.274059 348.87378
45.845043 71.117134 445.2435
-27.058559 -46.422775 390.96643
28.605806 -24.094101 363.40198
-73.991524 -64.855583 368.02365
31.209927 -15.913189 375.82455
-43.296623 -31.378025 419.00739
-55.849327 -31.083351 427.37924
-49.045593 -36.127777 418.67551
-49.185715 -25.258785 427.91388
95.375992 32.916367 263.71924
100.69009 38.596714 263.60236
103.01411 36.600437 267.90765
108.82932 42.432251 268.21204
80.141434 -5.0110359 290.13101
114.86604 48.220764 268.55215
-26.333912 -13.344807 426.96384
77.227341 51.329903 404.0246
120.14484 53.830097 268.06686
125.64149 59.118122 268.20709
-10.020462 5.8955116 434.39227
2.4004555 -10.12788 411.56042
64.825668 -3.9424095 312.57874
105.1778 42.770344 263.90573
70.076508 1.8339977 313.03784
-32.627029 -7.9447327 435.74271
75.596954 7.3604469 313.30789
-9.5244904 -50.045235 346.60898
-26.831886 -2.9172745 437.23273
-4.9788494 -47.663925 348.49469
77.51342 62.875641 413.67532
-54.33033 -61.761299 351.12701
81.886658 70.200409 411.39868
82.480026 76.980713 415.79501
-5.3248158 10.102583 434.79391
87.115295 75.861916 411.11639
-5.1888027 21.382296 443.31714
89.669319 83.079178 414.96649
0.75213623 16.389202 436.04541
5.9035149 21.487633 436.67041
97.454269 87.123505 411.42874
0.72367287 26.98727 443.95673
92.730675 92.660683 420.08569
103.3803 92.907181 410.50711
29.037537 -24.929695 357.50156
35.225513 -20.242554 357.81592
108.5759 99.42411 410.37241
-72.501709 -63.330109 357.91513
-67.851555 -61.628502 348.3212
116.80936 109.64583 408.48834
47.720634 -9.7273979 357.82275
54.907597 -5.7198677 348.61993
53.483154 -4.4256172 357.59894
-111.04701 -65.732559 348.98721
96.56884 46.354996 323.87408
-107.28455 -68.849731 346.39307
-101.56824 -63.358459 346.56631
99.745132 51.376526 323.31494
104.42554 58.07893 323.58081
-95.998489 -57.61412 346.8858
94.490997 100.69832 424.74567
-18.329514 -34.93161 396.97183
-12.883919 -29.941612 397.7514
36.762909 1.5034561 393.71246
42.65324 6.3757095 393.25635
45.093357 4.9789162 388.8121
48.565758 12.279888 393.7753
54.024467 17.743046 394.12833
59.773724 22.983265 393.66064
-82.513229 -56.815247 417.78238
65.666481 28.734934 393.42972
-77.247849 -53.743652 419.17163
70.907127 34.713516 394.00403
-71.13443 -49.036789 420.79971
-77.025871 -43.518745 429.54697
-61.221001 -46.340828 417.19794
-15.081669 -14.843029 419.332
-64.973228 -44.471474 421.42401
-70.950829 -38.332481 430.57608
-64.948761 -33.162582 431.28748
-58.787659 -39.090485 422.42639
-9.2319908 -9.6489677 420.46957
-3.5434761 -14.621746 411.48846
-3.0708218 -4.5085411 420.9794
-52.857704 -34.389275 422.68655
98.049034 98.416664 420.01428
103.40237 104.09965 419.54034
108.40816 110.24666 419.2316
113.26929 115.99902 418.16553
-33.356136 -121.04649 300.0929
117.3064 120.96001 416.47617
-27.797771 -115.84059 300.04935
-116.85934 -59.380005 353.60248
-21.736572 -109.71942 300.43835
-16.128147 -104.1573 300.58215
-111.7422 -53.835342 353.95197
-10.324539 -98.336777 301.10443
-107.46719 -50.67627 353.66187
109.76223 63.855003 323.71075
-76.421188 -65.1064 393.3288
-77.058472 -63.187408 402.03815
-70.791443 -64.548416 394.05283
-66.127876 -64.036858 392.82867
-70.011696 -61.484215 402.72226
-59.261635 -61.786018 394.08295
-63.484154 -57.819008 405.25226
-9.3792343 -31.410172 393.28293
-53.271957 -58.357712 396.42844
-5.0030479 -24.84898 400.33789
113.26274 142.05537 433.1235
118.83605 136.65009 422.67453
3.8427315 -22.656109 396.17676
115.5963 147.20848 431.17395
10.005741 -18.046284 396.37299
119.45064 142.27643 423.0368
13.897784 -9.9035416 402.35638
18.568304 -13.908844 393.3613
19.947056 -4.7270241 402.74478
24.965641 -8.9671288 393.14072
108.65764 65.727882 357.35434
110.87295 70.15345 355.97382
25.98983 0.56326485 403.06039
30.873486 -3.7471581 393.49634
46.838692 -42.874527 294.61328
31.883938 6.43223 403.94006
37.958271 11.496616 403.62717
52.359692 -37.23732 294.56296
58.158546 -31.350945 294.61374
63.78191 -25.464466 294.43115
69.160019 -19.856262 294.33981
-89.037102 -52.271812 426.8468
-82.743797 -48.073997 428.39948
-18.7938 34.161461 459.42468
28.909742 66.035141 453.10425
25.124563 69.651695 457.50754
114.72567 137.70477 429.31653
34.412357 71.672623 453.1171
30.575844 75.213348 457.52371
-12.901157 39.479996 459.83392
117.27054 143.01907 427.37833
-60.991074 -24.751926 435.54199
123.09639 104.7249 367.71805
-55.401627 -19.819519 435.98276
-67.250435 -18.22007 443.94904
-61.282379 -13.090611 444.27106
54.975883 -6.0343857 315.34521
-43.094872 -61.472801 361.44379
60.654453 -0.50220871 315.52762
-38.116074 -59.947845 357.34756
-55.597137 -8.1027184 444.52402
-26.219463 -56.334061 348.7348
118.39342 146.6832 352.58322
-38.935745 -1.6179905 444.51038
-20.600197 -54.206276 357.12323
-32.382874 3.1896973 445.05948
-13.429897 -51.203125 357.2724
-26.701939 8.3097343 445.85382
-64.130821 -63.828972 357.5546
-20.196457 13.497736 446.08633
-59.217194 -63.344269 356.96948
81.854416 81.368607 419.771
78.353714 84.091614 424.42523
87.161316 87.100235 420.29907
-59.17849 -28.015011 431.9324
-8.8968697 1.6296844 430.21301
-30.807941 -57.779922 357.22922
-45.234436 4.7891216 452.58487
-39.996582 8.6705914 452.95221
-33.174957 14.553024 453.68958
40.225609 -13.31739 365.95685
-27.091366 19.671173 454.09793
45.966076 -7.8142395 366.94601
-21.248035 25.038128 454.72278
73.579407 91.150093 432.81918
97.343552 41.526249 320.0173
-14.781528 30.263142 454.86627
77.92556 95.626938 433.15427
90.933342 96.419609 424.35028
-9.1828041 35.761345 455.56778
83.629883 101.40151 433.26514
86.962273 98.091789 428.58179
89.97438 107.63741 432.9841
0.95584679 39.434898 452.51978
92.448608 104.21269 428.81256
98.024376 109.77834 428.31757
94.901695 113.01316 432.96552
6.0846062 43.983482 452.60724
103.04115 115.69744 428.21414
37.246872 -14.142975 369.92386
108.11646 121.26089 427.28607
112.7331 127.27746 426.23389
-44.007538 -51.196487 399.39069
-38.249313 -46.646301 400.24414
-87.290283 -63.450745 402.1684
-82.689255 -63.165512 403.57303
-20.566349 -31.742886 402.10324
-14.389984 -26.631729 402.69427
-7.4568329 -22.904053 404.84357
-1.2387314 -18.031754 406.09937
127.04166 102.81609 332.96497
132.94675 108.73376 333.23444
138.85721 114.38181 333.3959
144.4653 120.02517 333.62915
150.18628 125.12489 333.61951
154.71591 129.40222 333.91339
121.32384 97.385628 366.19238
86.596306 19.035326 267.39862
92.093941 24.632364 267.89948
-111.39095 -49.925919 434.31061
-105.42891 -47.779221 437.67227
97.663261 30.575531 268.12668
-99.599319 -53.399475 428.48135
-95.30265 -47.001335 435.45157
-99.37867 -44.335503 439.74576
-93.260635 -50.358566 430.92279
-88.693954 -42.469269 436.74448
-92.517128 -39.605293 441.06348
-87.232002 -46.382729 432.41873
-80.026146 -40.623604 433.78085
-82.216919 -37.51564 437.61215
-86.758499 -35.384186 441.7207
-81.142708 -30.348549 442.72327
-76.693497 -32.35173 438.73026
-20.433548 -8.6529541 428.56445
-20.373917 2.295557 437.76651
-14.584713 -3.5155983 429.47202
-71.005981 -27.045471 439.64072
-14.554977 7.6064415 438.46973
-54.146629 -66.185738 328.93262
91.935715 115.62585 436.81964
100.54361 119.37753 432.74606
97.353569 121.44906 436.49005
103.05858 127.70874 435.83328
105.81493 125.20856 431.95761
107.73264 133.70485 435.15985
110.7921 131.12444 430.60553
-49.76757 -47.231468 408.436
-44.134262 -42.167572 409.51166
15.925335 -57.080261 273.74652
-92.849564 -60.567673 412.30026
-88.438446 -61.674179 409.16037
-88.657822 -59.231125 415.70981
-82.816383 -60.289787 411.43161
-25.887802 -26.4655 411.24411
-75.69442 -57.323448 413.51236
-70.353447 -53.156059 415.87427
-20.121292 -21.955566 412.18649
-13.041771 -17.975731 414.69699
-9.8061562 -19.782757 410.42139
-8.5820045 -14.564281 415.20645
108.12498 148.78342 441.59427
121.09993 109.04823 337.88223
110.00922 152.93523 440.40103
126.76563 114.71839 337.7374
8.2888641 -4.6932259 412.45023
132.46802 120.56142 338.06097
14.897701 0.7997818 412.62067
138.47546 126.29634 338.22556
20.943773 6.2343311 413.0329
143.70059 132.26154 338.71729
26.542809 11.49176 413.47095
145.79401 139.22748 341.29596
119.63882 91.991226 365.71924
58.772911 -9.4779663 312.48129
-100.73991 -40.686729 443.77179
19.372368 75.2099 463.87561
15.092403 79.171692 468.23483
-71.040436 -15.249729 448.03998
76.889023 75.180878 421.02042
-65.254181 -9.8705177 448.57269
-68.192574 -6.8162003 452.08984
-76.807098 -9.0016823 454.9184
-71.065536 -3.6567802 455.39819
75.646378 87.084473 428.56586
-62.709167 -1.888916 452.38544
14.331892 -33.185051 366.55807
81.691666 92.50248 428.31113
-54.704811 3.9099808 454.81256
-60.043564 10.02705 462.07706
20.750771 -28.686066 366.94861
27.187103 -23.19046 368.28549
-54.942223 14.32605 463.3941
-48.702103 7.4418297 456.03555
33.071121 -17.854858 369.5285
-49.008034 18.698341 463.7142
119.81625 164.8045 360.21704
-38.60236 22.81802 461.68286
-33.333069 26.942463 461.85562
-27.510265 31.737965 462.1058
-21.640335 36.728691 462.40668
-15.617287 42.501465 463.03561
-17.109554 11.175377 442.64294
-12.271503 -84.73378 274.57834
-43.127075 24.409847 464.70163
-7.1869354 -79.42128 274.53696
-37.277351 29.948078 465.47479
-1.1944313 -74.327835 274.1102
-31.265186 35.572948 466.14676
4.4757347 -68.634979 273.18637
-25.70211 41.117867 466.91214
10.315968 -63.107117 273.84366
72.220108 102.23101 441.27789
-22.70694 49.466988 470.46881
77.545128 107.3905 441.28778
83.529816 113.47621 441.20935
-15.779308 55.243969 470.64185
76.673317 119.80213 449.43262
86.371338 109.62242 436.84198
88.423553 119.38875 441.58725
82.037056 125.88386 449.50894
-10.767262 59.914799 470.94562
93.662598 124.3331 440.91501
87.374786 131.37701 449.11026
-5.1073341 65.892761 471.49048
93.108932 137.00641 448.31354
99.700363 130.79233 440.25342
96.346428 132.98264 443.90918
104.44271 137.13809 439.85513
98.86319 143.54155 447.5592
99.89978 138.66003 444.33905
109.00008 142.9212 438.40112
-55.327797 -41.56205 417.89801
103.89935 149.0509 445.91205
106.68625 154.95587 445.01331
112.5463 148.09875 435.98334
-105.12073 -55.230164 424.82166
-47.122643 -28.686787 423.77954
-99.218048 -56.776978 421.79797
-40.980179 -34.554276 414.57404
-37.408123 -26.262653 419.51215
-35.829891 -30.216251 414.9848
-41.055397 -23.412083 424.31238
-31.403172 -20.518505 420.24237
-31.217789 -26.048927 415.42484
-35.594635 -18.738426 424.48032
-25.508163 -16.930885 421.50217
29.029758 9.0546799 409.1142
-18.305641 -12.422241 423.81021
34.752174 14.133171 409.1496
-53.809196 -77.519951 324.2915
40.783024 19.665009 409.14011
119.54097 114.2334 340.34894
-47.749313 -72.301041 324.2959
121.68031 120.03252 341.70456
120.77548 116.9832 349.0011
122.95207 127.46941 344.14764
127.2925 126.01479 342.02728
122.25164 131.91873 346.12299
132.6059 131.77066 342.46536
131.95126 136.54422 344.56046
63.713097 57.182701 421.73529
138.29597 136.40202 342.25983
136.94475 140.77692 344.47412
70.272026 63.723122 421.26611
142.94775 141.10497 342.65598
141.31589 144.19797 344.63654
121.60985 97.227188 374.86832
79.644585 59.923889 409.10129
-71.757156 -22.182995 443.61282
74.648926 65.260803 418.3497
-120.08313 -41.16523 446.3855
82.848907 62.722065 407.39783
78.272308 69.563705 417.92685
123.60658 103.88762 375.47995
-116.16685 -39.017303 449.21527
-110.88853 -42.381462 445.02112
-116.60284 -34.973228 453.4982
-108.92465 -35.041306 451.58301
-105.20587 -38.042435 447.70294
-110.67726 -31.578903 454.81134
-98.596657 -33.078712 449.07471
-48.565483 -2.8041382 445.90692
-94.391624 -36.148338 444.79181
-104.57932 -26.337944 456.38538
-98.985497 -20.878151 457.72592
-92.554893 -27.545341 450.37778
-88.476021 -31.357933 445.64386
-42.555519 1.3876209 448.70361
-93.526672 -15.704235 458.59714
-86.484375 -23.059826 450.58319
-36.66687 6.4749985 449.71347
-30.225243 11.807066 450.27087
-80.970535 -17.648106 451.50955
-23.812401 5.6423035 442.28857
-23.756508 16.963594 450.50977
-75.436356 -12.926029 451.84369
23.540199 14.114691 418.19284
29.535618 19.820656 418.57251
35.203941 25.571243 419.06421
41.288765 31.323368 419.09039
47.254921 36.988789 418.96722
123.55337 139.09543 348.54654
-84.196487 -2.6821327 461.98972
-77.809547 3.5170517 462.56549
-72.539597 8.2442284 462.83902
-82.437492 7.366539 466.48569
66.713058 97.008553 441.31616
70.149315 93.374245 436.65207
-76.297165 18.083729 471.07629
75.296196 98.742241 436.97784
-71.023361 19.391808 472.25525
81.045471 104.19885 436.89325
-23.390347 -96.487625 274.18695
-65.705795 24.349361 473.71939
-17.954372 -90.778152 273.36246
-62.50325 20.541191 470.32635
-56.015053 25.810051 470.90973
-59.879837 29.744328 474.62134
85.478882 121.79861 444.95831
-49.937576 31.305008 471.65854
-54.459702 36.215084 476.1622
91.682503 128.08835 444.45435
-48.831558 41.124722 476.68314
-43.519539 36.3675 471.93375
-48.952599 45.851196 479.24503
-37.656906 41.827888 472.57089
-44.757492 49.192665 479.41458
-42.529709 46.550926 477.13721
-38.930721 54.443623 479.90488
-31.289295 46.637424 472.58594
70.890587 114.10741 449.63007
-93.914169 -57.978439 419.03259
-87.543335 -55.804474 421.36981
72.125053 67.818344 422.6441
-126.67207 -34.731216 453.37958
-122.242 -32.19532 456.52747
-115.70084 -28.074516 458.97519
-108.71759 -23.379261 460.00116
-103.04692 -18.830521 460.73621
-42.557877 13.088438 457.18668
-37.2714 18.527052 458.33667
-87.464973 -10.849815 458.79044
-31.317543 23.374058 458.63382
17.806154 54.993034 452.92303
23.341415 47.94104 444.78049
-32.496319 60.224873 480.40948
61.944748 124.00215 460.37418
67.06604 129.75258 460.61731
-26.7346 65.142456 480.59711
72.673233 135.99709 460.7002
-21.163277 70.282326 480.83344
-80.761208 -51.585396 423.6604
-15.255863 75.833176 481.00281
77.852264 140.85742 460.12073
-21.240906 -18.398056 418.16095
83.255196 146.74423 459.77533
87.345757 143.1933 455.33902
95.350288 146.09497 451.38504
88.751823 153.24783 459.34903
92.398903 149.13922 454.89316
93.652756 159.72961 458.52151
100.42413 153.12502 450.65573
97.362091 155.08243 453.89249
100.71288 160.77449 452.70209
98.273888 165.3699 456.15732
104.04102 159.20784 448.8985
-52.73996 -22.631733 432.24792
-2.7037659 7.0984268 430.70868
3.6541748 1.0727882 421.25989
-46.615997 -17.154186 432.73318
2.89715 12.123808 431.13571
9.0433674 6.2397022 421.96378
9.0167665 17.311653 431.29984
-41.139755 -12.084145 433.17392
18.020622 20.08329 427.39386
14.891952 22.798485 431.76038
21.081343 28.669044 432.14896
24.169813 25.76672 427.6579
-24.010036 -5.8833885 433.12543
29.763266 30.987835 427.75653
27.114519 34.241055 432.22495
35.432335 36.616142 427.98987
32.780571 39.791424 432.45279
41.365429 42.186588 427.80469
38.265621 45.165165 432.46964
44.41185 51.431297 432.58133
46.52832 48.053467 428.40219
119.03636 137.56982 348.56058
52.434158 54.009186 428.38202
118.46537 149.72815 353.88144
121.32341 142.97327 350.65305
120.93913 154.32812 355.37561
125.48177 152.88495 353.28281
126.75555 148.69972 351.19174
125.36101 158.83778 355.94897
128.55557 155.76328 353.36322
131.81244 152.39667 351.03183
66.31044 73.962082 431.9256
-83.031815 -14.661457 454.41272
71.295593 79.970947 430.50473
-130.7928 -30.427486 457.83246
-128.17062 -29.246216 459.50092
-127.55302 -25.330891 463.19785
-65.455383 1.9081764 455.99942
-122.13562 -20.652515 465.98657
-59.798134 6.4171696 457.97342
-116.26721 -15.529137 467.50858
-52.494232 11.030422 460.19568
-109.64938 -9.9361954 468.30554
-103.77507 -5.4040871 468.45178
-45.188843 17.021624 460.96625
-98.656326 -0.36131287 469.06714
11.308393 48.904243 452.82404
-88.567596 13.733807 471.93857
-93.639427 18.861626 476.08383
51.971676 -33.64249 289.83197
60.82206 104.11988 449.47498
-82.521942 19.06398 472.59445
65.847328 108.75874 449.35327
-86.748886 27.449043 480.17038
-78.534683 27.102676 479.57285
74.785812 110.45403 444.97192
-73.069077 31.242283 480.19699
80.246429 115.67729 444.70422
-66.10482 36.773628 480.74023
-59.929657 41.622818 481.09268
-54.411034 47.196098 481.96606
-48.63839 52.616684 482.6037
-82.430267 30.222836 482.39923
-77.054153 35.597507 483.83261
-71.45919 41.302399 484.90259
-65.435234 46.844063 485.63593
-59.289139 51.609314 485.89978
-53.234306 56.886887 486.34134
-55.845085 60.221558 488.79089
-49.876907 65.794128 489.29822
-43.109421 58.074162 483.289
-47.26239 62.613213 486.96832
-61.430534 -35.820793 426.94864
-107.95462 -52.957649 429.2381
-105.06348 -51.676712 431.70779
-43.369293 -20.18935 428.31732
-37.300674 -14.76519 428.85172
-30.764004 -11.20998 430.99503
-10.529026 96.170761 488.02002
-19.419075 -2.0367661 433.68713
94.975296 170.41364 460.37262
-48.458817 -60.336334 329.71689
-8.9120331 13.284678 439.45459
-41.766068 -56.440445 330.66022
-3.0185318 18.172337 439.61703
23.782598 -27.266708 332.31561
2.8552437 23.437778 440.02045
25.713058 -25.324707 331.5928
8.7082939 28.9923 440.56653
14.882002 34.916168 441.00626
157.08653 94.835022 262.62881
20.650188 40.413429 441.26123
26.459263 45.216721 440.81888
32.0368 50.903664 441.0592
125.67644 120.47311 395.22107
125.96825 122.60228 395.51141
37.939152 57.246563 441.42068
-30.218586 -57.863663 366.83304
42.77314 62.04657 441.34326
49.142357 68.297714 441.07144
117.60414 161.05968 359.07358
-94.650009 -12.010906 461.32129
-89.756516 -7.4128075 461.79636
-136.14076 -24.111004 463.77777
-133.59622 -21.204437 466.93527
-127.03516 -17.504299 469.19672
-65.849716 12.93449 465.50903
-59.712326 17.909962 467.57187
-52.963776 23.045364 468.02563
-47.937355 28.200409 469.01392
-40.826935 33.196808 468.96893
13.720816 57.960907 457.06439
-105.16431 37.671989 487.8851
-9.6264496 81.125427 481.06955
-25.776035 75.285233 485.05167
-41.407005 67.442703 487.17404
-3.896328 86.77243 481.12732
-20.349384 80.866318 485.4314
-34.754642 73.253296 487.51736
1.6304283 92.792725 481.29565
-14.294029 86.451233 485.4491
-29.410553 78.096992 487.72089
7.5549564 98.387917 481.03735
-8.8519897 92.284683 485.69073
14.632706 11.4559 422.50116
13.074438 104.34607 481.06836
-3.384222 98.253563 485.84448
20.995064 17.16243 422.79767
18.695179 109.71297 480.70789
2.2101288 103.59776 485.66833
26.898071 22.688753 423.07767
24.209938 116.07929 480.74832
8.1884556 109.50513 485.47949
33.233295 28.815113 423.37848
29.612896 121.79181 480.39722
13.932346 114.94572 485.12805
38.405941 33.866219 423.51169
34.691788 127.67172 479.77283
19.060287 120.44947 485.01822
44.214073 39.735008 423.70923
43.525639 -16.634052 321.81049
25.141064 125.62085 484.17896
11.759605 119.26414 487.84647
124.35527 108.78177 384.70407
30.9813 131.57965 483.24817
16.736248 123.94814 487.51755
125.56788 114.57871 385.04608
36.045635 139.69081 479.99695
22.353806 130.05176 487.25021
61.18808 -0.41993713 321.31464
40.671604 144.92743 480.367
27.139278 136.59996 487.03305
-100.09626 -28.988457 452.7594
46.862347 150.42787 480.2218
32.096684 144.22882 483.46823
-95.181427 -24.676208 453.56699
52.560524 156.48181 480.42322
36.081131 149.57687 484.09534
-89.031502 -19.799553 453.96417
57.394703 161.20912 480.31964
42.467503 154.09422 483.53748
27.669682 148.75058 487.03888
62.393299 166.22302 480.08813
47.462902 159.73682 483.97095
31.922283 152.92242 487.00281
68.101639 172.73586 479.87158
53.261135 165.81876 484.12311
38.023544 158.23067 486.94672
71.772133 177.57672 479.62375
58.643864 171.14406 483.89685
43.373379 163.4016 487.08734
-81.689125 -5.4782028 459.28464
64.825897 177.09682 483.1554
49.668247 170.00642 487.36566
-75.650192 0.37710571 459.87323
70.632576 182.76865 481.77045
54.970886 175.41034 487.2597
-69.284668 5.890316 460.08508
73.867142 188.2924 480.71155
60.366497 181.2093 486.86563
-65.62104 8.044281 459.92288
-24.811096 28.571148 458.83752
65.947296 188.17865 486.08972
-3.219265 41.21236 455.93161
-119.05789 -58.102859 354.85156
69.117638 193.49207 484.99628
2.3855629 46.866909 456.51138
-112.43736 -52.003448 354.95795
23.053352 60.55051 453.25122
8.0238514 52.853958 457.14615
-7.3696404 44.251274 460.0152
-122.36624 -54.985291 357.36224
66.276939 197.19772 487.45251
-1.3152485 49.988632 460.44635
-117.10291 -50.200104 357.28903
19.141396 64.175369 457.73053
3.5593472 54.859009 460.76038
39.933395 77.242859 452.99481
-126.61989 -50.426819 360.68573
10.896325 61.425629 460.72733
45.530819 83.166504 452.81552
-123.13684 -46.662903 360.96362
-2.5079613 -27.777164 393.86429
50.9711 89.323929 452.75299
36.430286 81.008324 457.31668
23.444065 73.730759 460.83072
54.309879 93.046661 452.52139
42.388885 86.677422 456.79047
25.543949 76.073013 460.93219
171.10443 113.38873 322.06519
47.759995 92.673973 456.65158
15.22294 -13.393524 397.23608
45.262825 -18.905212 261.00006
53.178268 98.242477 455.8974
38.651031 89.25293 460.46472
56.753418 16.45594 389.45447
57.378979 102.93495 454.05096
43.853561 94.817627 460.18796
60.395493 20.116503 389.52536
62.7258 111.12084 452.62363
49.398552 101.79298 460.15594
65.445015 25.028475 389.29626
67.432999 116.3075 452.99216
54.690895 109.16953 457.69968
112.46344 73.885803 357.38867
73.562363 122.41739 452.82468
59.087234 114.89878 456.85641
115.48755 80.883957 357.69131
78.673996 127.83102 452.7049
64.872147 120.46945 456.83667
117.813 87.124191 357.5817
85.008614 134.89389 452.56171
70.360695 126.49499 456.97086
55.759254 118.3268 460.60071
-73.231895 -45.907814 425.20206
76.127899 132.04585 456.51868
-89.347153 37.998219 488.62878
-67.566223 -41.351105 425.94714
81.275375 137.62524 456.33173
-83.38868 42.375252 489.23486
-97.665909 38.860992 490.07867
-61.541573 55.256088 488.37689
-77.090744 47.589989 489.79059
-93.373596 40.943989 491.10681
-110.0502 34.43676 488.06299
-70.773384 52.831314 490.23318
-87.559608 46.697151 492.50284
-103.67705 39.114182 489.7644
-65.84214 58.260162 491.14322
-81.658951 51.982727 493.22333
-44.072975 70.803696 489.59515
-59.954521 63.914413 491.79037
-76.015137 57.185856 493.83716
-37.590588 75.680008 489.54987
-54.220879 69.593239 492.3909
-70.561378 63.047569 494.67493
-31.784931 81.219406 489.8989
-48.72065 75.114105 492.97025
-64.200264 68.309692 494.9397
-26.022171 86.510948 490.02917
-42.97506 80.950302 493.51651
-58.626984 74.274689 495.68506
-20.438652 92.626289 490.41119
-37.141682 86.698395 493.91446
-52.374924 79.726791 495.92059
-14.29031 97.902016 490.15875
-31.302536 92.379349 494.16727
-47.70977 84.589188 496.37729
-9.3764534 103.76552 490.5415
-25.74741 98.473099 494.52832
-41.198784 89.66703 496.24182
-3.5137081 109.61761 490.48785
-20.319736 103.62638 494.50778
-34.905685 95.891624 496.53784
2.3734894 115.25099 490.27356
-14.643238 109.42049 494.62079
-29.629921 100.6993 496.53168
7.8699493 121.01606 490.21542
-9.0551834 114.68395 494.51721
-23.193417 107.28536 496.69293
13.387329 126.78709 490.06079
-3.1468563 120.89099 494.55774
-19.004036 111.16618 496.70242
18.962391 131.86067 489.48846
2.3201561 126.56046 494.5177
-11.059093 118.81956 496.65186
23.738663 138.64713 489.45853
8.5031013 131.63603 493.91763
-4.5372124 124.92203 496.48785
69.362518 70.700699 427.12973
13.466179 137.06461 493.75888
-1.5464973 129.22743 496.87585
73.024216 75.915756 427.40747
19.40543 142.78465 492.88141
4.765522 135.04158 496.53821
-47.807068 -63.194138 366.18344
23.841717 148.92975 490.93094
10.973328 141.64391 496.29565
-117.88016 -24.491108 462.2001
29.433537 155.99394 489.10028
16.181553 147.66602 495.92923
-111.01599 -19.591099 463.25076
35.360096 161.6022 489.272
21.870937 154.06671 492.17645
-104.88925 -14.872478 463.82056
41.00396 167.05011 489.45078
25.833229 159.33224 491.79749
-98.942963 -9.9099121 464.2467
46.906288 172.89212 489.6142
31.693394 164.60535 491.81821
-93.976875 -3.9543381 465.44058
51.906754 177.83244 489.48474
37.022514 170.22552 492.26477
-87.980118 1.7992668 465.94101
57.207203 183.61288 489.26599
42.980202 175.85126 492.39343
-140.01759 -18.188354 469.3241
62.504765 190.06943 488.60974
48.447948 181.2086 492.29813
-76.95282 13.337578 467.39954
-92.439117 4.5478859 469.10229
54.066933 186.54791 491.83099
-71.722107 15.484501 468.57318
-86.545265 10.321602 469.56403
59.797493 192.47415 490.82367
-9.329277 47.963593 463.25217
-82.366241 13.903393 469.69373
64.516273 197.91379 488.95584
-3.4041958 53.195183 463.39722
-20.154884 46.74369 467.69482
-35.084545 38.561367 469.59933
1.8794079 58.919624 464.02811
-13.46349 51.711555 467.4794
-129.69499 -48.218384 362.6604
7.8243637 64.467926 464.08725
-8.2026443 56.996452 468.01373
-126.44556 -44.456955 362.84375
13.664748 69.829597 463.98798
-2.5231247 62.690739 468.42606
-91.230034 -62.583336 405.87329
-133.83557 -44.853889 365.48242
3.2279015 68.133987 468.49411
-29.213493 -34.862549 405.66495
24.812574 81.144066 464.08188
8.9989872 74.098427 468.73209
-25.351452 -30.929516 406.72354
30.56184 86.461868 463.65863
-140.23895 -40.709282 369.50528
34.311161 3.9361839 399.01324
36.188972 92.46048 463.5343
20.689835 85.432327 468.5141
39.985672 9.3209114 399.4071
41.526794 98.382439 463.38092
26.284477 90.823006 468.22287
45.247543 14.632895 399.9248
46.652557 104.29726 463.09143
31.966293 96.513351 467.92975
51.445656 20.675077 400.0401
50.683372 109.24421 462.48694
37.088707 102.80531 468.0954
57.100758 26.204781 400.05859
43.882126 17.411882 404.10385
42.900196 108.87276 467.47083
62.950737 31.773676 399.69791
49.178066 22.598057 404.24344
47.706863 114.51014 465.96918
68.060631 37.431232 400.15533
54.600647 28.401764 404.75031
52.910622 121.16422 463.52661
73.586594 42.816429 399.64807
60.188396 33.879726 404.60974
58.645348 126.93147 463.68597
45.372688 119.47976 469.99014
65.939781 39.623638 404.45532
64.281364 132.66876 463.68951
48.028439 125.27225 468.11292
71.628464 45.132812 404.02982
69.730438 137.92912 463.3497
53.651108 130.90228 468.20276
-73.399155 -35.29213 434.56354
75.244553 144.15981 463.33484
59.790348 136.8461 468.12793
-67.216232 -29.733288 435.38287
80.765213 150.21866 463.04132
65.685204 142.39233 467.77298
-114.58113 -46.977875 438.75034
86.104095 156.29005 462.43936
70.944847 148.44537 467.84393
-110.92188 -46.30587 440.10706
90.139862 161.77574 462.04034
76.190636 153.67642 467.35745
-49.150345 -13.82069 436.71323
-65.041153 -21.712448 440.19778
81.581772 160.11403 467.03671
-42.69558 -8.3896713 437.79218
-58.681152 -16.21019 440.58774
86.941742 165.91882 465.77548
-36.549664 -5.2351341 440.14841
-52.840836 -10.883495 441.02087
91.600388 171.60304 463.56378
-30.626907 -0.30623055 441.39761
-47.712257 -6.5569 441.30521
-45.56559 87.851151 497.13495
84.654388 170.58067 468.91727
10.642061 26.62805 437.5625
-41.193336 91.967682 497.25406
87.814514 176.85529 467.82443
15.264368 31.366598 438.13788
-35.007294 97.771523 497.47812
-54.021072 -58.284882 337.82373
21.686647 37.732643 438.65411
-30.247368 102.50339 497.51495
-103.93547 -73.636063 343.31882
29.111143 42.016644 436.7157
-25.147003 107.3883 497.56595
-98.085716 -68.56472 343.25232
35.110725 47.724445 436.62784
-19.195255 112.86354 497.46011
-91.920105 -62.537704 343.51633
40.667923 53.446926 436.785
-13.648979 118.53413 497.64224
-87.255661 -58.370483 343.49179
46.917763 59.613174 436.67471
-7.6819839 124.3642 497.59842
178.16682 86.571426 303.74908
52.256725 64.862 436.45129
-1.5506744 131.06874 497.85162
-55.350983 -64.737015 375.1088
57.660118 70.602371 436.40298
3.8200378 136.27039 497.56421
-47.948936 -62.86068 375.85434
63.374382 76.569481 436.04947
9.1251183 141.68155 497.37039
12.474575 -30.692089 374.91812
67.976974 81.974304 435.57269
54.716553 74.192131 441.00122
18.760221 -26.007217 375.44855
3.6686192 -34.457581 377.39072
59.992783 79.736313 440.6893
24.808167 -21.091125 375.90219
8.4532337 -31.260048 378.73251
65.141586 85.717064 440.21106
116.07963 169.78021 363.09213
-119.74347 -13.038033 470.10657
-133.57196 -16.681393 470.82425
37.596855 -10.787708 375.31372
-112.49283 -7.03022 470.84912
-127.99289 -13.7766 471.79532
43.40802 -5.4794846 375.64725
-106.08688 -1.3908501 471.33414
-121.63406 -9.0719528 472.76514
-138.81586 -14.229347 472.83597
-100.33199 2.9041595 471.28076
-116.48972 -3.5212631 473.94101
-133.59233 -9.2834473 475.74115
-94.880615 8.1171455 471.68805
-110.92931 1.5569305 474.41699
-127.55566 -4.3868027 476.94492
-144.47458 -10.673134 475.60831
-105.16177 7.51548 475.12469
-120.75127 0.9999733 477.50748
-138.30391 -6.511322 478.34641
-99.236244 13.140709 475.51535
-114.67691 6.0843506 477.74457
-76.972244 23.421101 476.38992
-150.33768 -7.1025467 478.15628
-109.18352 11.267628 478.13803
-69.766022 28.955643 477.80142
-87.83136 23.841896 476.85849
-103.70184 16.186024 478.36737
-64.203903 33.32465 478.24261
-25.762444 52.758293 473.65033
-97.310074 21.406128 478.43887
-60.169571 37.182858 478.84134
-20.137581 58.138725 474.19623
-36.104782 51.044609 477.01486
1.3399086 71.658829 471.33972
-14.727394 63.527 474.66669
-30.444977 56.880241 477.86255
7.0137177 77.563927 471.52774
-9.2128258 69.571762 475.29135
-23.835159 62.244293 477.96313
12.811052 82.825752 471.25781
-3.2736053 75.50872 475.52679
-18.109348 67.392105 478.11984
17.811888 87.914085 471.23938
2.1779137 80.803131 475.49533
-12.145626 73.42807 478.52759
24.052095 93.83181 470.85822
7.9288044 86.582512 475.47977
-6.6057243 78.59848 478.55383
28.9958 99.058701 470.75201
13.921755 92.207642 475.19385
0.2143364 85.91835 478.82266
33.692245 104.98397 470.97153
19.472555 97.661369 474.97867
4.3726349 89.541855 478.57571
38.913757 110.21004 470.46017
24.810318 103.40598 474.91083
9.4881096 94.601944 478.4675
32.581917 17.238241 413.87418
30.542439 109.11385 474.49295
15.571125 101.35422 478.56485
38.647217 22.887821 413.95575
36.221653 115.04678 474.03088
21.252735 106.99371 478.27496
43.545361 28.053501 414.39838
41.377918 119.77098 472.8338
26.717133 112.48493 477.95172
49.388603 33.410736 414.10034
45.717674 128.40718 470.73865
32.2234 119.38492 478.04797
55.072487 39.484993 414.46704
52.021358 134.83685 470.88287
37.505665 124.62451 477.01477
60.691792 45.003963 414.32803
57.031223 139.40625 470.71783
42.502754 131.92041 473.78607
66.487015 51.110832 414.36444
62.993267 145.61919 470.72305
47.598442 137.26083 474.02563
71.908051 56.696846 414.12173
67.134552 150.05075 470.59329
53.654305 143.09872 474.03973
38.369091 136.28737 477.63391
72.576187 156.12781 470.50974
58.847904 148.86305 474.19659
43.115559 141.41792 477.84906
-82.350571 -26.265339 446.28397
64.757263 154.43863 473.79596
48.965538 146.99811 477.83783
-76.901489 -20.709103 447.36984
70.221878 159.94104 473.42206
54.81218 153.05206 477.91385
-124.61324 -37.516907 450.23648
75.85611 165.63553 472.7962
60.475807 158.71829 477.80536
-122.59656 -36.908798 451.44052
80.936081 171.96254 471.97742
66.482269 164.92021 477.48715
-58.967194 -4.4386711 448.75146
83.996582 177.52219 471.16391
71.280014 170.64975 477.35666
-53.234222 0.12046051 449.97076
-14.483658 18.833014 446.76794
76.571281 177.28754 476.44455
6.4262657 31.915878 444.11761
-10.96257 26.793089 450.4762
