# .PCD v0.7 - Point Cloud Data file format
VERSION 0.7
FIELDS x y z
SIZE 4 4 4
TYPE F F F
COUNT 1 1 1
WIDTH 1577
HEIGHT 1
VIEWPOINT 0 0 0 1 0 0 0
POINTS 1577
DATA ascii
35.010822 139.12502 412.96704
36.06012 140.104 411.42358
37.934219 140.51767 408.61078
36.732605 141.61081 410.15518
37.863827 142.61217 408.25967
35.403702 142.77043 411.66626
36.61586 143.73169 409.79181
37.791374 144.71164 407.90738
35.266762 144.90483 411.29843
36.532391 145.83949 409.43768
35.229462 146.99158 410.9592
36.699547 147.95184 408.40195
35.427624 149.09059 409.9332
36.430065 150.16525 407.99051
35.156509 151.30777 409.52313
35.368679 153.00488 408.48834
34.63475 -135.23543 329.58853
30.715355 -135.11694 331.6875
32.808617 -134.69025 330.68616
31.514046 -133.17325 331.26785
33.873108 -133.11372 330.00961
32.732895 -131.28195 330.6488
34.057915 -129.75122 330.07309
31.621521 -129.45016 331.30261
33.271408 -127.9537 330.48785
31.775589 -126.75107 331.35745
34.136276 -126.02191 330.09384
32.588264 -124.80624 330.94183
33.801369 -123.25452 330.31946
31.944626 -122.34085 331.41476
33.190186 -120.79433 330.80325
31.671509 -119.57338 331.66815
34.487152 -119.25932 330.21307
32.950783 -118.03265 331.06842
34.950172 -117.27087 330.02448
33.432014 -116.04395 330.88672
31.80175 -114.79169 331.71014
34.327629 -114.11148 330.5018
32.807053 -112.87744 331.36655
34.709175 -112.10123 330.28064
33.241432 -110.87415 331.16583
34.487297 -109.32895 330.55182
32.971954 -108.08684 331.42065
34.211624 -106.53975 330.8027
32.601097 -105.61795 331.63739
33.138256 -103.62869 331.47598
34.806046 -102.49219 330.65857
33.245491 -101.57361 331.5134
34.932678 -100.09621 330.70172
34.193535 -98.256226 331.14182
33.064648 -96.701874 331.79993
34.280609 -94.800858 331.16748
33.628006 -92.97049 331.64386
34.906616 -91.083435 331.03519
33.764626 -89.513237 331.68951
34.632999 -86.160828 331.28397
34.19664 -84.017006 331.84579
21.484573 -135.40353 336.52301
19.583687 -135.18991 337.63129
28.08606 -135.1581 333.21518
25.185608 -135.15498 334.64987
23.195908 -134.58255 335.71393
26.678383 -133.61874 333.76465
20.664116 -133.59601 336.94543
29.128403 -133.57059 332.52472
24.772133 -133.05786 334.85663
22.32209 -132.76617 336.11334
28.316353 -131.76981 332.93719
20.785919 -131.56047 336.99457
26.326271 -131.5321 333.99326
30.399963 -131.34372 331.92273
23.62883 -131.21564 335.51602
21.977531 -129.98712 336.35095
28.875542 -129.79996 332.78699
25.248512 -129.70007 334.67453
26.875824 -128.87299 333.83868
20.403801 -128.76895 337.2204
23.777367 -128.50131 335.57422
30.081871 -128.24155 332.15891
22.128563 -127.61105 336.41086
28.461037 -127.35706 332.98904
25.324623 -127.31619 334.70392
20.553848 -126.38818 337.28088
26.946182 -126.14725 333.86459
23.815308 -126.10606 335.59015
30.124336 -125.85846 332.17203
25.417351 -124.93225 334.73962
22.244263 -124.88177 336.45776
28.727921 -124.6687 333.08969
20.241127 -124.28787 337.53278
30.667854 -123.8837 332.01523
27.042435 -123.76518 333.90063
23.909286 -123.71771 335.62732
21.953964 -122.78564 336.71637
29.143654 -122.66656 332.88318
25.526588 -122.54782 334.78159
27.524895 -121.77194 333.71967
23.571785 -121.61356 335.86633
20.750916 -121.25307 337.36346
30.392601 -121.11612 332.26929
26.03672 -120.55615 334.61108
22.439423 -120.09351 336.53696
28.860641 -119.89191 333.13641
24.416283 -119.65698 335.45654
20.014046 -119.43475 337.82263
27.272202 -118.99817 333.98691
30.122719 -118.34341 332.52612
21.656921 -118.26608 336.97638
23.676895 -117.83946 335.909
25.768951 -117.77405 334.87469
28.534668 -117.44711 333.37427
31.374741 -116.79503 331.91312
20.536934 -116.74078 337.65723
22.552437 -116.31403 336.58383
27.023659 -116.21896 334.25647
25.005287 -115.95004 335.31622
29.905266 -115.57507 332.80417
21.4506 -114.78952 337.27042
28.22467 -114.65536 333.61874
23.871086 -114.42041 335.98529
26.314362 -114.40445 334.7171
19.810951 -113.87503 338.12421
30.321953 -113.56592 332.59695
22.678703 -112.87546 336.63547
25.187157 -112.87427 335.38654
28.736771 -112.66167 333.44821
21.122757 -111.9744 337.51849
27.15918 -111.75693 334.30707
31.190659 -111.62114 332.19885
24.025246 -111.33362 336.04602
29.601707 -110.71259 333.04733
25.645439 -110.51663 335.19507
19.983955 -110.43344 338.19601
22.384956 -110.41318 336.89453
27.673523 -109.75922 334.13693
31.637726 -109.61655 332.00293
24.02198 -109.25113 336.04617
21.20565 -108.86194 337.55457
29.714417 -108.66183 333.08859
26.130539 -108.50941 335.01355
28.147751 -107.75247 333.95129
22.915634 -107.71407 336.73074
20.093674 -107.32076 338.24329
31.388542 -107.17322 332.26846
24.970566 -106.9614 335.6734
27.03083 -106.21347 334.62341
29.437706 -106.20789 333.34607
21.76899 -106.16498 337.4032
23.814964 -105.41077 336.33813
28.338211 -104.67101 334.02271
25.894806 -104.66707 335.29138
30.702591 -104.66028 332.73227
20.595787 -104.60648 338.06876
22.69175 -103.86285 337.01837
24.78064 -103.12126 335.97083
29.518669 -103.10339 333.37421
27.075127 -103.09564 334.63971
31.536842 -102.70334 332.31879
21.119987 -102.59341 337.90094
23.083748 -101.82468 336.80057
19.568718 -101.67529 338.79547
25.999344 -101.55612 335.33182
28.4436 -101.21829 334.06107
30.513805 -100.8306 333.02142
21.470757 -100.54242 337.66754
24.413116 -100.28018 336.20093
32.569221 -99.748138 331.98041
27.31007 -99.663971 334.72894
29.297157 -99.259125 333.65274
22.792534 -98.993805 337.06219
21.412422 -98.862183 338.75592
25.711632 -98.731354 335.59076
31.360645 -98.177948 332.61063
28.143127 -97.697464 334.31161
24.044926 -97.432159 336.4317
29.870399 -96.91819 333.50375
26.513485 -96.754395 335.16025
23.916767 -96.409821 337.12213
31.069481 -96.401604 332.86298
28.610195 -96.376556 334.12219
27.377052 -96.330803 345.76892
25.692078 -95.568451 340.00558
26.655987 -95.22319 342.20581
25.265854 -95.193504 336.15973
27.605881 -94.848488 344.02875
29.860352 -94.823624 333.49771
32.360798 -94.513565 332.25729
27.824497 -94.512543 334.55627
28.505615 -94.46431 345.82874
26.918259 -94.008125 339.36731
26.408428 -93.346222 336.59604
29.128078 -92.970215 333.95056
31.119064 -92.9254 332.8772
28.318596 -92.545769 339.53131
27.497631 -92.397095 335.16797
29.76667 -91.532959 340.81473
32.473251 -91.399902 332.29532
28.585144 -91.328133 336.69006
31.091221 -91.307922 343.51166
30.411953 -91.075912 333.33823
29.543175 -90.960701 338.52719
28.733974 -90.839355 334.53516
32.289276 -90.622398 345.05841
31.326546 -90.114487 341.03958
32.412926 -89.781693 342.91443
31.102734 -89.569855 339.12122
31.719627 -89.538483 332.73642
34.261429 -89.42337 346.89188
29.84647 -89.370834 335.33069
33.775703 -89.166695 344.88867
31.085846 -88.692795 336.91016
32.798512 -88.273117 340.49991
30.767059 -88.035912 333.8407
32.21912 -87.993332 338.44586
32.963078 -87.638733 332.11032
32.310619 -87.139801 336.27597
34.407822 -86.90374 341.11185
33.577156 -86.562874 338.96442
32.220947 -86.271935 334.4003
33.599239 -85.721878 337.1376
32.953083 -85.565186 332.47119
33.795689 -84.890839 335.00677
34.056316 158.18033 340.34894
32.823158 159.87265 341.07834
34.675102 160.05725 339.78683
32.718121 160.47522 345.02588
31.517654 161.60701 341.78394
33.372334 161.79057 340.48895
34.813698 163.29813 339.83917
30.205894 163.34784 342.49094
32.136311 163.49103 341.22006
33.53178 165.02635 340.55035
28.880264 165.09958 343.1965
30.903259 165.19334 341.95572
27.549133 166.43993 343.90302
34.933094 166.55598 339.88422
32.279434 166.74191 341.27628
29.747322 166.85672 342.72388
26.325012 168.14273 344.65369
33.714828 168.25563 340.6207
30.993111 168.47894 341.99316
28.429359 168.61121 343.43475
24.883194 169.5473 345.32623
27.109062 169.95163 344.14764
32.3545 170.03625 341.30701
29.683586 170.23199 342.70486
23.575447 170.88138 346.05185
34.212166 171.39026 340.40994
25.885147 171.66042 344.901
28.059685 171.66989 343.70367
31.080826 171.77293 342.02972
21.709541 172.02847 346.97723
23.715889 172.90463 346.11075
33.05658 173.06436 341.17386
29.406204 173.24202 343.00671
26.736732 173.43607 344.41885
34.755814 173.66803 340.21622
31.216179 173.79062 342.08304
24.982056 174.5296 345.37787
28.133926 174.98351 343.73831
33.010109 175.18213 341.15732
29.994843 175.50531 342.8298
23.173302 175.65341 346.32236
26.379135 176.08098 344.69443
34.839966 176.54932 340.24817
31.778809 176.90498 341.89697
28.209023 177.04254 343.77054
24.689201 177.14316 345.67987
30.032158 177.58371 342.84686
22.441376 177.59666 346.86551
26.493919 178.12161 344.7424
33.592476 178.28372 340.97815
31.847832 178.96533 341.92502
28.381271 179.05031 343.83908
23.859726 179.142 346.18521
30.095467 179.65054 342.87372
25.648293 180.13049 345.23895
33.72847 180.30649 341.03049
31.956406 181.00642 341.96783
28.722786 181.03906 343.5683
23.936661 181.21071 346.22073
27.00174 181.70627 344.5379
33.797432 182.36932 341.05743
30.577698 182.40132 342.65662
22.606537 182.57602 346.9454
25.305359 182.78177 345.52255
28.900986 183.04776 343.63882
27.109444 183.75745 344.58304
32.411728 183.77116 341.73999
24.003304 184.13437 346.25531
30.742188 184.4173 342.72116
25.785835 185.1243 345.30432
28.890488 185.16483 343.63885
33.46917 185.42862 341.33643
22.639519 185.94742 346.97046
31.62989 186.1741 342.25214
27.171921 186.68323 344.61343
29.812119 186.9063 343.18115
24.470192 186.91275 346.03333
34.75013 187.03238 340.61588
32.925026 187.77347 341.53436
22.659027 188.05916 346.98563
28.162498 188.38953 344.17984
31.232147 188.43839 342.50772
25.883759 188.45909 345.35019
34.814781 189.10568 340.64059
24.146881 189.56769 346.3269
33.038086 189.82257 341.5784
29.495255 189.97502 343.47086
26.837967 190.18964 344.90158
31.314056 190.50821 342.54105
34.908676 191.16521 340.67645
25.136108 191.28177 345.88971
28.201828 191.76067 344.20172
33.118507 191.8927 341.6102
30.022751 192.29353 343.2688
23.859657 192.63385 346.63596
26.524704 192.84259 345.19626
34.968712 193.24692 340.6994
31.869949 193.65646 342.35046
28.293846 193.83276 344.24057
24.839302 194.35565 346.19424
30.099442 194.37305 343.30096
32.809875 194.53908 341.89874
27.403404 194.61789 344.71893
34.924339 195.5881 341.89252
31.717575 195.64012 343.50677
26.33519 195.70482 346.34811
29.098862 195.84636 344.95007
23.818001 -103.17072 357.91513
27.501488 -99.104736 354.54626
26.151875 -98.802078 349.32526
29.817802 -98.637573 360.80792
25.653999 -98.55658 347.31714
28.964764 -98.066025 355.44397
30.956802 -97.369125 359.41922
30.464207 -97.039352 356.35352
32.136658 -96.733414 361.64673
29.574196 -96.53788 352.04477
30.787304 -96.280045 354.66446
28.975826 -96.238892 349.64441
31.739422 -95.938965 356.82037
32.445122 -95.889885 358.88
28.580673 -95.664673 347.67841
33.741974 -94.855789 360.07272
31.149639 -94.836746 352.99161
30.118881 -94.785278 350.43488
33.172844 -94.53199 357.34631
32.241512 -94.528809 355.20215
29.914394 -93.90448 348.54266
34.951832 -93.833878 361.59189
31.383675 -93.362282 351.26917
34.435486 -93.175415 358.89221
32.454426 -93.080032 353.8392
33.503796 -92.795395 356.39331
33.727928 -91.666634 354.67276
34.753357 -91.40863 357.57593
32.786648 -90.879639 347.06677
33.85421 -90.601646 349.64664
34.973274 -89.933525 351.51395
34.712967 160.76704 354.49179
32.672596 160.77039 348.19205
32.927048 161.11316 350.27313
33.621628 161.63188 352.5134
19.646324 173.28314 347.83646
21.889023 174.03427 347.0513
21.011185 176.05525 347.54285
20.631615 178.7243 347.81845
22.073624 180.26045 347.14386
20.72464 181.63402 347.86533
19.389854 183.00131 348.59549
21.349335 184.32651 347.70206
19.467621 185.08028 348.63385
20.876312 186.63913 347.94281
19.550346 188.00998 348.67807
20.971107 189.56265 347.99026
22.870964 190.91626 347.07465
19.679596 190.91902 348.73917
21.548782 192.29263 347.80893
19.750465 193.86633 348.77908
22.526596 194.01976 347.36487
22.454056 -107.02597 371.48419
24.12532 -106.33791 376.71725
23.843216 -105.30284 368.02365
25.300476 -104.94597 373.55295
25.734917 -104.90564 376.56186
26.957565 -103.60501 374.48929
27.291451 -103.49283 376.74692
27.526855 -102.87891 372.54517
28.435448 -102.23114 375.36447
27.081696 -101.82181 364.14185
29.03207 -101.51135 373.43256
28.550545 -101.45444 369.32971
29.589081 -101.18857 376.83789
28.243462 -101.14514 365.99435
29.571098 -100.77866 371.47964
30.25967 -100.48543 374.93402
28.648834 -100.38097 363.98434
29.643993 -100.17949 367.92819
30.784218 -99.750488 372.97974
29.760769 -99.697403 365.81924
30.735348 -99.521561 370.10477
31.236774 -99.409134 376.34854
31.20332 -98.77269 368.12558
31.770473 -98.676361 374.40024
31.844059 -98.472931 371.57147
31.309978 -98.287369 366.01535
31.085007 -98.018066 363.06332
32.363701 -97.735832 369.61328
32.750694 -97.604103 375.81622
32.888802 -97.413811 373.0137
32.541847 -97.265968 367.53159
32.411587 -97.015961 364.61832
33.456215 -96.687538 371.07492
33.785778 -96.408127 375.47086
33.374771 -96.391922 367.4726
33.834465 -96.252525 373.3515
34.202435 -95.657425 369.19995
34.156525 -95.368088 365.6059
33.720547 -95.363251 362.22031
34.543457 -95.319168 377.16516
34.904316 -94.981003 371.95035
34.956474 -94.628578 367.32645
34.873257 -94.329117 363.71539
33.350204 166.98512 362.72427
32.049873 168.23904 363.85004
30.339912 169.64725 365.23166
31.598373 171.19385 376.31146
19.802299 -110.68909 385.93304
19.618629 -110.27582 390.15021
20.702766 -110.00577 383.74234
20.976265 -109.39551 388.82339
21.154572 -109.27675 386.75015
20.648582 -109.24557 392.27075
21.731506 -108.71547 382.31689
21.901672 -108.58926 384.86877
22.080719 -108.28835 380.29715
22.226753 -107.99338 389.95898
22.540924 -107.90158 387.93182
23.404655 -107.34595 382.88702
23.400375 -107.23805 386.08932
23.18914 -106.90326 391.34949
23.701019 -106.51044 389.39401
24.470589 -106.27603 384.32065
24.344971 -106.14482 387.47928
24.654716 -106.1304 381.89227
25.097198 -105.61664 378.48123
24.613846 -105.43938 391.12268
25.477936 -105.22372 386.08743
25.756683 -105.20113 380.48929
25.798859 -105.07939 383.35242
25.206902 -105.06335 389.19458
26.610519 -104.19398 378.64954
26.747017 -103.99057 384.74655
27.047028 -103.84108 382.00464
26.453064 -103.82657 387.84644
26.059349 -103.64185 390.91019
27.770111 -103.14981 380.11978
28.028694 -102.76154 383.41113
27.72641 -102.5968 386.50824
28.43541 -102.44585 378.215
27.350372 -102.41669 389.57748
28.95863 -101.77336 381.60187
28.990231 -101.36617 385.16849
29.403816 -101.36496 379.62231
27.949677 -101.28737 391.20505
28.623959 -101.18912 388.2406
29.765064 -100.68756 383.30563
30.529396 -100.10349 378.23758
29.184044 -100.05301 389.85657
30.412548 -99.981049 381.40054
29.813644 -99.944809 386.8783
30.444565 -99.576675 384.9653
31.504131 -99.028931 379.64633
31.291443 -98.914154 383.12753
30.314503 -98.797363 388.4762
29.663082 -98.560425 391.45129
31.214806 -98.146912 386.65744
32.327999 -98.01857 377.80353
32.17646 -97.918343 381.30753
31.848965 -97.779694 384.74698
30.768166 -97.64138 390.05716
31.654278 -96.988449 388.23517
33.094658 -96.92968 379.49817
32.813057 -96.802147 382.9545
31.752621 -96.410553 389.33731
33.304989 -96.403305 380.99615
32.291958 -96.36377 387.39267
32.755764 -96.300339 385.42285
31.216995 -96.144852 391.64133
34.553173 -94.888901 380.37076
32.837528 -94.86203 388.65631
33.401497 -94.820518 386.72021
33.842964 -94.751701 384.74365
34.263741 -94.678078 382.75925
32.471741 -94.606583 390.66122
33.970768 -93.3255 387.99158
34.514797 -93.279327 386.04974
34.98167 -93.215805 384.08197
32.749786 -93.074707 392.19009
33.569756 -92.749413 390.34323
33.66016 -91.204575 392.16446
34.695267 -91.184875 389.3237
34.927231 -89.644501 390.83762
33.988564 167.63693 391.85596
19.627777 -109.87691 394.06332
19.99778 -109.08203 396.31955
19.397438 -108.85153 399.32037
21.00679 -108.44922 394.52478
20.623589 -107.94791 397.95215
22.003784 -107.81422 392.72705
19.968628 -107.70703 400.93344
21.74147 -107.33847 396.19223
21.104088 -106.78638 399.53845
22.708122 -106.69821 394.3869
20.187454 -106.5182 402.79092
22.284157 -105.87585 398.15826
23.801186 -105.76968 392.98157
21.397202 -105.61388 401.4184
23.15696 -105.55786 396.31808
20.272682 -105.30298 404.60715
19.556908 -104.97159 406.51236
22.597511 -104.70856 400.04456
24.308121 -104.64264 394.93152
23.616272 -104.3952 397.89771
21.434509 -104.38953 403.22009
25.167542 -104.29602 392.73584
22.693001 -103.49719 401.86334
21.154709 -103.46692 405.26984
24.9291 -103.17422 396.56873
25.622192 -103.13393 394.31619
23.859993 -102.90118 400.12134
22.333557 -102.55843 403.88855
26.638054 -102.50656 392.53055
20.647057 -102.49664 407.25244
24.984474 -102.29675 398.36795
23.752121 -101.67494 402.22922
26.195381 -101.65759 395.93842
21.964569 -101.61758 405.91083
24.986969 -101.06763 400.15747
27.20092 -101.02875 394.15067
23.301994 -100.71735 404.22623
26.117332 -100.46555 398.40714
21.967964 -100.01974 407.35822
27.428017 -99.848907 396.01001
25.016724 -99.844925 401.95456
28.525806 -99.81424 392.8298
26.148926 -99.244003 400.20459
23.357594 -99.131378 405.68823
24.469795 -98.866791 403.92133
27.534145 -98.643799 397.83051
28.71904 -98.628281 394.67853
25.970425 -97.97731 401.93793
28.752102 -97.408173 396.47623
29.893532 -97.383446 393.31207
27.099697 -97.376663 400.1879
24.452827 -97.265907 405.36124
28.266552 -96.784805 398.45078
25.682945 -96.686729 403.63879
26.478271 -96.409599 402.48145
24.469475 -96.300087 406.09296
29.560471 -96.193924 396.40302
30.573277 -96.16864 393.55188
27.87056 -96.153503 400.1015
27.558266 -94.857841 401.79327
30.680389 -94.625488 395.37885
31.647476 -94.617889 392.86624
26.74403 -94.502823 403.66202
25.626175 -94.422165 405.43359
24.498943 -94.3396 407.20477
29.998287 -94.299698 397.28421
29.192101 -94.287346 399.14481
28.643982 -93.308701 401.10754
31.769608 -93.079147 394.69751
31.164711 -92.770332 396.62595
27.868317 -92.620193 402.99481
26.731884 -92.534164 404.75974
25.634903 -92.456947 406.53879
30.352245 -92.414932 398.49078
29.706444 -91.755539 400.41534
32.854809 -91.53299 394.01566
32.288048 -90.891396 395.96213
31.440189 -90.868912 397.80804
28.932724 -90.725166 402.31
27.850685 -90.650017 404.09027
26.750221 -90.570877 405.86722
30.779888 -89.864258 399.73465
33.802746 -89.643753 393.64963
25.962864 -89.507477 407.41354
30.006004 -89.174919 401.62061
33.238964 -89.00267 395.59656
32.295177 -88.957718 397.41232
28.927273 -88.757355 403.4086
27.854279 -88.683342 405.19272
31.68409 -87.963623 399.35358
34.364319 -87.752083 394.21762
27.037106 -87.612091 406.72928
30.794842 -87.246811 401.20398
33.672417 -87.081184 396.12451
32.798889 -87.05159 397.9621
29.755718 -86.837204 403.00354
28.689533 -86.763733 404.78937
32.029064 -86.020142 399.85486
27.882969 -85.693314 406.32849
34.770893 -85.511932 395.09528
31.178566 -85.311272 401.71762
33.989391 -85.161392 396.96771
30.098438 -84.890869 403.50531
33.152069 -84.455345 398.83136
29.015079 -84.126602 405.30286
32.2355 -83.730118 400.67273
27.861248 -83.688156 407.07437
31.167007 -83.311226 402.46271
34.672333 -83.239799 396.87033
30.147045 -82.56073 404.27792
33.778496 -82.519325 398.71637
29.00938 -82.124893 406.05273
32.884335 -81.798233 400.56461
31.804272 -81.375397 402.35104
30.727051 -80.609695 404.14902
34.075676 -80.563568 399.20279
29.527237 -80.157394 405.90536
33.090908 -79.819427 401.02408
31.916798 -79.372543 402.78299
34.677071 -78.620613 399.08011
30.865776 -78.611443 404.59009
29.693272 -78.164124 406.35577
33.662209 -77.867943 400.89224
32.521889 -77.427628 402.6615
31.338066 -76.632347 404.42871
30.188446 -76.189255 406.20157
34.156837 -75.896629 400.73691
33.01944 -75.455528 402.50732
29.484951 -74.760071 407.43201
31.880295 -74.669441 404.28824
30.712788 -73.875595 406.06418
34.06012 -73.869705 401.45572
32.98542 -73.098251 403.25464
30.004559 -72.443039 407.29349
31.837212 -72.307655 405.03479
34.550926 -71.894974 401.29907
33.463905 -71.118706 403.09464
31.097511 -70.866035 406.25327
32.530014 -70.003708 404.59564
34.853382 -69.902771 401.43671
33.740833 -69.118271 403.22531
31.525555 -68.869629 406.07867
32.745567 -67.985504 404.70862
34.176548 -67.12529 403.05206
31.805729 -66.865692 406.21176
33.221378 -66.000671 404.54776
31.208656 -65.075691 407.13205
34.251148 -64.408966 403.48932
32.73872 -64.240494 405.49979
33.739635 -62.639786 404.43149
32.27145 -62.481491 406.45819
33.316738 -60.891266 405.40204
31.773891 -60.712204 407.4093
34.549217 -59.665794 404.04214
32.866535 -59.133179 406.36606
34.076546 -57.901146 404.99774
33.414368 -56.464424 406.24301
34.523972 -55.553467 404.83585
32.838192 -54.666702 407.17148
33.914406 -52.733757 406.1301
33.397205 -50.947601 407.07684
34.454983 -49.007904 406.02896
34.247585 -46.919754 406.72354
34.013706 -43.768951 407.43668
34.759857 158.10402 406.5123
33.764263 159.64847 407.3844
34.738213 160.00647 405.02026
34.968353 161.03387 403.2019
33.687004 161.58432 405.87527
32.611229 162.22842 407.46976
34.079815 163.06938 403.34976
32.957218 163.67169 405.31201
34.752064 163.72977 400.1225
31.946892 164.28192 406.92871
33.442093 164.77269 402.41843
32.339806 165.36475 404.38971
34.105858 165.43997 399.18295
34.700684 165.73813 395.9136
34.809586 166.16302 393.25647
33.001816 166.44177 401.16174
31.000153 166.49364 406.30252
33.581047 166.81812 397.50226
31.739059 167.05286 403.47031
33.660118 167.53043 395.61246
32.398705 167.86371 399.45941
30.574753 168.15747 405.05493
31.71312 168.23044 401.56268
32.377861 168.63171 397.53891
32.988945 168.65387 393.48392
30.632347 168.88168 403.16364
29.292511 168.91776 406.59869
30.759087 169.7085 400.52118
29.263092 170.10001 404.6904
29.4235 170.91022 402.05685
28.01757 171.80237 405.49951
28.243423 172.0975 403.25876
19.353111 -103.69672 408.24307
19.421951 -102.11108 409.71121
20.670784 -100.90231 408.70667
19.984821 -99.8936 410.63879
21.234089 -99.000748 409.2746
22.691319 -98.126831 407.62238
20.565022 -97.967667 410.86102
21.863831 -97.086716 409.51117
19.894138 -96.933319 412.44867
21.343372 -96.399658 410.78079
23.359196 -96.222473 407.8703
22.713535 -95.193726 409.46121
21.660763 -94.444107 411.27771
20.337017 -94.319305 413.00101
23.840679 -93.307068 408.79111
19.558533 -93.25882 414.56064
22.671509 -92.872627 410.56357
21.493328 -92.436218 412.33664
24.88866 -91.403992 408.0983
20.615154 -91.352325 413.8667
23.733517 -91.313736 409.86487
19.423939 -90.911774 415.64218
22.569633 -90.536255 411.64981
21.699421 -89.452713 413.18109
24.750198 -89.402847 409.16235
20.371101 -88.979485 414.91644
23.603279 -88.627464 410.95105
22.774193 -87.551849 412.49316
25.836056 -87.508484 408.48035
20.011173 -87.26506 415.91556
21.413872 -87.069565 414.21811
24.616203 -86.714706 410.24664
23.729645 -85.624374 411.77127
26.624783 -85.575256 408.06223
20.936184 -85.326752 415.18304
22.410034 -85.149384 413.50674
25.423771 -84.78363 409.83344
20.064365 -83.892868 416.7309
24.579369 -83.701721 411.36975
22.033035 -83.428551 414.49951
26.656353 -83.237701 408.83398
23.550514 -82.575172 412.85565
25.725567 -82.134369 410.34354
21.275723 -81.990402 415.72739
27.759914 -81.662399 407.79755
22.877815 -81.156815 414.10492
24.771187 -81.023788 411.84924
26.848129 -80.562256 409.31116
20.502251 -80.546425 416.95316
28.340187 -79.708206 407.66885
22.081547 -79.707306 415.32129
24.047451 -79.592453 413.08231
25.884422 -79.448372 410.81256
27.362778 -78.590424 409.1633
21.048462 -78.574379 416.81509
23.322586 -78.158882 414.31744
25.18446 -78.021515 412.05109
19.967571 -77.428391 418.29886
26.668026 -77.164627 410.4007
28.745464 -77.052231 407.85669
22.211006 -77.005455 415.78702
24.476265 -76.590637 413.28955
21.076717 -75.844879 417.25397
25.938351 -75.728317 411.63037
19.410007 -75.65361 419.24902
28.019562 -75.618095 409.08313
23.398457 -75.443756 414.76685
24.903778 -74.591545 413.11688
22.264118 -74.281464 416.23178
27.319363 -74.187943 410.3194
20.566425 -74.080368 418.21594
23.871506 -73.453583 414.60757
28.803173 -73.334259 408.67114
26.340328 -73.063492 411.81967
21.767792 -72.519432 417.19623
19.980541 -72.294525 419.15866
27.757874 -72.192863 410.14905
25.245827 -71.908569 413.28992
23.32251 -71.678841 415.55457
29.003025 -71.311523 408.78186
26.761036 -71.061829 411.64453
21.151905 -70.725128 418.129
19.423531 -70.513161 420.11139
28.001457 -70.178619 410.27347
24.655121 -70.122437 414.22311
22.733398 -69.891205 416.4921
30.101837 -69.734474 407.74176
26.190899 -69.280716 412.58096
20.580078 -68.938766 419.07617
29.060295 -68.589905 409.22009
27.506176 -68.416306 411.22961
24.126053 -68.348793 415.17581
22.18314 -68.110382 417.4426
30.547211 -67.740486 407.57257
25.723724 -67.522987 413.54895
19.727558 -67.458374 420.28937
28.588879 -66.832504 410.18192
26.957424 -66.637772 412.17203
21.319607 -66.62706 418.64963
23.560452 -66.563263 416.12006
30.118996 -65.994286 408.54486
25.12434 -65.728943 414.4809
20.154526 -65.444687 420.11783
22.716084 -65.083435 417.3302
28.099827 -65.068115 411.14041
26.411148 -64.857033 413.11713
21.558079 -64.249908 418.78754
24.232136 -64.236389 415.67432
29.565628 -64.213333 409.48206
20.283859 -63.385323 420.21613
25.572033 -63.377762 414.32321
30.834427 -63.34079 408.12033
27.498512 -63.271835 412.06805
23.109158 -63.062683 417.14819
28.998482 -62.425812 410.41711
21.968739 -62.231262 418.61084
24.484764 -62.212479 415.80432
26.721703 -61.807449 413.29053
30.253498 -61.549667 409.04922
20.793331 -61.389832 420.06726
23.339764 -61.030273 417.27292
28.226196 -60.962311 411.63806
25.554855 -60.619415 414.74707
19.504147 -60.517883 421.49582
22.133148 -60.179283 418.71793
29.525726 -60.097374 410.28091
27.120663 -59.789673 413.10876
24.406044 -59.434303 416.21283
20.928947 -59.32814 420.1673
30.961163 -59.237106 408.61322
28.463493 -58.935539 411.76147
26.04052 -58.621948 414.59055
23.268818 -58.599991 417.67566
19.692287 -58.467178 421.61142
29.892273 -58.072784 410.08871
22.081573 -57.75135 419.1279
27.30093 -57.745148 413.21661
32.021385 -57.647964 407.55875
24.89983 -57.436646 416.05872
28.883305 -56.922684 411.58517
20.850029 -56.889763 420.5715
23.690159 -56.580658 417.50131
26.183086 -56.565079 414.6886
31.003845 -56.495819 409.04773
27.791172 -55.748886 413.06097
22.536461 -55.738655 418.96329
19.674614 -55.691521 422.0451
32.292179 -55.631287 407.68985
25.048397 -55.378372 416.15955
29.955589 -55.333542 410.53107
21.246017 -54.859177 420.39087
31.481411 -54.848129 408.87891
28.794846 -54.83802 411.96701
23.429749 -54.827393 418.18454
26.091774 -54.825935 415.06345
30.349251 -54.010529 410.3288
27.683277 -54.005814 413.4296
24.920528 -53.97728 416.51569
19.745167 -53.955292 422.11801
22.45591 -53.29686 419.36584
32.316921 -52.881378 408.11819
29.22353 -52.824097 411.79309
26.575943 -52.823631 414.90619
24.080257 -52.482529 417.73132
21.212044 -52.426643 420.8082
31.188221 -52.04248 409.56836
28.105347 -51.987831 413.25406
25.382103 -51.616188 416.36203
22.850861 -51.264214 419.18433
20.257401 -50.896561 422.00174
30.143017 -50.875809 411.05527
26.913479 -50.779984 414.70682
24.194271 -50.408188 417.82367
21.639095 -50.400299 420.63593
32.125374 -50.101227 408.83673
29.004642 -50.031921 412.50946
25.793022 -49.589859 416.18393
22.990921 -49.194038 419.28506
31.054905 -48.9254 410.31525
20.679157 -48.86615 421.82819
27.823494 -48.824608 413.96426
33.135849 -48.495964 407.76489
24.619225 -48.383125 417.6499
29.874962 -48.067787 411.75644
22.073376 -47.670364 420.48642
26.648365 -47.616791 415.42484
32.073547 -47.320732 409.24432
28.786873 -46.883888 413.23706
23.656296 -46.846466 418.83517
30.974548 -46.484047 410.70761
25.483009 -46.409859 416.89215
21.040043 -46.111786 421.659
33.178787 -45.740784 408.19928
27.572422 -45.662659 414.68515
22.719826 -45.314415 420.0311
29.817024 -45.278778 412.16638
32.039837 -44.891251 409.64926
24.515465 -44.869308 418.07516
26.351727 -44.437744 416.13571
28.684513 -44.078659 413.63626
21.436176 -44.070099 421.47794
30.918644 -43.694366 411.11679
23.578754 -43.334763 419.27011
32.893986 -42.922745 408.89148
25.389374 -42.896179 417.31921
27.509949 -42.864609 415.09802
29.697109 -42.466919 412.55914
22.306286 -42.090775 420.71896
31.75692 -41.718857 410.35352
24.430683 -41.352722 418.50696
26.47319 -41.300026 416.25842
28.538937 -41.255615 414.0239
21.134785 -41.22731 422.18933
33.942074 -40.974258 407.83701
30.538437 -40.489578 411.79572
23.232162 -40.480789 419.965
32.785469 -40.114288 409.28311
25.629211 -39.787796 417.47687
27.641655 -39.729012 415.22241
22.199226 -39.655174 421.47247
29.437637 -39.292465 413.27621
24.401573 -38.941414 419.27942
31.627735 -38.900543 410.74127
33.877495 -38.528725 408.23178
27.013569 -38.277985 416.50043
23.819443 -37.891098 420.92099
28.817871 -37.844223 414.55341
25.900845 -37.817123 418.32281
30.688774 -37.748894 412.267
32.856941 -37.353271 409.72849
25.529217 -36.828125 420.02115
28.515642 -36.523605 416.27762
27.356819 -36.401512 418.07474
30.216057 -36.37928 413.93961
32.125526 -36.26123 411.31302
24.947369 -36.167648 422.0054
33.991913 -35.815796 409.0433
27.318777 -35.157494 419.87506
30.231241 -35.152733 415.75314
29.096615 -35.03656 417.55429
32.059063 -35.01207 413.10184
33.864044 -34.549522 410.81265
26.310827 -34.371628 421.73853
31.92156 -33.741844 414.86978
28.661043 -33.676224 419.24094
33.462292 -33.591152 412.84702
30.846407 -33.288734 416.69485
27.53595 -32.854538 421.0697
34.856636 -32.44976 411.87402
30.030378 -32.168533 418.2619
33.302559 -31.925491 414.26263
32.033882 -31.766258 416.02087
28.806103 -31.669956 420.05045
27.705662 -30.817062 421.53342
34.768547 -30.769203 412.95526
31.144291 -30.623119 417.56561
33.030807 -30.187881 415.293
29.841631 -30.099503 419.33051
32.113914 -29.035057 416.82874
34.47216 -29.024361 413.9769
28.830408 -28.917267 420.84735
31.080732 -28.199989 418.32465
27.676973 -28.045486 422.3176
33.510334 -27.857151 415.49725
29.975355 -27.341965 419.80322
32.41053 -27.000526 416.97168
28.896904 -26.49123 421.29254
34.644821 -26.284073 414.45517
31.352886 -26.156017 418.46133
33.408249 -25.421539 416.24292
30.289139 -25.308533 419.95239
29.144201 -24.435394 421.42395
32.27879 -24.198299 417.72079
34.533409 -23.490002 415.20645
31.244741 -23.358177 419.21936
33.495087 -22.647995 416.6991
30.105053 -22.484428 420.69135
32.413689 -21.791672 418.18253
28.959225 -21.607658 422.16513
34.866386 -21.109165 415.36853
31.289896 -20.921181 419.6572
33.750278 -20.240376 416.83978
30.14595 -20.043304 421.12967
32.649872 -19.375473 418.31885
28.978647 -19.157211 422.59906
31.543764 -18.507957 419.79965
33.81073 -17.807007 417.27969
30.381775 -17.621693 421.2681
32.624256 -16.912266 418.73596
31.531044 -16.046017 420.22214
29.811846 -15.772537 422.22629
34.024303 -15.380157 417.40897
32.906013 -14.504509 418.88574
30.927216 -14.184608 421.16934
34.418098 -13.326241 417.22488
31.820568 -13.280853 420.38531
30.91449 -11.715652 421.59381
33.083393 -11.702675 419.01602
34.544376 -10.190166 417.70416
32.280319 -10.169312 420.25137
31.392361 -8.6056137 421.46567
33.57869 -8.6020584 418.89099
32.79842 -7.0723648 420.13345
34.310032 -6.2528114 418.45709
31.891563 -5.4983673 421.3432
33.42049 -4.6840096 419.66852
30.967728 -3.9157982 422.55133
34.747471 -3.4854279 418.30496
32.586487 -3.1309738 420.89859
33.886524 -1.9223976 419.52512
31.586853 -1.5198288 422.08533
32.951939 -0.33197403 420.72751
34.303089 0.49888611 419.35733
31.766499 0.5831871 422.19858
33.155872 1.7625923 420.84668
31.897636 2.7050819 422.29849
33.907547 3.4362946 420.03976
32.75391 4.3449287 421.51993
33.844177 5.9462299 420.45038
32.679314 7.2236729 421.93985
34.931786 7.5476284 419.38052
33.774902 8.8245735 420.87039
32.246281 9.4647446 422.59689
34.60236 10.476097 420.08301
33.157028 11.08913 421.83167
34.234352 12.69775 420.75586
32.785007 12.950951 422.49567
33.538536 14.632706 421.68573
34.419212 16.269299 420.91132
33.463074 17.894863 422.11734
34.571846 19.495142 421.04767
33.604855 21.129639 422.2522
34.667957 22.748085 421.16833
33.698235 24.388609 422.37372
34.738365 26.017378 421.28207
34.819683 28.187973 421.36765
34.136826 31.614758 422.3497
34.399231 34.140305 422.13773
34.462643 39.656555 422.31519
34.687359 45.178291 422.17737
34.954094 50.703751 422.05072
34.577026 55.663155 422.44711
34.538429 59.051277 422.53354
34.679134 62.048542 422.29614
34.598721 65.09304 422.36023
34.810516 67.318207 422.12045
34.477539 71.564743 422.51111
34.606155 74.973557 422.28018
34.92099 78.363129 421.73529
34.135864 80.066925 422.6564
33.915039 82.833328 422.67188
34.592491 84.607536 421.81686
34.934074 87.625771 421.26611
34.75835 89.62059 421.27087
34.234398 92.104744 421.55652
33.385735 93.859604 422.46655
34.442871 94.815582 420.95544
33.082253 95.924309 422.43732
34.152298 96.87558 420.92804
32.938198 97.976791 422.08411
33.429714 100.87439 417.11508
30.103359 101.6064 421.35922
32.031982 101.62106 418.57965
34.872883 101.77159 414.96783
28.558338 102.47836 422.42224
30.492104 102.88053 419.64874
33.491642 102.90051 416.44382
32.097881 103.6479 417.9104
29.167603 103.98352 421.15381
34.321739 104.62894 415.62125
31.106449 105.04422 419.14536
32.98 105.35442 417.10162
28.053051 105.43793 422.36179
29.80479 106.1396 420.65668
34.062061 106.6364 415.96878
31.935341 106.77801 418.32043
30.650635 107.86786 419.83545
33.01405 108.06342 417.18469
29.2314 108.24135 421.2948
31.672264 109.1821 418.68158
34.003288 109.39043 416.02393
28.19923 109.66345 422.52786
30.396557 109.88025 420.19043
32.795712 110.44749 417.55707
31.450844 111.18017 419.04449
29.311565 111.32962 421.40695
33.600063 111.41437 416.70331
30.430607 111.81827 420.25516
32.824783 113.16865 417.63943
34.349957 113.1882 415.85477
28.143757 113.21233 422.61557
31.485435 113.51015 419.11932
29.569954 113.61504 421.17453
33.564823 114.94968 416.7872
34.96323 115.02853 414.96649
32.22303 115.29443 418.26578
30.621696 115.31103 420.03613
28.62265 115.45641 422.07254
34.251297 116.75764 415.91919
29.824242 117.083 420.97421
31.362331 117.09634 419.1825
32.990055 117.4575 417.43076
28.382851 117.47514 422.43561
33.989155 118.78482 416.26819
30.531273 118.88741 420.11017
29.113846 119.27 421.57758
32.09697 119.2785 418.3374
34.820488 120.58658 415.06769
33.116039 120.59839 417.17862
30.432209 120.90219 420.1377
31.778111 121.33897 418.67395
29.067924 122.04887 421.64423
33.925705 122.41362 415.97049
30.332874 122.92036 420.16528
32.743011 123.08048 417.509
34.87841 123.76587 414.79279
31.528126 124.21901 418.67911
29.168312 124.42838 421.36685
33.613979 124.47452 416.30646
30.483765 125.67006 419.91183
34.559097 125.83224 415.12524
32.547829 125.93677 417.52792
28.90279 126.47285 421.72339
33.425529 127.32979 416.32568
31.401207 127.44067 418.73019
30.082687 127.78271 420.22861
34.644386 128.61542 414.84763
32.362148 128.79471 417.5499
28.91098 128.90576 421.41998
31.005768 129.55298 419.04718
33.473499 129.7403 416.02808
29.704651 130.68068 420.57529
32.247555 130.83134 417.57083
28.366234 131.03404 422.07437
34.491138 131.06526 414.86481
30.857109 131.60889 419.06012
33.20187 132.19 416.3876
29.506458 132.76385 420.57605
31.821117 132.96471 417.87793
34.938263 133.0105 413.92111
28.175312 133.51276 422.09045
30.47097 134.12177 419.39215
33.675167 134.12453 415.45132
32.398876 134.84897 416.97131
29.117298 134.88387 420.89862
34.539371 135.52965 414.24146
27.738625 135.65866 422.40222
31.091717 135.98721 418.49713
33.229298 136.27296 415.75043
29.728905 136.75612 420.00058
31.904541 137.42215 417.26978
28.31221 137.55261 421.4931
34.286991 137.64566 414.21939
30.567257 138.18021 418.77911
33.059914 138.34892 415.75415
29.324326 138.89066 420.31885
31.72345 139.50688 417.27191
27.954689 139.66544 421.82687
33.881336 139.78009 414.52905
30.393406 140.26347 418.78506
32.468952 140.9791 416.02365
29.096443 141.00323 420.3114
34.775566 141.23865 412.9487
31.205128 141.70361 417.55444
27.751205 141.76797 421.82816
33.506199 141.9673 414.47223
29.919819 142.43938 419.08286
32.156013 143.13748 415.98682
28.514236 143.23694 420.58145
34.299786 143.41544 413.23709
30.918781 143.85028 417.52725
27.184277 143.99583 422.10526
29.702988 144.55228 419.0773
33.015686 144.55374 414.76926
31.638371 145.3407 416.26849
28.27425 145.36403 420.57126
34.070248 145.59953 412.84396
30.427402 146.04185 417.81903
32.871872 146.69629 414.40265
29.010738 146.84976 419.31509
27.539288 147.21878 421.16599
31.59993 147.43085 415.93362
34.051411 147.67851 412.51151
26.114006 148.03078 422.66843
30.38475 148.13606 417.48434
28.233837 148.72867 419.89658
32.906765 148.81551 413.70947
26.991714 149.44783 421.44876
31.683083 149.52699 415.25537
29.35508 149.68063 418.35803
34.321125 149.74199 411.5072
30.365028 150.69043 416.78867
28.204346 150.82222 419.56723
33.132439 150.90463 412.69238
26.818378 151.61841 421.08072
31.895863 151.62503 414.23517
29.206097 151.83791 417.99338
33.990929 151.992 411.08179
25.490482 152.38446 422.6145
30.605682 152.77673 415.77686
29.74633 152.96272 417.04498
31.642761 152.96658 414.19342
28.040745 152.9897 419.19968
26.364311 152.99997 421.36743
30.499317 154.10939 415.39987
32.42355 154.50095 412.56744
28.682415 154.53346 417.91159
25.326641 154.5569 422.25012
34.207188 154.56175 409.68915
27.260151 154.88232 419.78284
31.274712 155.64874 413.77087
29.694775 156.01624 415.97021
26.031616 156.07123 420.97778
33.018478 156.13518 410.88586
34.499798 156.28885 408.29681
27.850204 156.45604 418.47867
31.655838 157.33206 412.4054
28.671062 157.57124 416.84857
26.645832 157.6347 419.67932
30.30204 157.64795 414.29071
33.506027 157.82904 409.17056
25.371151 157.97331 421.21994
32.347458 158.51443 410.73895
27.527676 158.71912 418.06448
29.332844 159.17662 415.18311
30.993179 159.2372 412.63361
25.944321 159.56136 419.90836
24.684502 159.89294 421.45581
32.653976 160.30965 408.96741
28.111038 160.36891 416.37537
31.58894 160.47346 410.93698
26.745331 160.69115 418.26837
29.887909 160.84122 413.48505
25.362137 161.49612 419.79175
23.492737 161.54323 422.30142
28.685516 162.02574 414.68158
30.399891 162.12489 411.76202
27.328575 162.34448 416.57697
31.569241 162.37982 409.44824
26.110779 162.65607 418.13464
24.250076 163.10712 420.65735
29.261047 163.27736 412.97556
22.748489 163.50096 422.52463
30.447876 163.99898 410.29233
27.950417 164.04755 414.51352
25.004845 164.26593 418.99985
26.678864 164.32124 416.43649
30.925064 164.89838 408.54459
23.54657 165.11444 420.50873
29.221291 165.20132 411.48041
27.909531 165.9055 413.40048
22.08168 165.96652 422.02029
25.470444 165.98926 417.27097
29.619034 166.14529 409.70773
26.669395 166.23132 414.95248
24.242165 166.30783 418.83197
29.972786 167.11441 407.9201
22.829185 167.13388 420.35635
28.395569 167.34888 410.89896
26.852463 167.63312 413.50983
25.498909 167.88318 415.79697
21.465553 167.93353 421.89862
24.281418 168.19662 417.36197
28.620178 168.38976 409.07202
27.256775 168.98613 411.74625
22.927628 168.99313 418.90329
25.610954 169.39511 413.9502
21.587997 169.78189 420.45267
27.414261 170.06572 409.89804
28.105415 170.1059 407.8006
24.390755 170.12088 415.52606
26.100372 170.77461 411.8255
23.008919 170.93463 417.05969
20.074005 171.14499 421.58765
21.743591 171.20537 419.00131
24.650154 171.55762 413.71796
26.914742 171.91663 407.86304
25.999977 171.99783 409.89923
23.294044 172.35886 415.25851
20.211571 172.58093 420.13028
24.873001 172.67523 411.5018
21.710838 172.73349 417.49463
23.431793 173.45454 413.40128
20.15345 174.12561 418.61584
21.447868 174.39047 415.91977
19.671642 -47.315826 423.01062
19.723377 -45.212296 423.09009
20.067104 -43.153259 422.89505
19.997635 -40.372704 423.67267
21.615189 -38.603783 423.11688
20.837748 -37.886063 425.0535
23.124901 -37.19751 422.87665
20.139338 -37.190948 427.013
22.409706 -36.497681 424.82791
19.524817 -36.12899 428.65366
21.846731 -35.451324 426.47897
24.047657 -35.41394 423.90314
20.799341 -34.617393 427.99002
23.179365 -34.278175 425.4689
19.36351 -34.060448 429.74332
25.162088 -33.543564 423.56607
22.301992 -33.138428 427.03494
20.794121 -32.55835 428.76611
24.221428 -32.385021 425.11102
26.292091 -31.996975 422.86917
23.136675 -31.182083 426.62
19.929564 -31.027527 429.99957
25.235531 -30.802452 424.38086
21.620457 -30.597137 428.34814
26.667978 -29.981956 423.03696
24.171019 -29.604088 425.89398
20.745619 -29.060936 429.57831
22.834841 -29.033691 427.31476
25.533377 -28.761749 424.52789
24.448351 -27.554771 426.03619
19.888166 -27.527405 430.81598
21.997614 -27.507256 428.55304
26.512539 -27.169365 423.7883
23.277664 -26.319836 427.52505
21.168114 -25.980869 429.79636
25.387104 -25.948109 425.28424
27.680805 -25.597591 422.74704
22.368746 -24.768372 428.745
24.181734 -24.700699 426.76236
20.29693 -24.439369 431.03137
26.617134 -24.39349 424.25803
27.970953 -23.552307 422.89111
25.436207 -23.508072 425.72952
21.509556 -23.229401 429.98126
23.397228 -23.185444 428.01459
26.882374 -22.338192 424.39606
20.220259 -22.309158 431.43787
24.860819 -21.661728 426.69296
22.481024 -21.627373 429.23431
27.793037 -20.723675 423.63672
21.250351 -20.723339 430.70508
26.324078 -20.496552 425.36194
23.94364 -20.101738 427.90991
22.664635 -19.538631 429.35336
20.30084 -19.150261 431.92264
25.417337 -18.938995 426.57898
27.228622 -18.87867 424.60004
24.185499 -18.031235 428.0437
21.741266 -17.972626 430.5752
26.323769 -17.319675 425.81635
28.416206 -17.31155 423.56137
20.483887 -17.055698 432.04343
22.932713 -16.757603 429.51849
25.089273 -16.409225 427.27921
21.681705 -15.841064 430.98611
27.508169 -15.749863 424.77499
20.079153 -15.211082 432.70889
23.840124 -15.134285 428.75357
26.268953 -14.835892 426.23456
28.948364 -14.223656 423.44986
22.611292 -14.222908 430.22592
25.093891 -13.941277 427.71536
21.312214 -13.647514 431.67151
27.483116 -13.633125 425.18918
23.230192 -13.263809 429.71509
29.533566 -13.25856 422.93344
26.578825 -11.708176 426.41962
24.450113 -11.699875 428.67749
28.635517 -11.694912 424.14969
22.225712 -11.662975 430.91794
20.083832 -11.654366 433.18845
30.06303 -10.165573 422.82059
25.673632 -10.138557 427.64185
23.526138 -10.123192 429.89981
27.695042 -10.114738 425.35736
21.284964 -10.079735 432.14108
20.229315 -8.8173447 433.32507
29.157162 -8.5949707 424.03534
26.798223 -8.5461578 426.58026
24.672075 -8.5348053 428.8414
22.465397 -8.4993858 431.08905
21.453119 -7.2491989 432.28256
30.537216 -7.0501518 422.69223
28.183588 -6.9995728 425.23465
25.868713 -6.9639854 427.79733
23.673513 -6.9291916 430.0452
20.433189 -5.9944725 433.47714
24.855618 -5.7123337 428.98358
22.430361 -5.6419907 431.53207
29.610428 -5.4685478 423.90186
27.291866 -5.4283333 426.45956
23.618231 -4.4255829 430.4696
19.420094 -4.3781548 434.68918
26.057331 -4.1423874 427.93985
21.475021 -4.045063 432.75455
28.713161 -3.8938103 425.12286
27.379509 -3.2945023 426.55084
24.968586 -2.8618584 429.10706
20.408031 -2.7705536 433.93881
23.13467 -2.5400505 431.11377
30.065193 -2.3377724 423.76855
21.788727 -1.9364662 432.5538
28.554611 -1.7182884 425.50195
26.441956 -1.702282 427.76752
24.328682 -0.96409225 430.0643
19.943344 -0.88628387 434.59399
23.017895 -0.37021255 431.51163
30.440294 -0.25847816 423.58063
27.610535 -0.12205505 426.715
21.321804 -0.05134964 433.20633
26.056591 0.15203094 428.4342
29.234844 0.66322327 425.05273
19.498152 0.9946804 435.25565
24.724522 1.1170158 429.88403
22.598297 1.5002213 432.17517
27.168678 1.7525978 427.36505
20.940548 1.8082123 433.88266
30.573494 1.8631477 423.6821
28.827642 2.5259304 425.70978
25.896076 2.6996193 428.82892
24.280973 2.9963112 430.53891
19.881565 3.0883293 435.07376
22.127501 3.3909836 432.8266
27.579817 3.8278866 427.1879
30.706146 3.987505 423.78354
25.449362 4.581192 429.48157
29.206577 4.6108971 425.52322
23.299385 4.6144505 431.75525
20.84721 4.7063313 434.31549
31.549213 5.6342125 423.00015
27.192982 5.6891613 427.85425
22.280069 5.8845024 432.95273
24.519871 6.183527 430.70981
30.292601 6.2181587 424.44852
28.792862 6.4812164 426.17996
20.391006 6.5982552 434.97485
25.90176 6.6476479 429.31595
23.510227 7.4520626 431.90796
27.569075 7.7807865 427.66754
21.803328 7.7840824 433.60474
31.370581 7.8278885 423.37201
29.909122 8.0796394 425.11227
24.888298 8.2817154 430.522
19.909298 8.5021973 435.62906
26.272749 8.7437649 429.1283
23.008957 9.3615494 432.55197
28.699905 9.3763008 426.60181
21.387693 9.6658134 434.27411
30.793993 9.7151394 424.33859
24.436508 10.174072 431.17706
27.443918 10.32723 428.07153
25.831608 10.631989 429.78394
20.046892 10.646189 435.74124
29.602566 11.007763 425.83179
22.560699 11.255749 433.21146
31.663568 11.355982 423.56088
21.223715 11.871479 434.66486
28.307985 11.974461 427.28976
24.004404 12.062746 431.83868
26.729658 12.269463 429.01016
30.668289 12.624887 424.74908
25.386505 12.889526 430.45193
22.970692 13.347794 433.03519
29.408243 13.581554 426.21466
20.812658 13.757763 435.33786
27.812084 13.885078 427.92838
24.376339 14.167253 431.65186
31.760799 14.232052 423.67416
26.548721 14.479123 429.3898
19.370207 14.779406 436.78339
21.950829 14.996229 434.25101
30.551414 15.172743 425.15189
23.312565 15.465734 432.84076
28.965342 15.474947 426.86627
25.305332 15.797722 430.88403
20.602465 15.986586 435.71838
27.676584 16.080053 428.31906
32.618172 16.24329 422.90289
22.553986 17.068485 433.76675
30.104057 17.069256 425.80084
24.23584 17.100334 432.07022
26.686596 17.354225 429.52087
28.822956 17.673477 427.25397
31.672775 17.86577 424.11636
20.094965 17.913465 436.36902
21.493668 18.370401 434.96265
25.598148 18.665751 430.69946
27.787296 18.966063 428.44171
23.743071 19.020876 432.71869
30.691521 19.138359 425.31219
32.518616 19.519176 423.32996
29.425724 19.739454 426.76932
22.430965 20.003923 434.19342
26.819149 20.236279 429.6507
20.774776 20.331652 435.91681
25.172161 20.563658 431.36374
28.41341 21.026299 427.96313
31.604034 21.135376 424.55408
23.798641 21.203487 432.80725
30.301283 21.752211 426.00031
21.840628 21.965565 434.82071
26.376135 22.141449 430.30902
20.228119 22.279385 436.55853
32.65184 22.762035 423.46399
25.011484 22.780361 431.75284
27.944649 22.940872 428.612
23.356514 23.112293 433.47113
31.354824 23.378805 424.91013
29.305882 23.402416 427.20914
21.458168 23.85549 435.50351
19.48884 23.886496 437.49896
26.934296 24.231739 429.81171
24.45112 24.733692 432.38409
32.432381 24.995989 423.8269
30.406572 25.013687 426.13013
22.862629 25.043095 434.12289
28.290127 25.062925 428.41605
20.655209 25.487411 436.42578
25.899475 25.533468 431.00803
27.300516 26.34903 429.62167
31.500889 26.62685 425.04984
33.291225 26.648327 423.04233
24.002071 26.649767 433.04626
29.421539 26.665155 427.34348
22.04207 26.682842 435.03821
20.053879 27.463524 437.05551
25.375587 27.477198 431.64819
28.337881 27.987944 428.522
30.722837 28.249163 425.95865
23.214979 28.278936 433.96854
32.314213 28.298441 424.2515
21.287643 28.300949 435.97302
26.744852 28.30477 430.25116
27.876217 29.910515 429.17529
31.563465 29.912628 425.16684
22.396902 29.922611 434.88519
29.50736 29.945824 427.46997
33.309849 29.947945 423.14432
20.460814 29.948616 436.89157
24.055464 29.951958 433.172
25.778902 29.955618 431.48065
30.805035 31.532631 426.08231
27.055065 31.555677 430.08176
21.591539 31.564274 435.80762
23.290306 31.577896 434.10141
28.715837 31.579191 428.38092
32.316818 31.60915 424.35089
24.919418 31.616167 432.38162
30.011719 33.168369 426.99066
26.298065 33.179501 431.00787
20.845774 33.186455 436.74777
27.92569 33.214684 429.29465
22.468344 33.22784 435.01837
24.104116 33.262959 433.29684
33.144279 33.278118 423.55533
31.600161 33.584545 425.28815
25.23243 34.50568 432.20261
29.006214 34.840904 428.20416
27.088821 34.870785 430.19836
19.920307 34.879074 437.64426
21.649052 34.87991 435.93857
23.298986 34.908882 434.21719
32.6646 35.212234 424.1969
30.627676 35.244495 426.50684
24.406651 36.160805 433.11566
26.049252 36.189449 431.39899
28.23768 36.473003 429.12451
20.808023 36.542938 436.85562
22.50238 36.554554 435.14224
33.984741 36.7883 422.81689
31.865707 36.854874 425.10126
29.828074 36.888371 427.4155
27.166681 37.805611 430.31497
23.599972 37.811699 434.03625
25.247393 37.837822 432.31735
19.992592 38.199432 437.7818
21.670425 38.216343 436.06052
33.185146 38.433155 423.71893
30.900345 38.517326 426.32306
28.99003 38.549946 428.31628
26.313704 39.475533 431.21811
