# .PCD v0.7 - Point Cloud Data file format
VERSION 0.7
FIELDS x y z
SIZE 4 4 4
TYPE F F F
COUNT 1 1 1
WIDTH 1539
HEIGHT 1
VIEWPOINT 0 0 0 1 0 0 0
POINTS 1539
DATA ascii
112.54804 96.033363 -40.654884
119.91859 89.739738 -45.71846
118.20889 91.759018 -44.351517
116.50843 93.728325 -42.958439
121.53262 88.934265 -46.645836
114.80204 95.703011 -41.558914
112.89336 98.144318 -39.928932
123.15141 88.100822 -47.560558
120.23711 91.955765 -45.050865
118.53812 93.93576 -43.663651
116.85131 95.856178 -42.247322
121.88429 91.032822 -45.94006
115.14266 97.839149 -40.844593
123.51125 90.173218 -46.848923
114.36608 99.667793 -39.943005
125.13237 89.323578 -47.758564
120.62117 93.942902 -44.297962
118.91188 95.961472 -42.918476
117.19324 97.997734 -41.536533
122.24372 93.113503 -45.223614
123.86719 92.270248 -46.141743
116.45711 99.693069 -40.590687
125.48624 91.432022 -47.058857
120.97088 96.065422 -43.588417
119.23334 98.188324 -42.239056
116.01982 101.67744 -39.637371
122.58561 95.269829 -44.529469
118.51231 99.839912 -41.279701
124.20632 94.440971 -45.456154
127.5172 91.589439 -47.741467
125.84223 93.544487 -46.356182
121.29971 98.275314 -42.904896
118.07118 101.85127 -40.337467
122.93772 97.398232 -43.820915
120.57806 99.940796 -41.952118
124.58188 96.486526 -44.721996
127.90472 93.593475 -47.001987
126.19806 95.667114 -45.652691
120.14827 101.92276 -41.001724
122.79176 99.735535 -42.900387
124.44772 98.787231 -43.792984
122.05711 101.45868 -41.965691
128.25879 95.732788 -46.306179
126.07477 97.93454 -44.716103
120.16999 103.88845 -40.322197
124.33648 101.00927 -42.830326
128.3044 97.630096 -45.623619
122.4314 103.52957 -41.223087
125.93966 100.25301 -43.791157
130.2868 95.914452 -46.999912
127.57874 99.350685 -44.698338
121.6965 105.25446 -40.279869
124.37285 102.93834 -42.144073
126.31168 102.34382 -43.061691
130.65788 98.011116 -46.286201
123.92311 105.02368 -41.225922
127.95206 101.4413 -43.97229
129.91983 99.793755 -45.384094
123.21372 106.66338 -40.251648
132.59372 97.372116 -47.175785
125.89609 104.31168 -42.106483
132.1675 99.40905 -46.26368
127.79737 103.8576 -43.073959
125.45468 106.37857 -41.180119
129.81143 102.04109 -44.433819
131.45708 101.09641 -45.326427
124.06178 108.66187 -39.756706
129.93796 104.31623 -42.618103
134.94145 99.339828 -46.283104
126.21589 108.19537 -39.856499
-79.004166 -93.659851 -19.686758
-77.540314 -93.62117 -18.239569
-77.468925 -92.734612 -20.960003
-77.851097 -92.336906 -24.045891
-77.79776 -92.104935 -26.260723
-75.908134 -92.853798 -19.446316
-76.987915 -91.490005 -30.556395
-75.903244 -92.436081 -22.430746
-75.837479 -92.222061 -24.633148
-75.749428 -91.935905 -27.576475
-75.841232 -91.145874 -32.158813
-73.962471 -92.909615 -18.211075
-74.437569 -92.40612 -20.976385
-74.967911 -91.593124 -29.632816
-74.204666 -92.028336 -26.061657
-73.924484 -92.272308 -23.038385
-73.369736 -91.772141 -28.077944
-73.824875 -91.190598 -31.611986
-72.54406 -92.380821 -19.772104
-72.314835 -92.046143 -24.478468
-72.144089 -92.063522 -21.906446
-71.839241 -91.849083 -26.570288
-72.209747 -91.398987 -30.04109
-70.999596 -92.490715 -18.267569
-71.875565 -90.970245 -32.24081
-70.701263 -92.008224 -20.465664
-70.479851 -91.928886 -23.307194
-70.684967 -91.468384 -28.533447
-70.018333 -91.707893 -25.405848
-70.310471 -91.103546 -30.70174
-68.862846 -91.961937 -18.922663
-69.934113 -90.740265 -32.87326
-68.856049 -91.64122 -21.156643
-68.83905 -91.368866 -27.348753
-68.301987 -91.570236 -23.188896
-68.347084 -91.194298 -29.433121
-67.773827 -91.455864 -25.24143
-67.994873 -90.790024 -31.617939
-67.083916 -91.435966 -20.028492
-66.614693 -91.225288 -22.115631
-66.578117 -91.143852 -27.171326
-66.463409 -90.882172 -30.100122
-66.048981 -91.17189 -24.140467
-65.594872 -91.472801 -18.556227
-66.096275 -90.49929 -32.275627
-64.931702 -90.935532 -20.671572
-65.043571 -90.797523 -28.660837
-64.851517 -90.86351 -26.06661
-64.442848 -90.754539 -22.746143
-64.634079 -90.482773 -30.803736
-63.429153 -91.057327 -18.815048
-64.247208 -90.129349 -32.966755
-63.318085 -90.517136 -27.554628
-63.178894 -90.557053 -24.624109
-62.810013 -90.444168 -20.960546
-62.861717 -90.278542 -29.662523
-62.433395 -89.992096 -31.793755
-61.951378 -90.22506 -22.947456
-61.366859 -90.532188 -18.769072
-61.672997 -90.167763 -26.128511
-61.150959 -90.036514 -28.188055
-60.748779 -89.91394 -20.915565
-60.711235 -89.76754 -30.30839
-60.423225 -89.874779 -24.434139
-60.283195 -89.477303 -32.441082
-59.572693 -89.639023 -26.431057
-59.343254 -89.829491 -19.494154
-59.318455 -89.40284 -22.46677
-59.034229 -89.533112 -28.479263
-58.587273 -89.27317 -30.595039
-58.383308 -89.308266 -24.402477
-58.170654 -88.961151 -32.73629
-57.636372 -89.18988 -20.644609
-57.208679 -89.550217 -18.650345
-57.500866 -89.124588 -26.376686
-57.2229 -88.87471 -22.770454
-56.990841 -88.969597 -28.444372
-56.524811 -88.738983 -30.546688
-56.327721 -88.712166 -24.73366
-56.095814 -88.444412 -32.679276
-55.634743 -88.68914 -19.889912
-55.469597 -88.48597 -26.725147
-55.324718 -88.19651 -22.086315
-54.482178 -88.908066 -18.102041
-54.93182 -88.375244 -28.773878
-54.444923 -88.177376 -30.86183
-54.472069 -87.960991 -24.078329
-54.002739 -87.902382 -32.985565
-53.55827 -88.200226 -19.829552
-53.553925 -87.83522 -26.026777
-53.297573 -87.619408 -22.060709
-52.96368 -87.811935 -28.037331
-52.453865 -87.65078 -30.107832
-51.842373 -88.066284 -17.984066
-52.490227 -87.305595 -24.084177
-51.993923 -87.403748 -32.217476
-51.617523 -87.422409 -20.235949
-51.579117 -87.166718 -26.037462
-51.350544 -86.847214 -22.46484
-50.981308 -87.15477 -28.042547
94.545937 58.968666 -32.757072
95.263252 60.46534 -31.019093
95.956726 60.651199 -28.551157
96.498199 60.729599 -24.937393
95.271408 62.220394 -32.653069
96.624886 61.134727 -21.912382
96.439873 61.703819 -26.757925
96.034981 62.186302 -30.102171
96.962852 61.859093 -18.531389
96.576141 63.057159 -28.24222
97.067513 62.698784 -23.359987
97.245628 62.937778 -20.277298
97.159462 63.39529 -25.455622
96.130592 64.475578 -31.07272
97.629951 64.307594 -18.590874
97.676178 64.54985 -21.73802
97.514969 64.863174 -23.800678
97.370583 65.321861 -26.289751
98.119316 65.735298 -19.986532
97.618286 67.140076 -27.087475
98.125114 66.720299 -22.176079
97.980095 66.984596 -24.225639
98.629555 67.712517 -20.355682
98.85804 68.186638 -18.088425
97.966614 69.454285 -27.208185
98.486656 68.984276 -24.608173
99.085732 69.675667 -20.346655
99.058144 70.580208 -22.140564
99.518517 70.908073 -18.601912
100.49315 81.510681 -19.057344
100.27251 83.088585 -21.080606
100.03562 84.724236 -23.129503
-81.223885 -95.394829 -5.1576538
-80.440269 -95.291603 -9.9770508
-79.9851 -95.059029 -3.5031149
-79.591209 -95.219795 -6.5700059
-79.821083 -94.976189 -14.546086
-79.199409 -95.067558 -11.860103
-78.689865 -95.086609 -8.5129576
-79.044044 -94.589668 -16.951805
-78.304276 -94.963303 -4.883616
-77.976776 -94.813187 -13.756443
-77.432381 -94.890556 -10.382352
-77.411415 -94.817345 -6.829093
-77.307495 -94.306213 -15.857833
-76.734428 -94.482735 -3.5364101
-76.214912 -94.629829 -12.278609
-76.138397 -94.647354 -8.6859617
-75.780151 -94.434631 -5.4415131
-75.822784 -94.310165 -14.401831
-74.877403 -94.457619 -10.551565
-75.696777 -93.510162 -17.073965
-74.480377 -94.309296 -7.278965
-74.360031 -94.284531 -12.961253
-74.606621 -94.006783 -3.825628
-74.08049 -93.727783 -15.529716
-73.272575 -94.034996 -9.1758652
-73.312279 -93.873512 -5.664526
-72.699814 -94.003143 -11.177567
-72.540443 -93.830742 -14.036122
-72.625504 -93.458817 -3.102586
-72.063126 -93.666931 -7.532937
-72.344467 -93.135101 -16.662052
-71.150253 -93.54985 -9.4664087
-71.374077 -93.256981 -4.9668112
-70.871994 -93.566605 -12.244612
-70.765442 -93.304947 -15.139997
-70.108711 -93.077202 -6.8234911
-69.857269 -92.705154 -3.6501
-69.336304 -93.094315 -10.540268
-69.034073 -93.147171 -13.304688
-69.435905 -92.638756 -16.751545
-68.558708 -92.777153 -8.2817593
-68.572586 -92.557693 -5.4926381
-67.892654 -92.760284 -15.250441
-67.462242 -92.737022 -11.575001
-67.984428 -91.990761 -2.9927199
-67.306305 -92.104584 -17.40856
-67.038895 -92.232681 -6.9596128
-66.598122 -92.537239 -13.5433
-66.722679 -92.360832 -9.3393793
-66.687027 -91.864136 -4.82617
-65.758087 -92.296188 -15.530165
-65.496994 -92.1138 -11.224151
-66.009171 -91.336044 -3.00527
-65.22477 -91.783195 -8.0298576
-64.59671 -91.972122 -13.168066
-64.886292 -91.394592 -5.9038248
-64.06002 -91.647484 -16.682829
-64.001442 -91.532234 -9.9144726
-64.194954 -90.890266 -4.0733409
-63.063362 -91.642006 -14.639865
-63.091293 -91.40657 -11.850224
-63.352325 -91.070908 -7.3696918
-62.682487 -90.532173 -5.5516658
-61.955078 -91.196167 -16.608202
-62.087936 -90.887787 -9.2265139
-61.539192 -91.109306 -13.307931
-61.164875 -90.783096 -11.152564
-61.395336 -90.387436 -7.3922362
-61.696014 -89.875229 -3.6834509
-60.290447 -90.896767 -15.180241
-59.889 -90.568916 -17.30224
-60.139648 -90.189377 -9.2544746
-60.440304 -89.67894 -5.5427279
-59.652477 -90.420853 -12.635365
-59.480331 -89.635757 -7.4415898
-59.990059 -88.95208 -2.7620201
-58.362976 -90.276581 -14.479226
-58.637676 -89.810959 -10.742467
-57.823658 -90.176804 -16.507153
-58.733086 -88.757423 -4.619894
-57.691666 -89.742691 -12.654399
-57.984917 -89.2472 -8.9325819
-57.717873 -88.806465 -6.4820838
-56.44519 -89.526016 -14.526737
-56.687756 -89.117432 -10.768203
-57.837532 -87.952965 -2.8099561
-55.885357 -89.458633 -16.541126
-56.824577 -87.998543 -4.67274
-55.757706 -89.021378 -12.690675
-56.214603 -88.431778 -7.9669666
-54.480331 -88.856033 -14.542017
-54.953457 -88.240746 -9.8256788
-55.945759 -87.167587 -2.873415
-55.281513 -87.691086 -6.1307158
-53.992023 -88.197014 -11.726414
-54.289265 -87.700676 -8.0083599
-53.27478 -88.567917 -16.443684
-54.390488 -86.881302 -4.3227301
-52.740299 -87.988632 -13.593985
-53.050217 -87.47197 -9.8815727
-53.401081 -86.886063 -6.2012954
-52.090027 -87.425278 -11.783113
-52.404964 -86.90155 -8.0764589
-52.574215 -85.968422 -4.435061
-51.15641 -86.687843 -9.943511
-51.526405 -86.07151 -6.275599
-50.279335 -85.855675 -8.1425514
-50.702438 -85.149475 -4.511198
-49.377441 -85.066971 -6.3256388
-49.917854 -84.160133 -2.7729449
-48.609055 -84.049469 -4.5979142
-47.810883 -83.083832 -2.850481
96.29425 60.315369 -4.1158791
96.376724 60.566788 -16.815166
96.822845 60.785294 -6.0054774
96.800819 61.798836 -15.088063
97.053986 62.039768 -3.1883841
97.471146 61.857742 -9.9315977
97.41124 62.060333 -7.6951771
97.716927 62.448662 -12.703312
97.518936 62.719849 -5.145431
97.328506 63.284103 -16.865742
97.599091 63.620056 -14.565023
98.134193 63.712227 -8.6788473
97.788086 64.250732 -3.145781
98.415588 63.996262 -10.981824
98.223778 64.430611 -6.1435809
97.932983 65.343201 -15.680331
98.341156 65.034073 -12.796866
98.616371 65.767647 -4.446682
98.248146 66.329979 -17.392509
98.782806 65.822861 -7.8729792
99.106979 65.972549 -10.134265
98.516647 67.078003 -13.643117
99.009071 67.107216 -2.7484269
99.222931 67.011124 -6.1258922
98.588173 67.852135 -15.750367
99.16169 67.607399 -11.677146
99.490845 67.547928 -8.8799229
99.498177 68.537025 -4.1156325
99.269241 69.077545 -13.170363
99.822021 68.895126 -6.811059
99.189003 69.745415 -16.454872
99.99942 69.127625 -10.676801
99.910759 70.022743 -2.8267169
99.516075 70.912895 -13.947257
100.20667 70.273384 -5.1190534
100.44775 70.705414 -7.4730458
99.64959 71.701637 -16.43598
100.52039 71.887268 -3.498632
100.73999 72.393768 -5.87571
100.77481 72.489212 -8.5923681
99.880234 73.806122 -15.345819
100.85499 73.031624 -3.299803
101.31864 74.579277 -4.7064471
101.36855 74.628815 -7.4104519
100.84681 75.748772 -11.302036
101.31256 75.643677 -9.2180672
101.7424 76.051727 -3.403636
101.78835 76.117256 -6.1131139
100.95798 77.243294 -12.804485
100.60293 78.22039 -15.083585
101.68562 77.30378 -10.300741
102.19474 77.655571 -4.8287201
102.02851 78.011192 -6.8920112
101.59034 79.0877 -13.483491
100.987 79.857254 -16.169865
102.21124 79.489197 -8.7526159
102.41211 80.039398 -4.1760788
-80.237183 -94.968475 -1.454723
-79.694168 -94.469131 2.1129179
-79.030136 -94.587509 0.17671099
-78.331642 -94.708534 -2.1063752
-79.003906 -93.216415 7.3101649
-78.577805 -93.581985 5.3739691
-78.169556 -93.919266 3.4264481
-77.487564 -94.066208 1.502865
-77.159828 -94.27494 -0.49542201
-77.15818 -92.45208 7.944396
-75.56974 -94.040123 -1.9280109
-76.732765 -92.816353 6.0085039
-76.307198 -93.180611 4.0721359
-75.581894 -93.39624 2.1755469
-75.212242 -93.67144 0.20403901
-75.904037 -91.529922 9.4592896
-73.617653 -93.445091 -1.224483
-76.388535 -90.601578 12.316416
-75.105843 -91.862373 7.6077418
-74.644989 -92.283325 5.6936359
-74.247047 -92.603127 3.741214
-73.497475 -92.857613 1.859967
-74.72979 -90.480614 10.926934
-72.160835 -92.795586 0.051814999
-73.89183 -90.877686 9.0991154
-72.839081 -91.460205 6.3058209
-72.380447 -91.877045 4.3906498
-71.161911 -92.819977 -1.820882
-71.661072 -92.08313 2.491905
-72.89782 -89.64579 11.188804
-72.030983 -90.506569 8.0581865
-70.293663 -92.07148 0.703628
-70.911728 -90.726913 6.2610841
-70.462166 -91.129066 4.340734
-69.269028 -92.137665 -1.152092
-71.276932 -89.465591 9.7781525
-69.388824 -91.275101 2.5161641
-70.131226 -89.729172 7.9967446
-71.19516 -88.656769 11.738808
-68.377602 -91.319588 0.65298301
-69.001595 -89.967049 6.206389
-68.50959 -90.438408 4.3122711
-67.330933 -91.421951 -1.188568
-69.365852 -88.706886 9.7233009
-67.45105 -90.560547 2.479172
-68.224419 -88.964317 7.9399076
-69.375519 -87.748352 11.629346
-66.401909 -90.667366 0.640073
-66.842171 -89.449471 5.2072191
-65.073471 -90.592804 -1.171447
-65.751122 -89.625557 3.3946569
-67.519005 -87.843666 9.630228
-66.094925 -88.397781 6.9222789
-64.67984 -89.768982 1.569857
-67.500351 -86.931061 11.552913
-64.968315 -88.632362 5.1311851
-63.266602 -90.1362 -2.2434011
-63.356049 -89.686966 -0.243892
-63.886192 -88.793877 3.3132811
-65.37307 -87.304146 8.6221609
-65.643326 -86.55629 10.510047
-64.25351 -87.527115 6.8263221
-62.492317 -88.828011 1.543648
-65.700676 -85.516853 12.387345
-63.139748 -87.740791 5.027451
-61.545273 -89.237747 -1.312827
-63.533379 -86.430046 8.5249825
-61.742218 -87.781158 3.2599161
-63.843246 -85.615585 10.38879
-62.398605 -86.678696 6.7386112
-60.728195 -88.302124 0.44575599
-63.884125 -84.601959 12.275692
-60.989136 -86.738754 4.9780889
-59.916306 -87.357834 2.2006793
-61.801788 -85.433243 8.7274914
-59.143188 -88.066086 -0.98423302
-62.128593 -84.589516 10.580935
-60.671696 -85.674622 6.9381518
-59.170647 -86.30349 3.91417
-58.350201 -87.090637 0.75898999
-60.023182 -84.456345 8.5928011
-58.85601 -85.233833 5.8718772
-57.008583 -87.037682 -1.0434999
-60.344433 -83.620422 10.449533
-57.56881 -86.096199 2.4948931
-60.413185 -82.556892 12.319447
-56.200443 -86.088348 0.70955402
-57.254791 -85.024963 4.4516258
-58.213825 -84.003845 7.5218148
-58.5177 -83.196198 9.3884697
-55.137093 -86.218819 -1.119887
-55.845383 -85.086349 2.6918111
-58.58588 -82.132263 11.257685
-56.589298 -83.833626 6.1153121
-54.387451 -85.170364 0.59571499
-53.57225 -85.949249 -2.562614
-56.590317 -82.882935 8.0235987
-55.178814 -83.896271 4.3552852
-56.955261 -81.97049 9.8528175
-54.034348 -84.164261 2.5766437
-57.05534 -80.850418 11.702911
-52.810699 -84.920837 -0.839463
-54.864922 -82.823448 6.3127966
-51.775635 -85.002304 -2.687782
-54.950264 -81.727715 8.1685572
-52.451069 -83.925507 1.14539
-53.482361 -82.838989 4.535069
-55.272663 -80.886169 10.024317
-55.404114 -79.710709 11.855211
-51.013889 -83.97374 -0.96440601
-53.213184 -81.688232 6.4644451
-51.753471 -82.787163 2.8279283
-53.258377 -80.659317 8.3454037
-50.631081 -83.018257 1.0356683
-51.790031 -81.772621 4.7116952
-53.60099 -79.781746 10.18876
-53.751778 -78.570183 12.007656
-49.198795 -83.057739 -1.0775681
-51.600388 -80.546219 6.958755
-49.971642 -81.813057 2.6935389
-51.6744 -79.465981 8.8217907
-48.876156 -81.997749 0.88355899
-49.974289 -80.855988 4.5988922
-52.086704 -78.466576 10.622226
-47.462646 -82.067719 -0.873303
-49.753765 -79.617882 6.4972525
-48.182583 -80.850105 2.563395
-49.941502 -78.402313 8.6562872
-46.11972 -82.014999 -2.67629
-48.317646 -79.72525 4.752131
-50.351746 -77.404221 10.457843
-46.743092 -80.964722 0.82272398
-50.548016 -76.107979 12.24884
-48.068169 -78.535957 6.6691432
-45.425018 -80.868439 -0.99685001
-46.49065 -79.78093 2.7388339
-48.204475 -77.34304 8.492507
-46.548466 -78.724915 4.6086898
-48.643028 -76.293297 10.276261
-45.110634 -79.792107 0.95902503
-48.817383 -75.03241 12.080701
-46.32568 -77.486992 6.508491
-44.828602 -78.657883 2.894552
-46.486412 -76.248543 8.3161297
-43.316219 -79.314148 -0.121465
-44.887047 -77.598877 4.7641459
-46.90448 -75.23217 10.112651
-43.037106 -78.173874 1.8115031
-47.090443 -73.947823 11.909533
-44.691235 -76.311172 6.6466179
-43.080719 -77.139778 3.689961
-44.71489 -75.245819 8.1730099
-45.419525 -74.399078 9.9373007
-43.556705 -76.084488 5.8126621
-42.665569 -74.53392 7.1003871
-43.31311 -73.786064 8.9000854
-40.559753 -76.456108 2.03299
-41.17511 -75.764107 3.8485861
-44.088131 -72.812607 10.620807
-40.996277 -74.441444 5.7191138
-43.105438 -71.350349 11.601964
-41.160564 -73.187927 7.5231748
-41.849197 -72.365318 9.2973108
-39.429199 -74.715637 3.687767
-39.251549 -73.387901 5.55721
-40.886314 -70.865601 10.264179
-41.643169 -69.919884 11.999025
-39.407902 -72.145752 7.3661079
-39.203232 -70.794205 8.8873234
-37.185059 -72.705048 4.4948468
-37.598293 -71.685791 6.2899122
-39.428658 -69.424561 10.656748
-37.395363 -70.328728 7.8084164
-35.777344 -71.247101 5.2214279
-37.587772 -69.015831 9.5973148
-38.46394 -67.919052 11.625031
-35.540649 -69.948891 6.760498
-35.746338 -68.608932 8.5386906
-36.652775 -67.453949 10.544873
-37.11512 -66.341309 12.317499
-33.781849 -69.39444 5.649581
-33.953575 -68.113571 7.4485178
-34.847435 -66.978661 9.461132
-35.283836 -65.91069 11.248866
-32.301857 -67.987198 6.051724
-33.0112 -66.55986 8.397541
-33.461327 -65.464569 10.17488
-33.98584 -64.23204 11.906828
-31.321365 -66.502182 7.0241141
-31.517761 -65.169373 8.8089809
-32.018703 -63.976986 10.553729
-32.513908 -62.795044 12.305592
-29.611115 -65.366112 6.8343191
-29.830048 -63.987709 8.6040525
-30.309589 -62.831875 10.36275
-28.000229 -63.554733 7.5345979
-30.155457 -61.361618 11.854362
-28.497601 -62.362545 9.279707
-28.343975 -60.888325 10.76912
-26.461128 -62.164215 7.6009889
-26.893658 -61.090488 9.3896942
-26.600876 -59.874229 10.970834
-24.87377 -60.93631 8.0718298
-24.624538 -59.712933 9.9951181
-24.868076 -58.993946 11.910872
-22.861719 -58.892982 10.956034
84.563492 48.580368 11.952188
86.019386 50.116203 11.215575
87.974785 52.983711 11.432513
89.411255 54.02393 9.6679201
88.665939 54.854031 12.31663
90.691467 55.189423 8.58848
90.056503 55.861897 10.924486
91.94207 56.456627 7.4765649
91.377266 57.096493 9.4616566
91.670685 58.707561 11.0638
92.929077 57.590744 5.94837
92.514435 58.540859 8.6601191
93.830223 58.029823 4.175993
94.443695 58.404987 1.964048
92.885689 60.10392 9.9149265
93.637108 59.44767 6.8377872
92.839478 61.440563 11.877948
95.250725 59.151344 0.090452
94.587402 59.929184 4.6866212
93.944099 61.028831 8.4517775
94.65287 61.106846 6.3322568
95.404274 60.647575 2.824091
93.993736 62.257458 10.084332
96.054306 60.917721 0.63998002
94.062927 63.424862 11.737514
95.667809 62.182487 4.8181639
96.565384 61.440617 -1.260591
95.182053 62.973404 8.3186579
96.307693 62.488255 2.6234031
95.1343 64.32299 10.282557
96.013008 63.655449 6.4691958
96.832474 62.971401 0.73624003
96.667206 63.918774 4.2875252
97.362526 63.440697 -1.149502
96.005745 64.878319 8.4725332
95.482719 65.982597 11.518
97.198288 64.384186 2.406585
96.838966 65.561913 6.6209922
96.352089 66.549583 9.7040539
97.986603 65.219666 0.50053
97.55867 65.817749 4.073091
98.171402 65.615433 -1.458174
97.192848 67.215263 7.857903
98.076324 66.334 2.1742239
96.742538 68.084946 10.97963
97.950325 67.352791 5.344995
98.699005 67.518097 0.524997
97.573036 68.788399 9.1222143
98.732399 68.219139 3.4311609
98.227013 69.066368 6.9322238
97.374374 70.242691 11.798448
99.322639 68.70826 -1.129582
98.768509 69.513657 5.0546932
99.290581 69.622505 1.7154649
98.23127 70.868568 9.9631367
98.875099 71.186195 7.7593498
99.587288 71.081444 3.7513132
99.942848 70.728539 0.087815002
98.488678 72.452637 11.964069
99.684975 71.977562 5.868279
99.023132 72.929352 10.080084
100.24623 72.169312 2.1316669
99.700455 73.143219 7.9047971
100.63792 72.516319 -0.92381603
100.33188 73.107147 4.238853
99.161926 74.706055 12.395477
100.56863 73.350632 2.32321
100.1981 73.748489 5.9762478
99.65731 74.300346 10.312996
100.86857 74.80912 4.366848
101.16199 74.669746 0.62873602
99.903946 76.340561 11.451715
100.33587 76.146873 9.3027544
101.31977 75.18084 -1.3763959
100.8002 76.053131 6.7540741
101.50034 76.006752 2.712467
101.74717 76.640327 -0.067943998
101.56531 77.017792 4.8044448
100.7049 77.999298 10.131217
101.09832 77.936775 7.9392705
102.07465 77.834259 -2.1943388
101.99281 78.083221 2.357681
101.04958 79.525513 11.795929
102.14764 78.612694 0.34573001
101.86313 78.910202 5.987082
102.03263 79.390343 3.9948943
101.67329 79.938461 9.5540953
102.45536 80.273079 1.9693519
102.16605 80.583389 7.60883
102.54003 80.425926 -1.136819
101.679 81.359924 11.161812
102.43127 80.957008 5.2792578
102.2033 81.902641 9.2474289
102.74196 82.010193 3.5735123
102.81155 82.004517 0.88641697
102.58401 82.931099 7.1853418
102.4305 83.838127 10.799154
102.97961 84.128891 4.6964321
102.85419 84.728493 8.7788324
102.78747 85.555397 12.049585
103.33494 85.472755 2.1559989
103.29369 85.785507 6.333395
103.1475 86.667473 9.9647017
103.4576 86.516052 3.8864858
103.5534 87.630882 7.9182453
103.59284 88.743126 10.00199
-74.73275 -89.589195 13.202626
-72.850571 -88.781479 13.129632
-72.868286 -87.811096 15.033163
-71.208504 -87.693214 13.643983
-71.257271 -86.671379 15.529581
-71.633041 -85.753067 17.360634
-69.381042 -86.796478 13.538873
-69.42247 -85.785217 15.428464
-69.811287 -84.843834 17.251543
-67.536865 -85.927155 13.44367
-67.629379 -84.830261 15.302786
-68.034424 -83.859894 17.116026
-68.207542 -82.6287 18.932337
-65.771904 -84.45356 14.257888
-66.176102 -83.483093 16.070332
-66.32946 -82.282616 17.896463
-66.53804 -80.988785 19.692894
-63.992859 -83.474625 14.123606
-64.419312 -82.464844 15.922539
-64.578705 -81.251678 17.744873
-62.214516 -83.498878 12.440675
-64.777 -79.971947 19.546864
-62.360886 -82.30629 14.266085
-62.755753 -81.347717 16.084116
-62.938377 -80.092552 17.892653
-63.137932 -78.807991 19.694012
-60.536366 -81.400909 14.158233
-60.98798 -80.344589 15.941946
-61.202888 -79.03199 17.730997
-58.717018 -80.960945 13.090345
-61.421364 -77.712334 19.520935
-59.132538 -79.963593 14.894266
-61.892845 -76.620445 21.301163
-59.31868 -78.69725 16.698553
-59.541084 -77.368416 18.484133
-57.195488 -79.661598 13.53064
-57.64579 -78.602425 15.314095
-60.084995 -76.151169 20.220053
-57.864304 -77.278107 17.099697
-60.322624 -74.793556 22.002956
-55.572403 -78.470734 13.665807
-58.087517 -75.943916 18.885454
-56.036213 -77.38588 15.441341
-58.580929 -74.80954 20.651903
-56.237885 -76.08699 17.237097
-58.504929 -73.259506 22.117439
-53.937679 -77.297371 13.807533
-56.470215 -74.734085 19.017561
-54.398254 -76.215408 15.585083
-57.005878 -73.524162 20.759218
-52.263695 -77.207283 12.425513
-54.658619 -74.812088 17.345663
-57.562859 -71.736137 23.088366
-52.488037 -75.864746 14.202505
-54.897484 -73.444206 19.122429
-56.077095 -71.977348 21.720427
-52.938347 -74.797829 15.987173
-53.162319 -73.453606 17.770302
-54.358521 -71.954575 20.354683
-50.714523 -74.862534 14.060968
-55.146042 -70.429962 22.683632
-51.229706 -73.680054 15.805799
-52.615814 -71.975609 19.004948
-53.413586 -70.430061 21.324247
-51.076542 -72.252228 17.308147
-54.254112 -68.810394 23.624624
-49.010017 -73.738235 13.876463
-49.512737 -72.574257 15.628688
-51.720898 -70.362686 19.942648
-52.529495 -68.795296 22.258451
-50.146942 -70.69989 18.264668
-49.225243 -70.767387 17.437338
-51.458359 -68.510063 21.744923
-47.17049 -72.782516 13.40685
-50.007698 -69.787376 19.168411
-47.908051 -71.879547 15.15828
-52.270332 -67.480415 23.46661
-49.474899 -68.274261 20.395847
-46.990257 -70.303001 16.104351
-51.345657 -65.907303 24.426535
-45.20768 -71.97654 12.645093
-47.760612 -69.340981 17.840502
-49.995445 -67.074883 22.149574
-45.933529 -71.091949 14.402956
-47.596241 -67.921547 19.352358
-49.496861 -65.495163 23.360498
-48.136757 -66.683708 21.091801
-45.001984 -69.535896 15.355936
-45.786209 -68.546295 17.082373
-50.038616 -64.25563 25.107632
-43.858772 -70.414093 13.341186
-45.602966 -67.157143 18.604517
-47.646301 -65.08696 22.296049
-48.163052 -63.888569 24.05588
-46.168385 -65.871254 20.32733
-42.871063 -68.955116 14.32759
-43.662819 -67.948868 16.047503
-43.540565 -66.447266 17.530142
-45.658798 -64.304192 21.541416
-44.322571 -65.458366 19.262402
-47.263718 -62.257729 25.000076
-46.18634 -63.083244 23.293488
-40.673298 -68.426483 12.972532
-41.440163 -67.461655 14.70592
-41.674786 -66.073853 16.479889
-43.783123 -63.941921 20.492657
-42.211609 -64.832024 18.21611
-44.344307 -62.65728 22.222181
-45.30127 -61.422653 24.227552
-39.185493 -67.033058 13.385052
-45.852531 -60.155754 25.971127
-39.98653 -66.003632 15.09768
-41.691578 -63.276936 19.43257
-40.23933 -64.578911 16.861109
-42.479988 -62.27227 21.164923
-43.457279 -60.997349 23.155544
-43.982956 -59.773148 24.91234
-37.898586 -65.340607 14.039605
-39.704063 -63.049126 18.084759
-38.40358 -64.15007 15.791238
-41.573631 -60.644646 22.108103
-43.946045 -58.101677 26.359587
-40.250935 -61.782841 19.818138
-42.151562 -59.322567 23.831144
-35.784454 -64.725075 12.998097
-37.863361 -62.626423 17.016134
-36.562881 -63.730736 14.724836
-39.763893 -60.158401 21.01606
-42.071068 -57.726273 25.302097
-38.396252 -61.382336 18.756077
-40.315475 -58.880768 22.753044
-36.029953 -62.190811 15.943259
-41.976048 -56.152966 26.784557
-37.912762 -59.748295 19.949713
-34.453087 -63.104507 13.679041
-36.546448 -60.973618 17.69149
-40.238445 -57.274403 24.219604
-38.451263 -58.491104 21.692577
-40.151379 -55.68288 25.695049
-33.924683 -61.552246 14.892435
-36.076752 -59.310753 18.874285
-38.37635 -56.877136 23.155323
-34.752911 -60.461895 16.591717
-36.618412 -58.044636 20.613148
-40.008953 -54.189838 27.206596
-38.247543 -55.358902 24.653797
-31.972431 -61.264294 13.525199
-34.221386 -58.909603 17.811338
-36.486828 -56.531521 22.108522
-32.503006 -60.014107 15.260012
-34.771389 -57.624714 19.542828
-37.962959 -54.125465 26.249004
-36.26664 -55.179413 23.660789
-32.362598 -58.515759 16.751091
-34.531445 -56.309345 21.103439
-30.401169 -59.928619 13.615864
-32.830841 -57.379517 18.531851
-35.954273 -54.070339 25.641438
-30.899181 -58.735271 15.371901
-34.239861 -55.162949 23.068552
-32.544064 -56.224888 20.491148
-30.602192 -57.525585 16.962807
-28.517689 -59.587009 12.575624
-33.846912 -54.20451 25.096876
-30.885132 -56.733406 18.860386
-34.17836 -53.322235 26.97155
-28.936447 -58.539474 14.380677
-32.142296 -55.284401 22.523109
-30.511208 -55.741783 20.87352
-28.564144 -57.546474 16.39035
-31.806583 -54.220036 24.514421
-28.854101 -56.740402 18.281403
-26.626432 -58.849487 12.873902
-32.258972 -53.109718 26.31275
-26.907915 -58.059059 14.76726
-30.196602 -54.638275 22.849987
-28.523979 -55.667068 20.265314
-26.566208 -57.008804 16.755955
-29.911098 -53.402782 24.438816
-26.938736 -56.045166 18.592707
-31.188332 -51.760429 27.356552
-24.87351 -58.006279 13.826591
-28.238422 -54.432117 21.850998
-29.65987 -52.100445 26.007914
-26.64724 -54.820839 20.180019
-24.623175 -56.782448 15.754372
-28.000484 -53.104626 23.408289
-25.010626 -55.788704 17.579781
-22.920584 -57.802658 12.834691
-29.477608 -50.66552 27.53648
-26.412735 -53.48629 21.732685
-27.769407 -51.762039 24.963133
-24.771805 -54.462379 19.131676
-22.617407 -56.600433 14.423224
-23.038269 -55.540794 16.224899
-26.217085 -52.075562 23.262806
-27.6096 -50.281605 26.475834
-24.533134 -53.133759 20.685411
-20.801712 -56.703804 12.753917
-22.807961 -54.195908 17.769287
-25.99189 -50.718422 24.813461
-20.955421 -55.427795 14.571222
-24.321075 -51.751587 22.223942
-21.367577 -54.382233 16.378681
-22.568314 -52.866631 19.32156
-26.603695 -48.80109 27.478598
-24.13608 -50.314865 23.7474
-25.008785 -49.194469 25.800081
-21.107246 -53.091858 17.942455
-22.36186 -51.471344 20.854506
-19.168495 -54.413834 14.428387
-19.582001 -53.362984 16.234524
-20.906433 -51.684509 19.469378
-22.124365 -50.133194 22.409216
-23.124557 -48.843391 24.750414
-24.028561 -47.660526 26.78553
-19.383003 -51.950768 17.75774
-20.714523 -50.256775 20.992601
-17.677624 -52.984104 14.834618
-21.1633 -48.562225 23.378294
-19.181843 -50.539623 19.284365
-22.178839 -47.240265 25.712437
-17.440805 -51.642693 16.380802
-19.723278 -48.743801 21.979309
-21.984289 -45.811562 27.246807
-17.227863 -50.251751 17.913015
-15.781639 -51.520988 14.976251
-20.168125 -47.052883 24.369755
-18.201277 -49.005272 20.262192
-18.755505 -47.180302 22.951471
-15.538185 -50.188087 16.526722
-20.021252 -45.528316 25.871466
-16.226364 -48.756172 18.902697
-17.202148 -47.502586 21.252563
-18.561436 -45.746433 24.480841
-19.880348 -43.988808 27.371977
-14.538359 -48.687828 17.513634
-17.019295 -46.045601 22.772121
-18.415413 -44.215355 25.981939
-15.250341 -47.205826 19.876183
-16.833052 -44.591919 24.295925
-13.723301 -47.481007 18.163975
-15.711052 -45.47316 22.251665
-12.504055 -48.475697 15.821844
-17.726807 -42.254787 27.526703
-11.897482 -47.021416 17.079952
-13.890232 -44.99752 21.160915
-15.501341 -42.90107 24.975536
-12.337118 -45.904938 18.87355
-14.358887 -43.824497 22.942375
-15.752399 -41.408089 26.749819
-11.772118 -44.362167 20.107553
-12.499045 -43.424095 21.875603
-13.374063 -42.276531 23.924486
-10.377684 -45.041313 18.090862
-13.864723 -41.056465 25.69669
-11.535425 -41.831169 22.842192
-9.814332 -43.490784 19.322233
-13.719929 -39.506474 27.198107
-8.5558052 -44.570671 17.002369
-10.536764 -42.558846 21.092403
-12.031418 -40.596916 24.608988
-7.9924278 -43.0168 18.231836
-11.883075 -39.050346 26.110628
-9.5537081 -41.000576 22.070312
-8.4389896 -41.878082 20.023426
-10.038454 -39.785339 23.843153
-5.9983196 -42.216385 17.469805
-9.8853874 -38.243473 25.3461
-7.4773598 -40.272411 20.985226
-8.2186117 -39.298103 22.746452
-6.4775028 -41.007828 19.23826
-9.7323513 -36.698441 26.851656
-8.0549793 -37.774185 24.254345
-4.6168995 -40.609367 18.172123
-5.5121431 -39.405228 20.201006
-6.2262478 -38.483307 21.979332
-7.9121695 -36.204254 25.751091
-6.1061049 -36.865402 23.456741
-3.6858292 -38.933235 19.109737
-7.7325554 -34.706268 27.274443
-4.1420918 -37.765327 20.896976
-5.8901911 -35.440742 25.000063
-3.9761305 -36.236816 22.40271
-5.7597628 -33.837402 26.489624
-2.3346729 -37.25087 19.7911
-3.8109789 -34.703354 23.910389
-2.1707191 -35.71434 21.293484
-3.6422701 -33.173973 25.422956
-0.60390282 -36.073441 19.598555
-1.9823523 -34.225613 22.814932
-0.43680954 -34.538456 21.102438
-3.1208725 -31.498547 26.634222
-1.8222313 -32.674332 24.319628
-0.26545906 -33.009056 22.611729
1.5044727 -34.204498 19.70714
-1.2602682 -31.079342 25.555649
0.28513432 -31.388958 23.837305
1.684371 -32.689175 21.219725
-0.71840286 -29.437462 26.779795
3.078783 -32.781265 19.782354
0.83485699 -29.762028 25.063864
2.273241 -31.14658 22.468927
3.660491 -31.221638 21.0245
1.3988657 -28.160461 26.301563
2.8088198 -29.485977 23.683123
4.2171707 -29.603861 22.250751
5.4695568 -30.697401 19.913088
1.9347115 -26.494246 27.521967
3.3701649 -27.875351 24.916588
4.7699728 -27.973183 23.476009
6.0424128 -29.11055 21.148623
3.8933735 -26.178015 26.125757
5.3337831 -26.360783 24.710253
6.5654917 -27.411945 22.351313
5.5049286 -24.805216 26.224926
7.1558447 -25.852661 23.601812
8.4176998 -26.971994 21.265417
6.0243053 -23.087564 27.432707
7.2874832 -24.20702 25.087273
8.9845333 -25.358332 22.497702
7.8548803 -22.589054 26.325588
9.1359053 -23.751286 23.994442
10.901189 -24.954239 21.074348
9.6933479 -22.10721 25.223698
11.09639 -23.438465 22.598927
9.5698051 -20.710236 26.705128
12.75831 -23.291765 21.167471
11.60758 -21.689156 23.793489
11.407226 -20.222122 25.600471
13.298285 -21.602163 22.379377
11.299566 -18.853888 27.093452
13.098164 -20.132717 24.183825
15.103804 -21.047831 21.254509
12.984787 -18.748806 25.670364
14.926178 -19.624088 23.072945
12.887199 -17.397701 27.170427
14.818803 -18.249508 24.561569
16.555849 -19.399786 21.614088
13.914087 -16.353117 27.199282
15.345799 -16.513514 25.76874
16.869007 -18.021009 22.840168
17.036266 -16.418617 24.347782
15.498464 -14.877767 27.271587
18.538988 -17.259985 21.99753
16.923309 -15.022577 25.835018
18.710152 -15.661653 23.506439
17.469641 -13.317122 27.057024
18.618174 -14.308799 25.007086
20.522766 -15.108232 22.379511
19.162237 -12.593204 26.225691
20.408567 -13.700857 23.862476
19.677067 -10.804849 27.425386
20.966225 -12.010894 25.088417
22.227844 -13.15692 22.737728
21.512852 -10.289813 26.308081
22.777874 -11.444724 23.955957
22.049906 -8.5408745 27.522697
23.315998 -9.6990433 25.167233
24.460819 -10.69294 23.11517
23.865881 -7.9749584 26.388796
25.001869 -8.9486303 24.326754
25.525118 -7.1565723 25.527145
26.80266 -8.348959 23.182589
25.689926 -5.5073767 27.037588
27.366484 -6.6467972 24.410061
28.598 -7.0938883 22.623322
27.520584 -4.9670115 25.910286
29.184093 -5.4369698 23.865732
27.40597 -3.5284271 27.400139
29.335979 -3.7454023 25.363186
30.84396 -4.6110382 23.000639
29.21727 -2.2908163 26.849033
31.014061 -2.9568348 24.50968
30.908436 -1.5290556 26.003731
32.804626 -2.3146677 23.349939
31.154648 0.070306778 27.185869
32.719635 -0.9317255 24.857269
34.471989 -1.4952745 22.486179
32.85553 0.81677914 26.344755
34.38549 -0.10400772 23.991095
34.550091 1.5814466 25.49781
36.074234 0.6717968 23.140516
34.678513 3.3587351 26.980888
36.217075 2.4155579 24.629354
37.728683 1.5338326 22.262966
36.380936 4.1129799 26.13666
37.883099 3.2557755 23.758604
38.068138 4.9065599 25.280167
39.721031 3.8019562 22.625643
37.961235 6.3659344 26.77557
39.972198 5.4218693 23.803635
39.887215 6.8320026 25.312971
41.655754 6.2305107 22.941675
39.777924 8.3042603 26.807066
41.543926 7.7117262 24.42952
41.463882 9.1166115 25.944139
43.258759 7.7818222 22.998653
43.139023 9.2896948 24.480389
42.515549 10.870566 26.562054
44.796299 10.178276 23.593472
44.329086 11.502313 25.39975
46.063034 10.315619 22.404869
46.011852 11.660579 23.938791
45.248322 13.473993 26.307436
47.650864 11.929811 22.444347
46.66053 13.381525 24.832014
46.832451 15.109953 26.345449
48.598499 13.838543 23.367725
48.484581 15.354923 24.855453
47.514481 16.758286 27.266918
50.383087 14.555849 22.177853
49.166687 17.007601 25.774212
50.290974 16.02169 23.68041
49.763336 18.750238 27.02327
50.961697 17.709698 24.588024
52.255219 16.418526 22.232748
51.64817 19.363398 25.508684
52.877151 18.239771 23.098774
54.529816 18.490578 21.605049
52.316643 21.071669 26.415934
53.572243 19.877304 24.023287
55.199387 20.19956 22.506708
52.983688 22.790197 27.323023
54.221119 21.642872 24.912209
55.874641 21.900932 23.413513
56.848858 21.158123 21.595835
54.888111 23.368397 25.816113
56.534515 23.650019 24.308977
57.451679 23.060101 22.442379
55.49308 25.266014 26.672274
57.205284 25.37805 25.213736
58.14645 24.72456 23.363522
59.195503 23.925928 21.203316
57.446373 27.125015 26.383698
58.799049 26.508688 24.251873
59.790932 25.717453 22.441847
60.827942 24.950302 20.271118
59.06044 28.20941 25.435978
60.400951 27.625462 23.293291
58.600468 29.563778 27.262129
61.491322 26.714329 21.162273
62.793945 26.936327 19.581249
60.668198 29.317785 24.480303
62.121056 28.577501 22.026802
60.219269 30.647139 26.314781
63.582985 28.415503 17.973684
60.348911 32.722065 27.397812
63.376404 30.557426 18.574236
64.534943 29.458645 16.49568
62.648769 31.641178 20.392948
61.817642 32.854874 22.533848
61.382462 34.304375 23.982075
65.154709 31.373257 17.344063
60.934044 35.638496 25.82609
66.283035 30.35421 15.240849
63.293785 33.488411 21.269405
64.408554 32.511395 19.146496
60.21212 36.854607 27.262171
62.883755 34.873386 22.736273
62.393112 36.327789 24.544758
66.96302 32.110558 16.137077
65.133842 34.144447 20.086697
66.26709 33.113041 17.980394
61.966614 37.759766 26.005737
64.760422 35.434055 21.581348
63.982941 36.659271 23.368027
66.993546 34.748718 18.919151
68.115372 33.74519 16.804804
63.923 38.110195 24.910686
69.376297 33.227894 14.99338
66.623703 36.032902 20.414862
63.505928 39.522705 26.379932
65.882141 37.163059 22.229046
65.498108 38.486912 23.719702
68.789421 35.534103 17.696611
70.085655 34.919075 15.912185
68.340889 36.886688 19.530226
65.397987 40.056816 25.230335
67.565529 38.115383 21.315393
67.522476 39.529575 22.868412
70.038986 37.070637 18.039635
65.722717 41.639236 26.47032
71.381073 36.486015 15.885306
67.159073 40.802734 24.377607
69.592918 38.420551 19.876492
69.123154 39.837158 21.697388
71.72551 38.016953 17.126221
72.956566 36.854935 14.698108
68.754417 41.129471 23.199928
67.448784 42.489723 25.587021
71.265068 39.412689 18.949806
67.379692 43.984505 27.126873
70.804214 40.8097 20.777113
73.291138 38.419281 15.928056
69.085075 42.70517 24.440699
72.825424 39.83392 17.745199
70.750969 42.264603 22.320946
68.990288 44.277584 25.956831
72.411285 41.101414 19.610374
74.932854 38.767715 14.386977
70.665451 43.814255 23.840582
74.505814 40.076035 16.235191
72.338715 42.615932 21.135492
73.527412 41.577423 18.658503
69.516869 45.628971 26.549757
73.503082 42.956608 20.223606
75.232002 41.75396 17.166754
72.404289 44.637856 22.964031
71.122047 45.941353 25.373323
76.553604 41.229771 14.98819
75.158936 43.278702 18.687128
73.800728 44.643967 21.430323
72.694016 46.349941 24.168951
71.410789 47.65612 26.582182
76.881874 42.831924 16.212425
75.48262 44.895817 19.913319
74.110046 46.302696 22.649046
72.999321 48.021973 25.389124
76.842308 44.264786 17.760895
72.102043 49.453541 27.49869
78.404694 43.375069 14.968983
75.787155 46.574188 21.124855
74.424644 47.952248 23.873936
77.157906 45.912712 18.978245
78.376663 44.778801 16.525831
73.709206 49.77142 26.318371
76.113235 48.194744 22.356768
79.960648 44.571129 14.3376
75.13575 49.700695 24.801577
77.495972 47.500252 20.216753
78.685272 46.452843 17.734709
74.005859 51.480877 27.534613
79.906654 46.057152 15.870825
76.798172 50.026173 23.258879
75.440598 51.390785 26.02149
77.79879 49.196098 21.426785
79.014221 48.072586 18.963112
81.562065 45.813133 13.331402
80.230568 47.694138 17.091688
81.55014 47.180161 14.901464
77.134537 51.628014 24.502819
79.344856 49.692192 20.194935
76.142464 53.181725 26.94323
78.52066 50.926895 22.358238
80.573532 49.279442 18.331318
82.893005 47.349724 13.317347
81.88176 48.801956 16.127419
77.828133 53.449471 25.414331
78.829865 52.616241 23.577017
80.056587 51.458927 21.115046
83.19294 49.070972 14.512027
81.274231 51.081371 19.238556
82.214066 50.426315 17.355961
80.35215 53.195168 22.319551
78.541901 55.219212 26.343739
79.515877 54.468681 24.47958
83.561249 50.591431 15.770496
81.604721 52.715374 20.470297
82.937683 52.168564 18.2812
84.896393 50.211105 13.174757
81.057396 54.996773 23.235956
80.207184 56.314243 25.38743
84.224808 52.52034 16.638895
82.318565 54.493366 21.390963
85.260658 51.751057 14.427838
83.262047 53.829369 19.505491
79.872162 57.551331 26.930794
86.369484 51.703255 12.452909
81.768684 56.788933 24.158293
84.571388 54.118721 17.880608
83.011734 56.341949 22.294241
81.41069 58.099384 25.680222
85.953911 53.600456 15.319855
83.933662 55.744301 20.386431
87.104599 53.428726 13.380117
81.342926 59.65591 27.223782
85.259445 55.989506 18.772999
83.302353 58.116726 23.495382
86.328339 55.121227 16.5849
84.651627 57.527813 21.309059
82.85936 59.51099 25.356831
87.455757 55.023121 14.621415
85.990799 57.737137 19.704733
87.025467 56.974335 17.48226
84.983765 59.184601 22.544788
83.181007 61.199684 26.590326
88.167175 56.836163 15.528578
84.655739 60.413536 24.091812
89.021103 56.445312 13.560008
86.313171 59.428577 20.929169
87.722366 58.837265 18.380053
84.962814 62.154949 25.310162
86.287727 60.87072 22.502674
88.951706 58.616653 16.085703
90.291107 57.648712 12.472536
88.051613 60.515816 19.608374
84.9105 63.681999 26.867504
86.625214 62.525009 23.744776
90.33625 58.878517 14.100685
89.223328 60.292072 17.675541
88.044197 61.908871 21.196667
86.25856 63.880981 25.26136
90.331497 60.266209 15.684542
89.591644 61.856983 18.938351
86.229805 65.341698 26.839851
91.715965 59.940834 12.691988
88.361397 63.634254 22.418482
90.6782 61.90287 16.924788
88.022552 64.909973 23.958345
89.527641 63.432903 20.475189
91.721306 61.302101 14.284548
87.695671 66.14817 25.511934
91.062378 63.426876 18.201174
87.373947 67.371231 27.0728
89.885651 65.03978 21.732492
91.985764 63.014984 15.866436
89.563812 66.26738 23.287483
90.998116 65.010704 19.737568
93.128014 63.081551 13.479874
89.247177 67.478928 24.84996
92.336517 64.651443 17.110748
88.810959 68.876617 26.726856
91.32473 66.725273 20.965513
93.408768 64.752472 15.076588
92.299576 66.155807 18.671442
90.987457 68.006516 22.507284
94.448242 64.960129 13.009554
90.606354 69.235535 24.431114
93.757515 66.40493 16.318184
90.197227 70.552773 26.333309
93.021049 67.994667 19.58914
94.669189 66.831284 14.5502
92.61705 69.300156 21.489275
94.087105 68.124092 17.543758
92.205879 70.629158 23.386204
95.864883 67.539124 12.787363
93.864639 69.842987 19.778051
91.812035 71.902962 25.302305
95.4655 68.639297 15.108997
93.857567 71.265541 21.372417
91.764313 73.453201 26.867901
95.474228 70.013458 16.712877
93.487358 72.467216 23.30871
96.546432 69.528748 13.657105
95.177124 70.981995 18.712543
93.173187 73.685974 24.87829
96.527054 70.997894 15.23395
95.149551 72.475327 20.287706
96.2313 71.963631 17.23608
93.13739 75.205505 26.454943
94.779327 73.681305 22.224468
97.458221 71.380692 13.473281
96.232933 73.368401 18.837603
94.77607 75.100014 23.827467
97.313736 72.861893 15.781818
95.869278 74.554871 20.781061
94.425613 76.441589 25.36694
97.314545 74.273529 17.38205
98.201248 73.3936 13.976044
96.22332 76.22538 22.036535
97.337692 75.614746 19.005707
94.746147 78.221184 26.598755
98.199387 74.817596 15.572849
95.913643 77.439629 23.612427
95.848846 78.258621 24.569395
98.415344 75.935883 16.52807
97.417 77.788109 20.85112
99.173141 76.906158 14.592201
98.74469 77.702057 17.754982
97.347328 79.236244 22.818432
96.707283 80.115501 24.770954
96.060966 81.013832 26.720102
98.297691 79.577309 21.066948
100.25066 77.852791 13.117719
99.071388 79.482643 18.981586
99.740784 78.915878 16.206543
98.131966 81.347481 22.947332
97.527893 82.10817 24.936586
100.59026 79.598824 14.351077
99.045013 81.819809 21.156569
99.935005 80.937492 17.73243
98.876907 83.39772 23.463043
100.79401 81.59584 15.883766
99.893341 82.511703 19.301317
101.33455 81.254929 13.404576
99.781769 83.905731 21.660564
100.78369 83.070053 17.481407
101.50652 83.36692 14.906691
101.94427 83.162567 12.752432
100.73067 84.479668 19.469038
101.54779 84.673523 16.555277
100.59882 86.155602 21.38517
102.13541 85.220421 14.273618
101.49458 86.089249 18.544302
102.18214 86.514145 15.929132
102.21453 87.858574 17.572798
102.88297 87.521782 14.341676
-38.332748 -53.174339 28.105255
-37.482609 -52.274334 29.900461
-36.251808 -53.252075 27.539127
-35.480961 -52.207012 29.285913
-35.152546 -51.050785 30.90905
-33.530842 -52.048145 28.642662
-34.118484 -49.628387 31.934649
-33.040623 -50.476582 30.220072
-30.967926 -50.398094 28.910837
-33.11198 -48.150417 32.944347
-32.015896 -49.034695 31.238953
-29.975227 -48.894577 29.908607
-31.054447 -47.468998 32.220402
-28.498268 -49.13649 28.524439
-30.916267 -45.943527 33.732605
-29.011463 -47.331509 30.889448
-27.544495 -47.553894 29.49728
-28.842199 -45.862179 32.417458
-29.022396 -44.452343 33.879765
-27.37748 -46.07888 31.021471
-25.639479 -47.236397 28.456186
-27.278326 -44.470341 32.507053
-25.463572 -45.775414 29.983673
-27.125017 -42.962765 34.028057
-23.89822 -46.110279 28.281742
-25.346685 -44.197792 31.477581
-27.313564 -41.529202 35.488228
-23.712906 -44.663536 29.814598
-25.214613 -42.646114 32.98344
-23.588261 -43.096058 31.312504
-25.385862 -41.242664 34.451542
-21.862843 -44.23756 28.737757
-25.534527 -39.880848 35.936089
-23.477724 -41.497749 32.804581
-21.70756 -42.726303 30.252439
-23.64583 -40.095581 34.273964
-21.5821 -41.153252 31.751268
-23.826982 -38.665962 35.73851
-19.715399 -42.493027 28.890028
-21.746494 -39.754795 33.220554
-22.697342 -38.472763 35.247746
-19.157715 -40.35503 30.731524
-22.203648 -36.783474 36.463066
-17.576458 -40.724167 29.035608
-19.324913 -38.946163 32.196884
-20.569241 -37.248127 34.78775
-17.442278 -39.157959 30.536886
-18.814224 -37.286983 33.41671
-20.0581 -35.586609 36.012203
-15.5795 -39.917618 28.271408
-17.320927 -37.562817 32.03286
-18.285994 -35.657158 34.648869
-15.441654 -38.354038 29.773327
-19.543438 -33.927299 37.240585
-16.760586 -35.996201 33.282459
-15.292089 -36.810509 31.285181
-17.773132 -33.992111 35.873516
-13.584476 -37.934467 28.696295
-16.280592 -34.264408 34.484142
-14.788027 -35.126717 32.49807
-13.446377 -36.364258 30.19878
-17.296593 -32.249184 37.077766
-11.736172 -37.497299 27.613857
-15.773098 -32.581852 35.704502
-14.291542 -33.422382 33.708008
-12.915304 -34.731056 31.426414
-11.587307 -35.94537 29.121147
-15.29945 -30.825836 36.905972
-13.760376 -31.782829 34.941299
-12.385412 -33.090286 32.654968
-11.037136 -34.347076 30.358723
-9.5868101 -35.13488 28.35507
-14.781248 -29.154528 38.136639
-13.252515 -30.09074 36.161808
-11.866157 -31.42318 33.878567
-10.531217 -32.654186 31.569942
-9.0403433 -33.524441 29.588636
-12.775391 -28.330795 37.365356
-11.351646 -29.741043 35.100933
-9.9984579 -31.010849 32.79985
-8.5264416 -31.842688 30.803001
-7.1950645 -33.074112 28.500183
-12.297678 -26.566256 38.571201
-10.864222 -27.998075 36.308247
-9.465518 -29.3624 34.031479
-8.0024767 -30.176174 32.02557
-6.6705542 -31.41024 29.719246
-5.2362423 -32.170998 27.704441
-10.367988 -26.267399 37.522953
-8.9880934 -27.594826 35.230103
-7.4880838 -28.484627 33.24371
-6.1635418 -29.704451 30.928562
-10.560333 -24.768295 38.985664
-4.6706858 -30.58699 28.94849
-8.510891 -25.820625 36.430462
-6.967392 -26.800877 34.467724
-5.6133032 -28.083519 32.167534
-4.1435184 -28.917841 30.168962
-8.6733189 -24.379217 37.90942
-2.5595865 -29.900688 27.873268
-6.4983854 -25.004044 35.6609
-5.1166801 -26.345207 33.373787
-3.609643 -27.257797 31.39558
-2.0472383 -28.195732 29.081861
-6.641614 -23.597668 37.150043
-4.5927296 -24.658884 34.599365
-6.8263998 -22.102127 38.616203
-3.1246347 -25.490036 32.592453
-1.4900904 -26.579597 30.321486
-0.17273331 -27.79855 28.008146
-4.7656779 -23.186274 36.067345
-4.9197259 -21.751163 37.550404
-2.5972948 -23.804989 33.818291
-1.3807898 -24.904457 31.806406
0.33899498 -26.082436 29.215651
-5.1118674 -20.234009 39.012791
-2.7718744 -22.323757 35.283554
-0.85340023 -23.215313 33.030457
0.48237038 -24.474972 30.720507
-2.9151869 -20.906662 36.771793
2.1020489 -24.935991 29.039232
-1.0109358 -21.76622 34.504879
-3.0925436 -19.415024 38.241547
-3.9540825 -18.172743 39.965427
1.0098515 -22.782284 31.942408
-1.1584787 -20.335918 35.988617
3.7914171 -24.843914 27.623394
2.615139 -23.211027 30.248388
0.86671925 -21.359459 33.423782
-1.3713636 -18.764362 37.433983
-2.2044067 -17.578455 39.174088
0.69253826 -19.868034 34.88802
4.3106546 -23.128956 28.83391
2.7224302 -21.515938 31.731012
0.53110695 -18.401659 36.363689
4.1627998 -21.690359 30.305883
2.5776167 -20.084175 33.210842
-0.31237888 -17.189289 38.094719
-1.1513023 -15.987801 39.832985
2.376709 -18.530064 34.657398
5.9070921 -21.71199 28.922428
4.3032837 -20.060287 31.810492
1.5590501 -16.757198 37.002872
0.73067856 -15.57387 38.745434
5.7634926 -20.277582 30.397356
4.1710787 -18.650509 33.298702
7.7526183 -21.242105 27.823429
3.3140359 -16.787811 35.614079
5.9124141 -18.659653 31.907383
1.2211399 -13.775824 39.956921
2.5895987 -15.111187 37.643597
7.6177397 -19.822517 29.302031
5.2182283 -17.044193 33.945614
4.3557878 -15.164223 36.259876
7.7629013 -18.192097 30.807222
3.0827188 -13.313573 38.854172
6.9565883 -17.044909 32.550159
9.4662056 -19.354721 28.202829
