# .PCD v0.7 - Point Cloud Data file format
VERSION 0.7
FIELDS x y z
SIZE 4 4 4
TYPE F F F
COUNT 1 1 1
WIDTH 1515
HEIGHT 1
VIEWPOINT 0 0 0 1 0 0 0
POINTS 1515
DATA ascii
132.56866 -49.621181 -61.863209
132.59229 -45.462673 -59.68531
132.59668 -43.386711 -58.585457
132.76764 -40.882412 -57.264725
134.27278 -42.206043 -57.914455
134.44753 -44.809341 -59.194649
134.45085 -48.917496 -61.401066
134.46611 -50.938339 -62.509304
134.50969 -46.76062 -60.344719
134.94281 -40.516853 -57.045036
135.82544 -43.442551 -58.599792
136.33394 -50.26366 -62.036278
136.34239 -52.288818 -63.14011
136.37003 -48.155231 -60.96209
136.3932 -46.062683 -59.874706
136.85387 -41.847996 -57.697666
136.91353 -39.672302 -56.6255
137.90152 -44.348419 -59.034637
138.22812 -51.587635 -62.680267
138.25993 -49.494904 -61.602043
138.31189 -47.360115 -60.535194
138.77756 -41.090664 -57.243446
139.38109 -45.707287 -59.666889
139.569 -43.20002 -58.349968
140.15005 -50.830727 -62.242725
140.19081 -48.72369 -61.166813
140.69725 -40.346813 -56.781685
141.05547 -44.551514 -58.98772
141.22112 -42.083214 -57.648697
141.26492 -47.069859 -60.301456
142.06111 -50.099037 -61.792393
142.41969 -52.212154 -62.868721
142.79391 -48.336201 -60.970917
142.92261 -40.885849 -56.977833
142.9268 -45.941601 -59.612869
143.01711 -43.739967 -58.559952
144.07828 -50.143269 -61.801537
144.41017 -42.245068 -57.617092
144.43629 -47.246155 -60.268276
144.84782 -45.204716 -59.155403
144.90172 -40.052227 -56.551956
144.97693 -51.903637 -62.643394
145.75555 -48.997669 -61.125973
145.9409 -43.526634 -58.287853
146.35246 -46.521065 -59.807625
146.36176 -41.462952 -57.171696
146.69861 -50.685814 -62.002457
147.40779 -39.864674 -56.259579
147.50383 -44.750183 -58.982067
147.68536 -48.251972 -60.676788
147.89319 -42.74733 -57.843189
148.04106 -52.384987 -62.877125
148.37117 -46.580631 -59.808086
148.60796 -49.976376 -61.540493
149.02135 -41.014679 -56.989853
149.34868 -44.157413 -58.460491
149.78831 -48.042179 -60.397961
149.97339 -51.639698 -62.433144
150.31703 -45.817524 -59.36129
150.49934 -42.393124 -57.623516
150.82962 -49.566269 -61.349285
151.39362 -44.184246 -58.473312
151.41702 -53.039642 -63.042561
151.54886 -40.801311 -56.708797
151.85544 -47.078045 -60.038773
152.30959 -50.91309 -61.985016
152.72141 -48.899174 -60.866001
152.89781 -45.508465 -59.126431
152.90384 -42.516758 -57.599133
153.27956 -39.587105 -56.037483
153.45067 -53.073383 -63.058117
153.85934 -47.174263 -60.02401
154.21423 -50.227543 -61.511494
154.3792 -43.896366 -58.231953
154.63751 -41.302666 -56.931263
155.14952 -51.920948 -62.388134
155.30948 -45.619457 -59.109531
155.31677 -48.568157 -60.644375
156.07454 -53.624825 -63.257046
156.14427 -42.634151 -57.58672
156.26372 -50.247421 -61.531258
156.80429 -46.956894 -59.756813
156.99431 -40.568371 -56.465534
157.10919 -44.302628 -58.491032
157.14935 -52.0215 -62.374134
157.73351 -48.669918 -60.633442
158.14948 -42.746807 -57.562523
158.54117 -45.750221 -59.094265
158.67232 -50.36129 -61.516396
159.01311 -40.664795 -56.446991
159.45248 -47.49646 -59.960457
159.60548 -52.05587 -62.394806
159.6469 -44.091122 -58.212143
160.35817 -42.397842 -57.334618
160.40356 -49.170868 -60.854149
160.60658 -45.762501 -59.114349
161.32838 -50.882309 -61.728901
161.46162 -47.600643 -59.942558
161.68573 -52.965862 -62.829876
161.74754 -44.05088 -58.253254
162.1322 -41.139591 -56.681553
162.60432 -45.891529 -59.084991
162.74361 -54.193752 -63.114895
162.75089 -52.323517 -62.326694
162.75262 -48.460857 -60.391201
162.77028 -42.535622 -57.304321
163.14902 -50.359547 -61.182899
163.65732 -47.70153 -58.739948
163.67328 -41.779854 -55.640022
163.75029 -44.607002 -57.252438
51.28006 -43.882881 -44.162426
51.753124 -43.477676 -46.220211
52.583286 -43.954224 -40.365685
52.603264 -44.07626 -35.799263
52.997673 -42.937725 -47.963886
53.015343 -43.640144 -42.380295
53.420795 -43.752148 -37.810936
53.4702 -43.278679 -44.41848
53.924263 -43.774158 -33.666351
54.428585 -43.393913 -40.974781
54.687576 -42.803062 -46.13335
54.695648 -43.552277 -35.63504
54.90329 -42.993423 -43.027248
55.306541 -43.229374 -38.778778
55.927544 -42.285034 -47.870014
56.167145 -43.178181 -34.280148
56.437344 -42.664524 -44.68351
56.446815 -43.0443 -40.745827
56.55191 -43.095844 -36.573269
57.322105 -42.886353 -38.545151
57.338333 -42.578556 -42.828148
57.721748 -42.057873 -46.454144
57.959034 -42.864201 -35.160732
58.470322 -42.56815 -40.187878
59.104855 -42.67408 -37.125099
59.554077 -40.74065 -47.377842
59.932781 -42.614681 -34.886795
61.213131 -39.676758 -47.818039
61.41925 -39.700718 -41.716202
61.653011 -40.090939 -39.28513
62.699066 -40.141689 -36.237072
63.198864 -39.64127 -40.607979
63.506371 -39.872738 -38.239979
63.643246 -39.842442 -34.084995
64.741394 -39.773479 -36.007778
65.241074 -39.530941 -41.041107
65.501945 -39.733047 -38.302208
65.503998 -39.607883 -33.044495
66.544708 -39.664349 -34.918201
67.305664 -39.503105 -36.879654
52.843307 -43.846718 -31.759199
53.27179 -43.579525 -28.86536
53.738506 -41.596119 -19.156994
53.783119 -43.256454 -26.370043
53.905827 -42.705963 -23.216103
54.580833 -42.153606 -21.18355
54.684166 -43.489262 -30.400261
55.161152 -43.239513 -27.873386
55.269501 -42.840641 -25.031719
55.303528 -41.008488 -17.879513
55.389404 -43.409424 -32.308743
55.903172 -42.377621 -22.963558
56.165958 -41.525589 -19.921965
56.662079 -42.96616 -29.478426
56.713306 -42.687321 -26.586153
57.315788 -42.29174 -24.489775
57.339947 -42.949738 -31.362959
57.490887 -41.748905 -21.702337
57.739758 -40.926632 -18.647465
58.093521 -42.676811 -28.089708
58.716057 -42.238777 -26.006865
58.776878 -42.651661 -29.97681
58.848019 -42.674507 -32.97686
59.031403 -41.22496 -20.399958
59.197285 -41.732269 -22.827314
59.747448 -40.465771 -18.064852
60.128056 -42.167419 -27.534176
60.205933 -41.827995 -24.662394
60.232491 -42.491566 -31.544559
60.765522 -41.154816 -21.544043
61.191044 -42.154266 -29.418337
61.442196 -40.480114 -19.175087
61.736923 -41.333023 -23.348082
61.924061 -41.799465 -25.797056
62.620289 -41.755825 -27.691532
62.732323 -40.79348 -20.925964
63.459984 -41.299187 -24.483852
63.873337 -40.194363 -19.27368
64.38221 -39.725769 -31.107292
64.418724 -40.838165 -22.029705
65.606697 -40.144474 -20.411356
66.510994 -39.673679 -22.461802
67.819229 -39.534973 -20.632492
54.061638 -40.615643 -16.167377
55.66531 -39.944946 -14.917737
56.899132 -40.359627 -16.622431
58.863708 -39.863728 -15.678115
60.952023 -39.726357 -16.465956
63.008442 -39.665722 -17.22739
60.609627 -39.15601 -57.599293
61.803371 -39.285515 -55.637569
63.106834 -39.306248 -54.106369
63.166336 -38.420563 -57.160473
63.994846 -39.451378 -50.223045
64.439758 -38.509888 -55.597969
64.562653 -39.00753 -52.707108
65.101143 -38.938374 -58.506821
65.826805 -39.111065 -51.141888
65.995857 -38.69577 -48.629845
66.192451 -37.531254 -56.787502
66.252136 -38.283726 -54.169949
67.148361 -38.601707 -58.282814
67.550659 -38.195404 -52.296005
67.831421 -38.480778 -49.879745
67.983978 -37.356461 -55.335453
68.336632 -37.248371 -57.311138
69.229691 -37.382523 -53.410713
69.405495 -38.771526 -58.236645
69.439331 -37.814518 -50.929604
69.964485 -36.483414 -55.712093
70.815262 -37.441734 -48.786461
70.97924 -37.562527 -57.594658
71.11422 -36.586243 -53.366463
71.364334 -37.057243 -51.251808
71.847328 -35.823139 -56.000557
72.305511 -39.357948 -58.41103
72.673706 -36.951168 -49.381687
73.017197 -37.267471 -57.350849
73.074608 -35.893654 -54.051594
73.341118 -36.203331 -51.613594
73.94883 -35.654694 -56.476395
74.524467 -38.567574 -57.989372
74.646294 -36.235271 -50.069698
74.760101 -34.844971 -54.494091
75.327682 -35.340008 -51.979252
75.47374 -36.925484 -57.129765
76.135765 -34.942493 -56.014816
76.568077 -35.382946 -50.042206
76.748062 -34.416355 -53.52515
76.926613 -38.339165 -57.722385
77.679077 -36.18026 -56.683876
77.949646 -34.542725 -51.550076
77.985939 -33.998737 -55.255196
78.008469 -35.143124 -48.606392
79.02063 -33.540409 -53.125378
79.146942 -37.566879 -57.28978
79.477524 -34.130524 -50.181786
79.504501 -35.416634 -56.239807
79.756546 -33.34943 -54.75985
80.581627 -36.801083 -56.844658
81.102577 -33.3564 -50.892334
81.372559 -32.515476 -52.784248
81.447411 -34.297249 -55.552326
81.640259 -39.384632 -58.114227
82.358337 -32.750042 -54.63813
82.588776 -37.769043 -57.241611
82.611717 -32.989929 -49.501865
82.896179 -35.731068 -56.143158
83.249168 -32.208454 -51.370705
83.900398 -31.401232 -53.255127
83.90329 -33.99696 -55.308823
84.096298 -39.071918 -57.882504
84.402298 -37.044807 -56.782436
84.595184 -32.050312 -49.504757
85.202393 -32.472839 -54.386272
85.307297 -31.124968 -51.433952
85.370743 -35.39526 -55.915936
86.156242 -38.772018 -57.640404
86.535858 -30.883396 -53.485516
86.596779 -31.21089 -49.854687
86.734253 -33.748898 -55.046638
86.872551 -36.720009 -56.552151
87.378639 -30.025761 -51.502293
88.073235 -32.155178 -54.150284
88.255066 -35.042904 -55.69841
88.686104 -30.427683 -53.297104
88.885765 -29.682117 -50.093727
88.925789 -37.606968 -56.984707
89.466782 -29.030573 -51.917267
89.59346 -33.457272 -54.801491
90.219749 -31.710022 -53.959053
90.22451 -36.104115 -56.060101
90.294266 -29.536646 -48.604362
90.411072 -38.958019 -57.608387
91.148384 -28.346987 -50.643311
91.250298 -29.822563 -52.781155
91.622742 -34.408714 -55.210125
91.74054 -37.4006 -56.709198
92.294891 -31.414583 -53.705788
92.328461 -28.406336 -48.28804
92.896217 -28.552023 -52.134045
93.072662 -27.31399 -49.897888
93.089088 -39.145863 -57.559067
93.125435 -35.73851 -55.848289
93.225945 -33.222897 -54.538792
93.886383 -30.25448 -53.01696
94.094139 -37.456242 -56.709858
94.456718 -27.455442 -51.412827
94.482918 -27.175505 -48.399937
94.730789 -34.554245 -55.178745
94.809456 -32.081974 -53.845695
95.489578 -29.07762 -52.331688
95.593521 -38.782524 -57.346382
95.636765 -26.070887 -50.018665
95.715424 -36.244465 -56.055172
96.378899 -33.291958 -54.537766
96.456451 -30.822262 -53.197784
96.491287 -27.388403 -51.4533
97.13031 -25.648064 -48.239727
97.195854 -37.612206 -56.676708
97.271645 -35.164223 -55.34251
97.81472 -25.855932 -50.509083
97.882416 -29.092016 -52.343143
97.958931 -32.16861 -53.836372
98.573433 -24.518421 -49.087322
98.710487 -38.909992 -57.326256
98.784546 -36.4744 -55.990295
98.84082 -27.495228 -51.426056
98.901443 -33.947201 -54.683262
99.33918 -30.534561 -52.945446
99.945229 -25.487656 -50.277111
100.3171 -32.249825 -53.822765
100.34095 -37.696949 -56.673386
100.37 -28.803667 -52.085678
100.42384 -35.244644 -55.338646
101.32681 -27.217226 -51.162197
101.66679 -39.482754 -57.510578
101.69982 -30.619776 -52.929153
101.79904 -33.632137 -54.44614
101.8233 -24.708019 -49.814301
101.908 -36.611202 -55.964245
102.66725 -29.019461 -52.015213
103.16489 -32.041122 -53.539494
103.24129 -26.370707 -50.729027
103.24591 -38.377918 -56.812607
103.3016 -34.970131 -55.086437
104.16766 -30.379166 -52.653488
104.26346 -36.696938 -55.951748
104.53551 -28.264301 -51.547821
104.71012 -33.304344 -54.213352
104.84084 -25.233259 -50.015125
105.25546 -38.359711 -56.840542
105.68403 -35.013519 -55.090336
105.7017 -31.670469 -53.318436
106.09013 -29.524218 -52.228481
106.18432 -27.036961 -50.873684
106.61592 -36.795429 -55.934029
106.72681 -24.455572 -49.549698
107.07186 -33.395874 -54.196228
107.56475 -30.933107 -52.847584
107.73597 -28.308002 -51.552147
107.92055 -38.623402 -56.759274
108.04036 -35.113583 -55.070808
108.08746 -26.229254 -50.42308
108.92445 -32.681271 -53.718521
108.99129 -36.857956 -55.931248
109.18129 -29.777288 -52.149067
109.61047 -27.55891 -51.079731
109.71457 -25.055843 -49.721073
109.90579 -34.376019 -54.605194
109.92368 -38.629658 -56.777153
110.55133 -31.51071 -53.029469
110.84457 -36.14463 -55.458309
111.125 -28.900579 -51.730343
111.24223 -26.381908 -50.381508
111.52371 -33.225918 -53.911125
111.81383 -37.848763 -56.334961
111.86704 -24.685617 -49.487076
112.4734 -34.976845 -54.77504
112.49074 -30.645618 -52.608845
112.78983 -27.666182 -51.057655
113.39057 -32.498516 -53.437019
113.50449 -36.569225 -55.701366
113.77683 -26.058434 -50.132507
114.13437 -29.45594 -51.921417
114.34963 -34.233536 -54.310101
114.42561 -24.323578 -49.25124
114.84919 -38.321594 -56.562531
115.08566 -31.215666 -52.791313
115.13947 -27.820702 -51.011303
115.34189 -35.899761 -55.208481
115.80138 -26.06801 -50.14093
116.03259 -32.976891 -53.657391
116.51187 -29.556648 -51.897865
116.81345 -37.29364 -55.828358
116.98286 -34.724617 -54.525734
117.26226 -27.518545 -50.752407
117.46256 -31.315987 -52.769104
117.63828 -25.417353 -49.622799
117.8187 -38.92387 -56.736771
118.42289 -33.05027 -53.647366
118.50665 -36.027271 -55.185722
118.63709 -29.251059 -51.642178
119.16193 -26.754101 -50.281887
119.48135 -37.717484 -56.072769
119.59564 -30.995638 -52.521351
119.79003 -25.073238 -49.377514
119.94879 -34.355862 -54.308998
120.43027 -39.448734 -56.939716
120.55584 -28.454468 -51.187344
120.5835 -32.679066 -53.422398
120.88649 -36.119061 -55.17025
121.18448 -31.063026 -52.506229
121.19253 -26.764748 -50.290226
121.19872 -37.4114 -55.822601
123.08048 -32.444504 -53.144073
123.09002 -23.867044 -48.689392
123.09217 -34.546005 -54.259174
123.10647 -30.267195 -52.053539
123.10819 -38.74247 -56.473038
123.12797 -25.947514 -49.838436
123.13348 -36.58696 -55.392979
123.54345 -28.077061 -50.964176
124.98872 -35.914295 -54.898655
124.99696 -31.663679 -52.687019
125.00894 -37.985233 -56.017376
125.01031 -29.511318 -51.582554
125.02928 -33.725891 -53.821892
125.04342 -25.174181 -49.367035
125.39194 -27.425955 -50.447144
126.68754 -24.025789 -48.64534
126.91154 -30.893391 -52.223782
126.92817 -28.737047 -51.117245
126.92963 -39.29797 -56.676434
126.95011 -32.942642 -53.367664
126.95766 -35.041851 -54.484913
126.96823 -37.129177 -55.600891
127.09646 -26.168411 -49.774002
128.64615 -27.459923 -50.454353
128.71745 -24.063284 -48.641167
128.84184 -36.433918 -55.115658
128.8492 -38.51878 -56.229828
128.85393 -30.07893 -51.776527
128.87234 -32.163673 -52.909714
128.8755 -34.269043 -54.028133
129.67935 -25.814081 -49.534679
130.53693 -28.872589 -51.087345
130.73561 -35.709206 -54.640846
130.75769 -33.567215 -53.540367
130.77533 -31.425957 -52.432945
130.77898 -37.72797 -55.78611
131.18791 -27.183277 -50.185337
131.63072 -24.996939 -49.078648
132.47787 -30.19088 -51.75771
132.66217 -37.026611 -55.3032
132.69615 -39.054226 -56.442291
132.69676 -34.870625 -54.211105
132.7045 -32.755611 -53.095615
132.78149 -28.395294 -50.898209
133.16324 -26.326998 -49.746986
134.19377 -24.697664 -48.815113
134.35161 -31.626169 -52.37952
134.56288 -38.386951 -55.947052
134.6035 -34.135979 -53.73666
134.63452 -27.762815 -50.371506
134.66176 -36.125278 -54.901337
135.02237 -29.916426 -51.490688
135.7173 -26.046082 -49.477596
136.35904 -32.820293 -53.098999
136.50113 -37.599537 -55.499897
136.51964 -35.48254 -54.390656
136.68968 -27.767424 -50.382828
137.0623 -29.944456 -51.493874
137.46234 -24.751287 -48.811642
138.00739 -31.699776 -52.377872
138.20679 -34.293945 -53.703182
138.3611 -26.606888 -49.66655
138.42894 -36.8372 -55.040436
138.76627 -28.727791 -50.805035
138.79829 -38.985146 -56.138321
139.60464 -24.485369 -48.531391
139.70747 -30.493135 -51.688503
139.9283 -33.050713 -53.034626
140.07719 -35.723511 -54.32436
140.42952 -26.600197 -49.68169
140.51274 -37.756901 -55.474232
140.90881 -28.458197 -50.530495
141.44508 -34.385223 -53.693787
141.62947 -31.848654 -52.345623
141.87909 -24.982815 -48.743771
142.17589 -36.623619 -54.767342
142.31131 -30.138372 -51.453381
142.42197 -39.107258 -56.124691
142.42554 -26.726107 -49.643501
142.98923 -28.433207 -50.554188
143.12737 -33.221252 -52.991589
143.79736 -31.537901 -52.091038
144.09949 -37.955013 -55.427826
144.1067 -34.902149 -53.902626
144.17546 -25.445896 -48.970234
144.48265 -29.826303 -51.197208
144.65491 -27.302828 -49.824547
145.29147 -32.918972 -52.734886
145.59569 -36.28046 -54.542976
145.85895 -24.288004 -48.244572
145.98566 -31.198116 -51.847504
146.10431 -38.050251 -55.408169
146.20355 -28.604155 -50.506931
146.38576 -26.06366 -49.135189
146.63739 -34.680298 -53.618336
147.32674 -32.97467 -52.728634
147.59279 -36.395908 -54.514084
147.6965 -29.998747 -51.150536
147.92363 -27.388954 -49.810349
148.11119 -38.146675 -55.388229
148.14638 -24.777905 -48.460796
148.73851 -34.622215 -53.659878
149.00546 -31.83511 -52.010658
149.4274 -28.769827 -50.461929
149.63722 -26.190426 -49.103477
149.83337 -36.935261 -54.711102
150.02217 -39.500195 -56.040157
150.37146 -30.523989 -51.356052
150.38544 -33.541809 -52.920818
150.93964 -35.237175 -53.825958
151.18694 -27.496675 -49.787453
151.39693 -24.917362 -48.422878
151.7207 -38.335423 -55.345978
151.89011 -31.869471 -52.018681
152.09706 -29.312912 -50.660301
152.41768 -33.61404 -52.908226
152.45044 -36.580357 -54.483353
152.90421 -26.302279 -49.077789
153.65555 -30.595192 -51.350929
153.83006 -28.094648 -49.963856
153.97066 -37.903873 -55.147663
153.97768 -34.879902 -53.600246
154.1608 -32.379955 -52.227993
154.63148 -25.096262 -48.369358
155.41347 -29.339859 -50.671928
155.46674 -39.26466 -55.79533
155.47945 -36.241295 -54.251949
155.57384 -26.863363 -49.269096
155.65002 -33.771366 -52.870926
155.89575 -31.165663 -51.536118
156.98863 -37.586349 -54.909103
157.11809 -28.180315 -49.950478
157.20914 -35.040371 -53.562878
157.34059 -25.598034 -48.584328
157.42497 -32.493847 -52.207275
157.65364 -29.917328 -50.854435
158.51649 -38.896088 -55.579762
158.70692 -36.409607 -54.212498
158.88004 -26.92898 -49.262577
158.95915 -33.810829 -52.882057
159.17577 -31.263203 -51.520969
159.44203 -28.623169 -50.187622
160.30202 -37.612179 -54.929924
160.45345 -35.190845 -53.529751
160.65964 -25.652565 -48.580971
160.68565 -32.625824 -52.17939
160.76559 -39.437637 -55.777466
160.92168 -30.046171 -50.82539
161.1563 -27.45973 -49.46442
161.97562 -36.520699 -54.196892
162.25235 -33.889858 -52.877064
162.48933 -31.31669 -51.523804
162.70061 -38.734764 -55.289482
162.71245 -28.758379 -50.15485
162.80673 -27.505093 -49.456337
163.79027 -38.618759 -54.154118
163.81674 -35.593792 -52.598591
60.998699 -39.260071 -45.314293
62.273777 -39.331329 -43.769604
62.795563 -38.976753 -46.201748
63.817791 -39.075706 -48.078594
64.009743 -39.369011 -42.621655
64.162621 -38.85704 -44.731682
65.355865 -38.476131 -46.418751
65.916168 -38.739456 -43.26263
66.820389 -38.157684 -45.026291
67.063362 -39.265873 -39.631958
67.170555 -38.856903 -41.697506
67.208931 -37.969852 -47.016132
68.17849 -38.062813 -43.543507
68.583878 -39.31583 -34.679211
68.776566 -37.442184 -45.706024
68.84285 -39.092548 -38.185383
68.964119 -38.658291 -40.259789
69.017319 -37.690834 -47.906418
69.771729 -38.954384 -36.341557
69.951157 -37.914108 -42.083778
70.175896 -37.266628 -44.253101
70.497543 -38.862728 -33.341309
70.654686 -37.024162 -46.651009
70.794922 -38.385448 -38.850311
71.63475 -38.432705 -36.930702
71.787857 -37.635536 -40.674667
72.039078 -36.938023 -42.862492
72.108231 -38.310467 -34.697475
72.191101 -36.445084 -44.97419
72.522415 -36.511993 -47.25172
73.007835 -37.703255 -38.744572
73.651512 -37.905514 -35.999687
73.744194 -36.938114 -41.340141
73.945976 -36.346889 -43.489223
74.08239 -36.01527 -45.923843
74.594063 -37.74136 -34.162308
74.945793 -37.345306 -37.74651
75.114609 -36.825897 -39.860344
75.154976 -36.044605 -47.840576
75.686821 -35.430573 -44.629372
75.700844 -36.125793 -41.669086
75.927879 -37.103504 -35.936138
76.811043 -36.595573 -37.663113
76.838089 -35.303646 -46.608707
77.029945 -35.38253 -43.119179
77.056725 -36.047882 -40.173279
77.834976 -36.689789 -34.575352
78.035744 -34.631741 -44.959236
78.422638 -35.949757 -38.685226
78.474586 -35.129074 -41.690426
78.816788 -36.112217 -36.710583
79.096939 -34.696682 -46.864822
79.563187 -34.214447 -43.593437
79.643074 -35.604332 -38.058369
79.647736 -36.055435 -34.442383
79.661812 -34.854538 -41.035694
80.971672 -35.458969 -36.204834
81.023338 -34.771996 -39.53796
81.059677 -33.863106 -42.20018
81.560997 -33.81234 -47.619076
81.596306 -33.405285 -44.308792
82.33844 -34.658253 -37.668625
82.545273 -34.945625 -34.876453
82.794144 -33.700344 -40.347897
83.051826 -33.016304 -42.542149
83.1166 -33.09774 -45.595901
83.513176 -34.739319 -33.04488
83.942284 -32.858799 -47.62809
84.159019 -33.617313 -38.847305
84.213135 -34.209267 -35.930477
84.717072 -32.29628 -43.604847
84.764771 -32.90313 -40.667351
85.042526 -32.39809 -45.88427
85.149971 -34.067574 -34.070778
85.661926 -33.257885 -37.45425
85.989014 -31.922989 -48.014282
86.223259 -31.812313 -41.871651
86.295288 -32.492878 -39.292469
86.53791 -33.240898 -35.542328
86.788605 -31.310398 -44.003399
87.459366 -31.51717 -46.247169
87.597122 -32.415489 -37.401543
87.724068 -31.467117 -40.468582
88.051033 -32.863434 -34.154682
88.055298 -30.832401 -48.074097
88.359108 -30.704571 -42.314903
88.664017 -30.853493 -44.579582
88.979416 -31.486883 -38.535999
89.057236 -32.148754 -35.968857
89.526779 -30.556604 -46.639931
89.712372 -30.533123 -40.453842
89.966095 -32.067722 -34.078812
90.360481 -29.875929 -42.647964
90.55938 -30.987696 -37.191135
90.621628 -30.11517 -44.880508
91.200928 -30.220272 -39.034454
91.214859 -29.44433 -46.70219
91.639992 -31.227015 -34.788784
91.897102 -29.472328 -41.26239
92.431061 -29.047382 -43.369408
92.618477 -30.049149 -37.558868
92.894638 -29.224524 -39.426128
93.19558 -28.955481 -45.350883
93.354462 -30.188223 -35.190578
93.653152 -28.232147 -41.365067
94.236801 -30.163626 -33.2733
94.404678 -28.167999 -43.334293
94.433525 -28.819454 -38.038822
94.946159 -27.861666 -45.791359
95.178253 -27.859505 -39.963013
95.238396 -28.951082 -36.055389
95.949013 -29.265711 -34.003872
96.267509 -27.008532 -41.851334
96.299408 -28.028112 -37.574139
96.386681 -26.726856 -46.636669
96.516701 -27.279915 -44.080505
97.097549 -26.969269 -39.537323
97.390839 -28.25272 -35.166412
98.010048 -26.174385 -45.301331
98.187057 -26.124758 -41.423847
98.304596 -27.098726 -37.548882
98.891747 -26.16398 -43.358704
98.948273 -27.692169 -33.447906
99.233299 -26.990847 -35.652699
99.357231 -24.704556 -47.05962
99.953773 -25.566483 -38.531902
100.19299 -24.953457 -40.716522
100.29185 -25.250023 -44.502888
100.77538 -26.592964 -34.255772
101.08694 -25.716324 -36.143776
101.30412 -24.987043 -42.656918
101.83197 -24.377232 -39.384533
102.59557 -24.596382 -37.3535
102.75898 -23.992641 -41.486786
102.83626 -25.445793 -33.918552
104.18427 -23.99345 -35.639977
104.75066 -24.464338 -33.127171
156.3632 -23.887466 -47.658352
159.11121 -24.331928 -47.89621
162.41594 -24.421665 -47.877579
163.8391 -26.533699 -47.849148
65.297935 -39.48468 -28.935293
66.301422 -38.812492 -26.173496
66.420418 -39.366489 -30.869518
66.795013 -39.45179 -18.790436
67.125443 -38.885685 -24.261198
67.334175 -38.883217 -28.032415
67.813576 -39.494198 -32.71381
68.26255 -39.175404 -29.810146
68.314804 -38.507954 -25.909874
68.480652 -38.777088 -22.7938
69.333382 -38.969738 -18.960539
69.672981 -38.586304 -27.389343
69.754852 -38.978512 -31.400387
69.786438 -38.161896 -24.52969
69.848312 -38.643131 -21.335577
70.746071 -38.584408 -29.280632
71.182724 -37.973488 -23.089489
71.239166 -38.048561 -26.080799
71.436409 -38.480511 -18.758965
71.857353 -38.229988 -20.731419
71.888451 -38.444286 -31.228888
72.360245 -37.951981 -28.007645
72.812759 -37.375576 -24.44334
73.054367 -38.137108 -32.866417
73.160507 -37.509201 -22.127296
73.342087 -37.859367 -19.358578
73.505997 -37.36573 -26.336855
73.514412 -37.792545 -29.962938
74.569023 -37.39621 -28.218393
74.79689 -36.906303 -23.482069
74.918335 -37.377548 -20.662891
75.0438 -37.541637 -31.578485
75.544617 -36.790058 -25.416262
75.85656 -37.215691 -18.834793
76.07119 -37.203659 -29.809408
76.360512 -36.261768 -21.829268
76.579597 -37.161263 -32.867329
76.660507 -36.718143 -27.337276
76.760712 -36.0648 -23.793465
77.536575 -36.532906 -20.213701
77.645882 -36.746521 -31.125216
77.827278 -36.096436 -25.674492
78.204353 -36.448299 -28.957829
78.359207 -36.48428 -17.964077
78.460258 -35.940681 -21.94335
78.802101 -36.479343 -32.751957
78.942421 -35.581722 -23.970123
79.298569 -35.977703 -27.236124
79.408882 -35.762463 -20.115334
79.628372 -35.602036 -25.858486
79.672211 -35.308342 -22.93358
79.675568 -36.085072 -29.856874
79.67881 -36.170475 -18.074421
80.33519 -35.582127 -27.765234
81.217789 -34.83783 -21.588648
81.257095 -34.840618 -24.243244
81.512955 -35.278954 -29.402508
81.624184 -35.38792 -32.793533
81.634552 -35.362522 -18.364294
81.953438 -34.970249 -26.473818
82.729118 -34.438873 -20.215565
82.913887 -34.026894 -22.644499
83.082275 -34.855881 -30.707928
83.486221 -34.619678 -27.746849
83.545586 -34.289471 -24.825539
84.408089 -33.668663 -21.254194
84.661888 -34.331375 -29.381006
84.665329 -33.973812 -18.863804
85.073997 -33.952892 -26.091558
85.096397 -34.210629 -31.71945
85.202469 -33.483128 -23.221491
86.254967 -33.658829 -27.726603
86.339172 -32.93676 -21.519482
86.656181 -33.607418 -30.03812
86.724152 -33.563225 -32.734154
86.752686 -33.108437 -24.500208
87.192802 -32.83218 -19.274359
87.874817 -33.060806 -26.423296
87.93222 -32.48019 -22.826401
88.292854 -32.97921 -28.746399
88.357613 -32.943825 -31.439558
88.497581 -32.169312 -20.654863
89.053207 -32.438061 -24.746296
89.791557 -32.37833 -26.677391
89.959915 -31.76152 -18.896456
89.969223 -32.37212 -30.124638
90.122787 -31.657246 -21.98197
90.394386 -32.156452 -32.124641
90.948196 -31.802216 -24.980236
91.06469 -31.918772 -28.380045
91.681931 -31.062634 -20.289585
91.951149 -31.573639 -30.42765
92.023743 -31.137625 -22.550619
92.16394 -31.459148 -26.636997
92.559235 -31.00157 -32.567028
93.042 -31.133545 -28.675186
93.230659 -30.81403 -24.196911
93.332214 -30.416546 -18.994944
93.76136 -30.322098 -21.318857
94.024216 -30.656277 -26.169077
94.039818 -30.575731 -30.806515
94.960976 -30.017942 -22.957434
95.005287 -30.384926 -28.956354
95.4935 -29.397326 -19.741966
95.709747 -30.077881 -25.232042
95.772774 -29.759935 -31.886667
96.142433 -29.858074 -27.23266
96.603546 -29.398836 -21.649935
96.689133 -29.542181 -29.658287
97.436417 -29.172657 -23.64732
97.461563 -28.913683 -32.595078
97.769569 -28.564289 -19.272829
97.827133 -29.037687 -25.616188
98.302544 -28.864424 -27.987686
98.420769 -28.614174 -30.393744
98.501701 -28.536562 -21.195049
99.400696 -28.437977 -23.914789
99.494438 -27.917036 -18.353231
99.848206 -28.196348 -25.926199
100.03443 -28.068073 -29.056082
100.12493 -27.748627 -31.106977
100.29903 -27.751682 -20.326403
101.07775 -27.640169 -22.284023
101.15949 -27.574108 -27.312122
101.45712 -27.659754 -24.582907
101.52084 -27.0665 -18.654108
101.56204 -26.76041 -32.255154
101.78529 -27.11764 -29.79892
102.28333 -26.988859 -20.598442
102.83823 -26.907776 -26.015509
102.91376 -26.620665 -28.052769
103.1132 -26.783392 -22.593508
103.44387 -25.834297 -31.443857
104.0295 -26.288771 -24.314644
104.12507 -26.131805 -19.751698
104.41651 -25.642134 -29.5788
104.57043 -25.876856 -26.39632
104.96841 -25.905518 -21.755356
105.38529 -25.380289 -18.097618
105.60588 -24.501884 -31.170822
105.92046 -25.347361 -23.500191
105.94256 -25.15564 -27.823263
106.17933 -25.251545 -20.064638
106.35651 -25.141153 -25.506639
107.09612 -24.08952 -29.384031
107.40033 -24.453644 -18.039324
107.52963 -24.574314 -21.463663
107.79764 -24.167288 -26.639624
107.99667 -24.311064 -23.490009
108.73005 -23.945082 -19.75956
54.659729 -38.392303 -9.1682272
55.47401 -37.539303 -7.2411389
55.959347 -39.272663 -12.557057
56.288456 -36.442795 -4.6564479
56.354744 -38.504864 -10.601958
57.198105 -37.470062 -8.3667898
57.593998 -36.70166 -6.4090562
57.652378 -39.273449 -13.663995
58.071911 -35.512527 -3.8557079
58.385277 -38.231895 -10.687452
59.201927 -37.379829 -8.756259
59.279297 -35.988007 -5.533885
59.591885 -38.832703 -12.696477
60.400673 -37.999268 -10.758463
60.445023 -36.555637 -7.1815481
60.508183 -35.193985 -3.945482
60.887135 -39.126999 -14.446497
61.591084 -37.289921 -9.1435432
61.615303 -38.466042 -12.445431
61.66917 -35.773853 -5.589303
62.820038 -36.378395 -7.2259731
62.845825 -37.674686 -10.859959
62.876778 -35.030331 -3.9812288
62.900269 -38.788025 -14.186959
64.062088 -36.915962 -9.2602692
64.071213 -35.545181 -5.6497564
64.10202 -38.060516 -12.578337
64.600716 -38.800453 -15.295115
64.908775 -34.656506 -3.7218578
65.071266 -39.355331 -17.333902
65.281555 -36.152756 -7.659853
65.306793 -37.328579 -10.968991
65.821297 -38.037556 -13.698144
66.116333 -35.271343 -5.7292862
66.485947 -36.652802 -9.3374519
66.674591 -38.595463 -15.734821
66.998131 -37.367687 -12.065231
67.31591 -35.783798 -7.4023862
67.332077 -34.397305 -3.79037
67.900612 -37.825726 -14.138462
68.046707 -38.629562 -17.215
68.20842 -36.630707 -10.45436
68.552757 -34.991146 -5.8077149
69.008209 -35.827114 -8.494319
69.039001 -37.24062 -12.47323
69.368065 -34.155182 -3.856503
69.58287 -37.894897 -15.228591
70.286301 -36.184361 -10.226964
70.514282 -38.176891 -16.996523
70.58535 -34.761871 -5.8715711
70.799858 -37.150166 -13.619775
71.022415 -35.515385 -8.21665
71.373695 -33.861282 -3.567662
71.717751 -37.462521 -15.376581
71.962349 -36.396965 -11.637237
72.623711 -34.281796 -5.2762699
72.659561 -37.727985 -17.152828
72.689842 -34.88427 -7.3063021
72.731834 -35.537151 -9.3190498
72.903275 -36.663712 -13.409979
73.46431 -33.275379 -3.0060689
73.83596 -36.95018 -15.178059
74.089951 -35.741016 -11.110492
74.692352 -34.363491 -6.3519669
74.77166 -37.233707 -16.949696
74.794189 -34.894367 -8.4097652
75.024162 -36.026684 -12.878186
75.162254 -33.32806 -4.0933461
75.956047 -36.320164 -14.645509
76.147469 -35.114388 -10.196423
76.859947 -33.388077 -5.1801229
76.866356 -34.115597 -7.171452
76.883942 -36.624817 -16.411209
77.132393 -35.301155 -12.00077
77.827492 -34.351238 -8.9561005
78.045624 -35.760876 -14.085533
78.055054 -32.70121 -3.5372701
78.545189 -33.479641 -6.2578378
78.7743 -34.619774 -10.731855
79.458191 -35.750893 -15.588624
79.668419 -34.874306 -12.139074
79.767586 -32.246796 -3.3052919
79.807236 -33.402 -6.650022
80.690399 -32.566368 -5.060421
80.794418 -35.653107 -16.372366
80.801903 -33.577045 -8.4584665
81.368301 -34.207298 -11.239165
81.506821 -34.67033 -13.331919
81.998955 -32.895145 -6.811367
82.312943 -31.932554 -3.7661538
82.48539 -34.88588 -15.134542
82.586594 -33.484024 -9.6072397
83.214691 -33.869797 -12.102558
83.577393 -34.876976 -17.021902
83.690811 -32.125683 -5.5647101
83.802994 -32.64275 -7.6385851
84.057495 -31.180561 -2.885428
84.187912 -34.100128 -13.900562
84.430672 -33.155643 -10.46546
85.280525 -34.094704 -15.786802
85.386398 -31.477921 -4.648726
85.485931 -33.224197 -12.321051
85.530701 -31.931929 -6.7465248
85.645264 -32.446011 -8.8245611
86.51889 -33.341305 -14.162674
86.563751 -33.589478 -17.480583
86.60775 -30.755241 -3.0086541
86.682487 -32.553196 -10.665705
87.200058 -31.219175 -5.4764299
87.356575 -31.650766 -7.5850139
87.722847 -32.658157 -12.511039
88.096878 -33.032295 -15.781321
88.407135 -31.735744 -9.4344711
88.428902 -30.485456 -3.838352
88.538017 -32.776867 -17.769625
89.075874 -30.968433 -6.6799932
89.26664 -32.29665 -13.768025
89.442467 -31.979311 -11.608971
89.989311 -32.387478 -16.006615
90.117401 -31.076088 -8.5222635
90.178802 -29.744682 -2.949199
90.265923 -30.316605 -5.0117321
91.019989 -31.557384 -12.887207
91.175774 -31.154236 -10.378377
91.349052 -30.344435 -6.8811622
91.665749 -31.804379 -15.070847
91.810204 -31.490694 -17.465368
92.023369 -29.567896 -4.1250868
92.435097 -30.370745 -8.7548265
92.748451 -30.748547 -11.649818
93.07827 -29.656134 -5.9743581
93.391609 -30.977022 -16.122717
93.459122 -30.870878 -13.879235
93.742233 -28.900457 -3.2079847
94.159409 -29.697067 -7.8435884
94.428841 -29.914415 -10.039291
94.636032 -30.255144 -12.193791
94.771599 -29.043573 -5.038918
94.9142 -29.908682 -17.647812
95.068459 -30.404648 -15.179737
95.915802 -28.965322 -6.9503589
96.018433 -28.290674 -3.3980019
96.14196 -29.270334 -9.1168852
96.197182 -29.887245 -13.456925
96.455391 -29.404879 -11.346191
96.802414 -29.180058 -17.522839
97.0672 -29.582581 -15.466681
97.140015 -28.259855 -5.2919621
97.885033 -28.322771 -7.539958
98.123108 -29.210966 -13.688674
98.125252 -28.602711 -9.7189293
98.385529 -27.514605 -3.6451211
98.527367 -28.527151 -16.605597
98.836388 -28.611763 -11.613311
99.05603 -27.725477 -5.8413019
99.794922 -27.680563 -7.7506986
99.808388 -28.491209 -14.701206
100.05408 -27.926376 -9.9447184
100.31271 -26.837872 -3.8620777
100.76082 -27.948618 -11.837206
100.90696 -27.629387 -16.536451
100.98413 -27.05142 -6.060462
101.64984 -27.619728 -13.85824
101.70324 -27.049665 -7.9574466
101.97372 -27.276764 -10.161213
102.62873 -26.995777 -15.607825
102.6366 -26.169024 -4.0721831
102.69767 -27.269836 -12.066546
102.92851 -26.354542 -6.2875209
103.28415 -26.357115 -17.752932
103.64167 -26.49431 -8.518548
104.10519 -26.58914 -13.830952
104.38983 -26.444389 -10.43889
104.39903 -25.328176 -2.8254037
104.6358 -25.622461 -5.0045147
104.85529 -25.771475 -16.037924
105.40113 -25.540295 -6.9324579
105.63461 -26.081957 -12.088418
106.12274 -25.544655 -8.8338671
106.19515 -25.633326 -14.161213
106.33589 -24.783741 -3.3750451
106.83616 -24.905975 -15.955237
107.10589 -24.696199 -5.3046031
107.36935 -25.184006 -10.48169
107.81187 -25.090548 -12.810931
107.91972 -24.652737 -7.6043148
108.57654 -24.130573 -14.686525
109.17104 -24.288389 -9.2529812
109.48515 -23.931845 -12.445928
55.410004 -35.351807 -0.97286099
55.951675 -32.92033 4.4807291
56.221848 -34.504448 0.96155298
56.667873 -30.109997 9.8191204
57.105415 -35.341114 -2.070642
57.117374 -33.600502 2.5095119
57.212845 -28.895048 12.006369
57.271881 -31.919441 6.0046248
57.769756 -30.930464 7.8943243
57.993301 -34.333244 -0.189574
58.0648 -32.586399 4.0228901
58.726307 -29.896866 9.4084368
58.92054 -33.364899 1.3379329
59.269775 -28.810823 11.271529
59.34132 -34.506321 -1.9697552
59.496151 -31.47518 5.1423039
59.943996 -32.191647 2.799031
60.050407 -30.36776 6.9956889
60.256783 -33.565994 -0.43230301
60.585209 -29.056526 9.5238733
61.279503 -27.771349 10.956189
61.285614 -31.280201 3.986475
61.505428 -32.73159 1.14828
61.618904 -29.092394 7.698339
61.743599 -34.265572 -2.0298669
61.895267 -30.056404 5.8030758
62.605419 -28.003553 9.2006683
62.649494 -33.3508 -0.48159
62.857456 -31.679955 2.6581149
63.209885 -26.79084 11.030233
63.361912 -30.683453 4.5511613
63.565083 -29.266951 7.0425782
63.767464 -34.026997 -2.093065
63.895599 -32.52739 1.1048253
64.565285 -28.153584 8.5375938
64.801109 -31.370663 3.3185389
65.028824 -33.174015 -0.51761401
65.029175 -30.026428 5.463254
65.133644 -27.021505 10.394619
65.937225 -32.136703 1.364942
65.944466 -29.096786 7.0180402
66.109993 -25.961897 11.914004
66.129875 -33.890862 -2.1169641
66.507378 -30.636076 4.2034812
66.52916 -27.809525 9.1936874
67.019287 -32.89576 -0.220779
67.389191 -29.779776 5.7823882
67.513069 -26.737267 10.70793
67.599365 -31.499195 2.2808149
67.980103 -28.605286 7.6239681
68.203293 -33.442657 -1.880317
68.691391 -32.240559 0.68762797
68.84803 -30.68148 3.876538
68.927299 -27.613724 9.1635323
69.186386 -26.0821 11.631327
69.389282 -29.614046 5.7527838
69.979752 -31.342394 2.2551341
70.183189 -33.197475 -1.5727659
70.306572 -28.688343 7.3127189
70.607727 -26.947811 10.081933
70.677391 -32.230774 0.33375201
70.883934 -30.322382 4.1518168
71.521889 -26.030344 11.651119
71.766785 -29.348207 6.066781
71.982674 -31.178949 2.2227581
71.98571 -28.028965 8.2311935
72.297585 -32.680496 -1.3581088
72.887253 -30.28504 3.7916062
72.94606 -27.017538 9.7683458
73.142769 -31.787169 0.58065301
73.498543 -28.583738 6.9494128
73.548126 -25.703693 11.947309
74.294716 -32.414604 -1.0562299
74.39946 -30.965788 2.178091
74.431297 -27.633551 8.5062828
74.549042 -29.546684 5.0528321
74.991447 -26.532587 10.3826
75.519363 -28.397543 6.914525
75.625465 -31.442881 0.489382
76.107529 -30.259535 3.076436
76.399849 -32.30386 -1.8206708
76.478935 -27.395748 8.4561443
76.606339 -29.288078 4.9917498
76.722992 -25.77998 11.277565
77.535904 -28.350607 6.553216
77.647598 -31.384918 0.117897
78.093567 -30.523451 2.0698979
78.137878 -26.797461 9.3996859
78.611847 -29.390854 4.3054881
78.72287 -25.526253 11.598052
78.959961 -31.694721 -1.6322629
79.210716 -27.722666 7.4851952
79.718994 -26.98147 8.7377834
79.772057 -31.125307 -0.32306099
79.795776 -30.335665 1.651171
79.829681 -29.525303 3.61889
80.643578 -26.059437 10.311573
80.741661 -28.629782 5.1959648
81.383324 -31.623133 -2.0070119
81.620773 -27.802658 6.7981658
81.733589 -26.830791 8.7168198
81.828766 -30.518356 0.61382997
81.88192 -29.668598 2.5701859
82.669067 -25.890327 10.286216
82.756645 -28.852526 4.174922
83.133949 -30.855284 -1.130496
83.616554 -24.926582 11.850796
83.666748 -27.965853 5.7583022
83.759514 -27.035419 7.6922641
83.978149 -29.979429 0.82720101
84.439011 -29.091993 2.7784979
84.696999 -26.094748 9.2624731
85.304703 -30.279264 -0.93174601
85.617592 -25.189566 10.846888
85.739952 -28.08239 4.7008362
85.79377 -27.230976 6.6628699
86.108856 -29.363194 1.390291
86.69854 -26.359793 8.256772
86.957291 -24.351702 12.088308
87.420723 -28.459339 2.9739511
87.462402 -29.863325 -1.052844
87.614761 -25.46719 9.8460665
87.865402 -27.48316 5.275764
88.287956 -29.030777 0.92532003
88.760681 -26.510941 7.2117391
88.952347 -24.514463 11.424612
89.512642 -27.934326 3.572268
89.572243 -29.428091 -0.80458897
89.672409 -25.630955 8.8061771
89.994492 -27.009159 5.5191159
90.433281 -28.279181 1.820768
90.888855 -26.166121 7.1255674
91.005516 -24.568361 10.724318
91.351982 -28.630583 0.069323003
91.687576 -27.252119 4.1196871
91.874901 -25.141663 8.6748466
91.932007 -29.002714 -2.0580599
92.620956 -26.334337 5.7020659
92.630951 -27.556921 2.3528292
93.49437 -25.53702 7.3267641
93.548874 -24.559616 9.6332684
93.568031 -28.125271 -0.080201998
93.93959 -26.675507 3.952301
94.826714 -27.345161 1.552606
94.984695 -28.15361 -1.56537
95.19622 -25.650646 6.2593231
95.208946 -24.879457 8.2599049
96.126114 -26.362911 3.4967289
96.149475 -23.953596 9.8471003
96.317261 -27.231857 0.020192999
96.978073 -24.866451 7.1506858
96.998039 -25.573709 5.1266699
97.290886 -27.489819 -1.771033
97.560036 -26.364231 2.004415
97.906761 -23.966745 8.7475939
98.538979 -26.614359 0.211008
98.761795 -24.831747 6.0320482
98.799271 -25.505764 3.9945879
99.590019 -26.726982 -1.632005
99.652176 -24.010111 7.655911
99.779747 -25.755074 2.201298
100.57896 -24.739336 4.8919458
100.82448 -25.882593 0.36419201
101.46754 -23.924107 6.5193892
101.48643 -26.238722 -2.1602409
101.55448 -25.002422 3.1021149
102.60075 -25.131493 1.2645251
102.90887 -23.928673 5.0271029
103.20505 -25.477678 -0.88616598
103.86172 -24.366219 2.9146049
104.52553 -24.599403 0.72549498
105.645 -24.597042 -1.162902
108.10042 -23.951393 -2.120589
58.195175 -27.680731 13.835335
60.221199 -27.790497 12.79616
61.941631 -26.432943 12.744692
63.849709 -25.50318 12.839143
65.592186 -24.68989 13.713078
67.782097 -25.304861 12.83802
68.76194 -24.243176 14.362674
70.169403 -25.017101 13.153918
72.159004 -24.763052 13.475245
73.841248 -24.104729 14.403771
75.294426 -24.915878 12.832533
77.292458 -24.661858 13.154387
79.82383 -23.868349 14.054873
81.634453 -24.755968 12.510011
82.974335 -23.906908 13.747133
84.948158 -24.099981 13.095589
100.45745 -23.723124 -48.628826
103.4678 -23.479137 -49.133865
105.37023 -22.666256 -48.679764
108.37073 -23.245548 -48.859028
110.4935 -22.931038 -48.600788
112.8637 -23.052738 -48.564556
116.3206 -23.561445 -48.775181
118.43334 -23.289944 -48.498985
121.13104 -23.711945 -48.740589
130.64375 -23.28993 -48.164898
132.67892 -23.329266 -48.159401
102.29622 -22.767052 -47.446575
102.79275 -23.783699 -43.522804
103.16644 -22.786621 -45.48122
103.86838 -23.289324 -39.028542
104.34525 -21.665831 -47.104488
104.51928 -23.047821 -42.250114
104.94465 -22.083309 -44.586998
105.3111 -22.9744 -37.200562
105.34495 -22.372307 -40.558079
105.88638 -23.429384 -34.688107
106.24273 -20.610031 -45.954456
106.43186 -21.843422 -38.417492
106.79325 -21.64496 -42.410454
106.97629 -21.524374 -47.958622
107.41363 -21.239584 -40.21727
107.93723 -19.81283 -46.6675
108.58743 -20.54739 -38.135468
108.83257 -20.321749 -41.359436
108.97943 -21.566469 -47.951263
109.42326 -18.653572 -45.156425
109.66653 -19.635328 -39.663475
109.96323 -19.18465 -42.588604
110.01572 -19.844872 -47.057396
110.24802 -19.826347 -36.454517
111.15042 -17.549324 -45.198345
111.29247 -20.030287 -33.637775
111.42766 -18.84742 -40.755653
111.45817 -18.668619 -38.074188
111.52503 -21.225483 -47.703396
111.92473 -19.045069 -46.589809
112.14174 -18.919466 -35.625111
112.93736 -17.778234 -39.596188
113.04975 -16.902782 -45.061321
113.36652 -17.740953 -37.251663
113.42937 -20.438349 -47.232708
114.04762 -18.749937 -46.31855
114.40884 -16.652927 -40.424526
114.75483 -15.59827 -44.387268
114.81688 -22.176697 -48.132027
114.87531 -16.673677 -38.447052
115.56469 -20.121506 -46.971367
115.71529 -17.520329 -45.619446
116.34766 -14.513197 -43.624313
116.93921 -21.885265 -47.86248
117.25523 -18.85416 -46.28952
117.38504 -16.292521 -44.916069
118.05682 -13.212619 -42.941605
118.59891 -20.680672 -47.159271
118.61225 -13.456038 -39.680302
118.71194 -13.914072 -36.739498
118.91698 -17.646826 -45.58054
119.07667 -15.02927 -44.222961
119.66622 -12.107158 -42.179951
120.01007 -12.620661 -38.41692
120.1356 -22.011097 -47.827759
120.28741 -19.427914 -46.471584
120.63653 -16.336798 -44.908154
120.76743 -13.773766 -43.523285
121.18343 -12.602777 -42.785351
121.19341 -20.285547 -46.93
121.31416 -10.934101 -41.441143
121.58211 -22.488989 -48.041218
121.81751 -18.605642 -46.007603
123.17382 -11.694451 -42.343464
123.1768 -16.060184 -44.626381
123.20071 -13.833284 -43.505287
123.26257 -21.261667 -47.346344
123.43565 -9.7803745 -41.089581
123.75944 -17.785713 -45.542198
124.32024 -19.545254 -46.441174
124.76458 -8.4445486 -40.40625
124.79351 -22.60298 -48.01165
125.10437 -15.27317 -44.143208
125.11596 -13.071481 -43.008591
125.12041 -10.875722 -41.865002
125.66604 -17.03809 -45.046505
125.86728 -20.86388 -47.118214
126.24171 -18.770374 -45.958984
126.58188 -9.1680269 -40.927505
127.04199 -14.474934 -43.662533
127.06378 -12.255932 -42.530666
127.34911 -22.298216 -47.748199
127.58943 -16.266138 -44.558388
127.79275 -20.085308 -46.639275
128.13701 -10.510201 -41.610134
128.42763 -18.402531 -45.713722
128.99432 -13.656409 -43.18766
129.3091 -21.460358 -47.294811
129.55139 -15.430017 -44.093353
129.65279 -11.920829 -42.265224
129.8712 -9.2053976 -40.915039
129.94295 -19.785488 -46.368694
130.12868 -17.160652 -45.012291
131.04958 -13.675567 -43.184189
131.32909 -21.528126 -47.277012
131.36337 -10.665614 -41.553726
131.55562 -15.540777 -44.055454
131.62166 -18.589727 -45.651554
132.68079 -12.571022 -42.417934
132.98798 -20.373312 -46.547146
133.06372 -9.4344358 -40.829243
133.07915 -16.920477 -44.71698
133.27702 -14.272103 -43.356339
133.68236 -18.595675 -45.656418
134.37999 -22.102638 -47.461369
134.45804 -11.203653 -41.749424
134.84544 -15.576047 -44.049957
135.00697 -12.994204 -42.657284
135.03285 -20.407063 -46.542057
135.33743 -17.455351 -44.913376
135.87462 -23.51235 -48.102997
136.18195 -9.9405127 -41.03714
136.54315 -21.795092 -47.195042
136.54976 -14.349704 -43.333187
136.72484 -11.744021 -41.943813
136.76634 -19.129625 -45.856297
137.05269 -16.210899 -44.207596
137.89946 -8.6944418 -40.314621
138.10129 -23.093216 -47.882538
138.26619 -13.107534 -42.619038
138.26953 -20.535862 -46.504612
138.41693 -10.546025 -41.206646
138.43977 -17.965925 -45.122215
138.82195 -14.87535 -43.533592
139.77592 -21.931656 -47.155727
139.99628 -19.281107 -45.808678
140.01086 -11.820111 -41.918728
140.15848 -9.2643757 -40.498096
140.22304 -16.609972 -44.459751
140.55173 -13.616623 -42.826027
141.34831 -23.20603 -47.853783
141.50426 -20.679377 -46.461304
141.70792 -10.62379 -41.179707
141.7103 -18.055286 -45.097778
141.89745 -15.455641 -43.714981
142.25534 -12.410875 -42.094398
143.00591 -22.085066 -47.109776
143.23709 -19.425253 -45.764019
143.41757 -16.846874 -44.376575
143.42749 -9.3929024 -40.450455
143.59085 -14.272687 -42.978027
143.59189 -23.765871 -48.041519
143.98613 -11.161538 -41.375977
144.77055 -20.779345 -46.435303
144.99146 -18.138483 -45.075943
145.15839 -15.584363 -43.672977
145.34564 -22.482307 -47.362122
145.3679 -12.945758 -42.293144
145.72156 -9.9098721 -40.654884
146.48306 -19.571898 -45.71846
146.70197 -16.935116 -44.351517
146.89207 -14.340199 -42.958439
147.05479 -21.282751 -46.645836
147.08179 -11.737286 -41.558914
147.4584 -8.6613779 -39.928932
147.61012 -23.016741 -47.560558
148.27525 -18.230167 -45.050865
148.47395 -15.628729 -43.663651
148.63914 -13.078036 -42.247322
148.78737 -20.047522 -45.94006
148.83311 -10.467666 -40.844593
149.32997 -21.805777 -46.848923
149.57704 -8.6254883 -39.943005
149.87549 -23.552868 -47.758564
149.95195 -17.096621 -44.297962
150.17064 -14.46062 -42.918476
150.39523 -11.80551 -41.536533
150.51279 -18.830406 -45.223614
151.06448 -20.574646 -46.141743
151.07349 -10.0862 -40.590687
151.61661 -22.312202 -47.058857
151.70007 -15.843055 -43.588417
151.97256 -13.113311 -42.239056
152.16745 -8.3738298 -39.637371
152.2793 -17.547411 -44.529469
152.63057 -11.435607 -41.279701
152.83922 -19.279514 -45.456154
153.16403 -23.637001 -47.741467
153.36208 -21.07019 -46.356182
153.49522 -14.512938 -42.904896
153.74089 -9.7014427 -40.337467
154.03328 -16.291384 -43.820915
154.16261 -12.824986 -41.952118
154.55121 -18.098652 -44.721996
154.85512 -22.493948 -47.001987
155.11461 -19.820871 -45.652691
155.26016 -11.119617 -41.001724
155.58279 -14.53545 -42.900387
156.08319 -16.37694 -43.792984
156.28177 -12.797524 -41.965691
156.61819 -21.231585 -46.306179
156.63074 -18.130375 -44.716103
156.66548 -9.7450209 -40.322197
157.57574 -14.727057 -42.830326
157.99205 -19.922237 -45.623619
158.01077 -11.597838 -41.223087
158.17461 -16.395439 -43.791157
158.18068 -22.537163 -46.999912
158.69557 -18.192484 -44.698338
158.7108 -9.8585157 -40.279869
158.96552 -13.388725 -42.144073
159.91609 -15.180072 -43.061691
159.92564 -21.316988 -46.286201
160.12207 -11.596148 -41.225922
160.43784 -16.97817 -43.97229
160.66428 -19.534588 -45.384094
160.77989 -9.9350863 -40.251648
160.84264 -23.137674 -47.175785
161.0137 -13.494716 -42.106483
161.98158 -21.395954 -46.26368
162.03703 -15.16021 -43.073959
162.1631 -11.721079 -41.180119
162.17673 -17.868824 -44.433819
162.67238 -19.70046 -45.326427
162.79271 -9.1216068 -39.756706
163.87497 -16.349537 -42.618103
163.89412 -23.406378 -46.283104
163.98602 -10.974663 -39.856499
106.78345 -23.38916 -32.757072
108.34898 -22.838074 -31.019093
108.97076 -23.197014 -28.551157
109.40907 -23.524452 -24.937393
109.59576 -21.602831 -32.653069
109.78513 -23.327566 -21.912382
110.05672 -22.794331 -26.757925
110.11157 -22.166864 -30.102171
110.53631 -23.054337 -18.531389
111.11002 -21.933735 -28.24222
111.20406 -22.534594 -23.359987
111.49902 -22.491549 -20.277298
111.76159 -22.107107 -25.455622
111.79795 -20.615713 -31.07272
112.73937 -21.794703 -18.590874
112.94336 -21.65608 -21.73802
113.05092 -21.320536 -23.800678
113.27317 -20.894102 -26.289751
114.09495 -21.131195 -19.986532
114.73399 -19.783579 -27.087475
114.79555 -20.438789 -22.176079
114.87989 -20.149363 -24.225639
115.85384 -20.093878 -20.355682
116.35065 -19.920191 -18.088425
116.61669 -18.393499 -27.208185
116.65207 -19.093571 -24.608173
117.56457 -19.02829 -20.346655
118.18466 -18.369177 -22.140564
118.74203 -18.462868 -18.601912
126.92838 -11.654866 -19.057344
127.88811 -10.383101 -21.080606
128.87718 -9.0590191 -23.129503
108.97195 -23.673143 -4.1158791
109.20806 -23.553682 -16.815166
109.67802 -23.714632 -6.0054774
110.37913 -22.982376 -15.088063
110.7285 -22.99102 -3.1883841
110.89477 -23.414711 -9.9315977
110.99567 -23.229103 -7.6951771
111.48641 -23.170664 -12.703312
111.53817 -22.838905 -5.145431
111.80251 -22.305262 -16.865742
112.23139 -22.259039 -14.565023
112.67493 -22.572239 -8.6788473
112.81098 -21.946724 -3.145781
113.07476 -22.570375 -10.981824
113.24625 -22.127607 -6.1435809
113.68594 -21.276693 -15.680331
113.75597 -21.783901 -12.796866
114.46929 -21.459789 -4.446682
114.60654 -20.801786 -17.392509
114.62602 -21.538429 -7.8729792
114.96109 -21.661814 -10.134265
115.32534 -20.462713 -13.643117
115.69419 -20.790253 -2.7484269
