# .PCD v0.7 - Point Cloud Data file format
VERSION 0.7
FIELDS x y z
SIZE 4 4 4
TYPE F F F
COUNT 1 1 1
WIDTH 196
HEIGHT 1
VIEWPOINT 0 0 0 1 0 0 0
POINTS 196
DATA ascii
241.28098 -195.67131 839.63306
242.6357 -195.67131 839.63306
239.92624 -194.31657 839.63306
238.57152 -192.96185 839.63306
238.57152 -191.60712 839.63306
238.16977 -189.93202 838.21918
237.96941 -188.42093 837.51398
237.37033 -186.59868 835.40558
236.97263 -184.94038 834.00586
240.80783 -180.75203 833.3078
242.35521 -179.5578 834.00586
242.15234 -178.06299 833.3078
242.35521 -176.8665 834.00586
235.62697 -174.17522 834.00586
236.57625 -171.19708 832.61084
236.57625 -169.85368 832.61084
242.15234 -169.99585 833.3078
242.55841 -168.93414 834.70514
244.63663 -167.16689 832.61084
241.8199 -166.65981 836.81
243.17007 -166.65981 836.81
243.29323 -165.82349 832.61084
244.63663 -165.82349 832.61084
242.35521 -164.75568 834.00586
235.42975 -163.27325 833.3078
242.15234 -163.27325 833.3078
242.76196 -156.94475 835.40558
235.62697 -155.33615 834.00586
243.78482 -156.25244 838.92554
242.43123 -154.89886 838.92554
240.87466 -153.416 838.21918
242.43123 -148.13094 838.92554
243.57956 -148.00621 838.21918
243.57956 -146.65376 838.21918
243.70087 -145.91661 834.00586
243.57956 -145.30132 838.21918
242.22711 -143.94888 838.21918
243.78482 -141.36301 838.92554
243.99043 -140.1275 839.63306
243.78482 -138.65584 838.92554
245.34515 -138.77278 839.63306
243.57956 -137.18665 838.21918
244.52025 -136.95602 836.81
244.84138 -135.03831 833.3078
163.09865 -132.5712 834.70514
163.23552 -131.33455 835.40558
244.52025 -131.55533 836.81
244.52025 -130.20515 836.81
246.18591 -128.3157 833.3078
247.53044 -128.3157 833.3078
248.87495 -128.3157 833.3078
248.87495 -126.97118 833.3078
250.42909 -127.07755 834.00586
249.2923 -125.83733 834.70514
251.2711 -124.80447 836.81
249.2923 -123.14378 834.70514
243.49687 -121.5931 833.3078
249.50148 -121.8992 835.40558
246.18591 -120.24858 833.3078
249.71103 -119.3035 836.10724
250.42909 -117.65802 834.00586
249.71103 -116.60543 836.10724
248.362 -115.25639 836.10724
246.39215 -113.62108 834.00586
245.04651 -112.27543 834.00586
246.39215 -112.27543 834.00586
246.07726 -111.39639 837.51398
244.19638 -110.41664 840.3418
242.43123 -108.87697 838.92554
242.43123 -107.52338 838.92554
242.43123 -106.1698 838.92554
243.78482 -104.81621 838.92554
244.52025 -103.20173 836.81
245.45776 -103.02852 835.40558
234.28133 -101.51025 834.00586
246.80568 -101.68062 835.40558
248.15358 -101.68062 835.40558
249.2923 -101.59536 834.70514
250.63907 -101.59536 834.70514
252.1973 -101.68062 835.40558
249.08345 -100.1646 834.00586
250.42909 -100.1646 834.00586
231.59003 -98.818954 834.00586
247.53044 -98.736244 833.3078
248.87495 -98.736244 833.3078
247.53044 -97.391716 833.3078
246.39215 -96.127663 834.00586
235.62697 -94.782013 834.00586
246.39215 -94.782013 834.00586
246.39215 -93.436371 834.00586
246.59874 -90.821159 834.70514
245.25197 -89.47438 834.70514
242.55841 -88.127609 834.70514
242.55841 -86.78083 834.70514
242.55841 -85.434052 834.70514
244.19638 -84.655113 840.3418
242.96584 -82.879486 836.10724
242.76196 -81.462029 835.40558
245.04651 -79.979897 834.00586
245.04651 -78.634247 834.00586
246.59874 -78.70018 834.70514
241.00957 -77.288597 834.00586
245.04651 -77.288597 834.00586
242.35521 -75.942947 834.00586
243.70087 -75.942947 834.00586
245.04651 -75.942947 834.00586
241.28098 -75.100624 839.63306
240.87466 -73.621712 838.21918
242.43123 -72.33017 838.92554
242.43123 -70.976585 838.92554
242.43123 -69.623001 838.92554
241.07765 -68.269417 838.92554
243.99043 -64.26281 839.63306
243.99043 -62.908085 839.63306
244.19638 -61.605316 840.3418
244.40268 -60.300346 841.05176
243.04567 -58.943329 841.05176
241.28098 -57.489178 839.63306
243.04567 -57.586315 841.05176
241.07765 -56.087147 838.92554
242.22711 -54.687477 838.21918
240.46973 -53.245369 836.81
241.21164 -53.111439 834.70514
242.35521 -53.066944 834.00586
241.07765 -52.026394 838.92554
241.21164 -51.764664 834.70514
242.35521 -51.721298 834.00586
153.87262 -50.930317 843.18878
239.72406 -50.672806 838.92554
239.72406 -49.319221 838.92554
241.28098 -48.006092 839.63306
241.07765 -46.612053 838.92554
137.54704 -45.488461 843.18878
138.90752 -45.488461 843.18878
241.07765 -45.258465 838.92554
240.87466 -43.867916 838.21918
241.07765 -42.551296 838.92554
242.6357 -41.232456 839.63306
241.28098 -39.877731 839.63306
242.84052 -39.911392 840.3418
120.60857 -38.49054 838.92554
241.28098 -38.523003 839.63306
241.28098 -37.168278 839.63306
240.46973 -35.693138 836.81
240.06615 -32.93742 835.40558
240.87466 -31.695906 838.21918
240.87466 -30.34346 838.21918
240.87466 -28.991014 838.21918
242.02333 -27.615318 837.51398
242.02333 -26.264009 837.51398
243.99043 -26.330463 839.63306
134.14442 -24.954689 838.92554
243.78482 -24.954689 838.92554
243.57956 -23.581234 838.21918
245.1384 -23.601105 838.92554
243.57956 -22.228788 838.21918
136.96701 -20.911556 839.63306
242.43123 -20.893934 838.92554
172.91911 -19.63965 843.18878
240.87466 -19.523897 838.21918
239.86487 -18.095272 834.70514
140.50598 -16.94743 844.61951
241.41405 -15.414645 835.40558
240.26776 -14.078554 836.10724
240.46973 -12.740216 836.81
240.67203 -11.399626 837.51398
242.02333 -11.399626 837.51398
241.61681 -10.031441 836.10724
241.21164 -8.6678429 834.70514
240.06615 -7.3272109 835.40558
241.21164 -7.3210673 834.70514
240.06615 -5.9793053 835.40558
240.06615 -4.6313992 835.40558
159.17966 -3.31128 842.47522
240.26776 -3.2862511 836.10724
159.86255 -1.9437431 838.92554
240.26776 -1.9372133 836.10724
121.01649 -0.59215403 841.76288
240.06615 -0.58768189 835.40558
103.27305 0.76536196 841.05176
241.21164 0.75958651 834.70514
150.04539 4.8569255 844.61951
241.61681 4.8079758 836.10724
241.61681 6.1570139 836.10724
243.17007 6.162189 836.81
241.61681 7.5060515 836.10724
243.17007 7.512361 836.81
241.21164 8.8402405 834.70514
239.86487 10.187016 834.70514
239.86487 11.533792 834.70514
241.41405 12.891376 835.40558
241.41405 14.239282 835.40558
242.22711 15.639684 838.21918
240.46973 16.963564 836.81
240.67203 18.329142 837.51398
240.87466 19.69702 838.21918
