# .PCD v0.7 - Point Cloud Data file format
VERSION 0.7
FIELDS x y z
SIZE 4 4 4
TYPE F F F
COUNT 1 1 1
WIDTH 243
HEIGHT 1
VIEWPOINT 0 0 0 1 0 0 0
POINTS 243
DATA ascii
-134.88844 209.45045 845.33673
-136.25238 210.81439 845.33673
-134.774 210.63553 844.61951
-136.36816 212.35864 846.05511
-136.9501 214.63577 849.66553
-135.23294 214.08762 847.49561
-137.18427 216.37602 851.11835
-144.05055 217.74928 851.11835
-142.55542 217.56328 850.39136
-141.18333 217.56328 850.39136
-138.55753 217.74928 851.11835
-143.92751 218.93536 850.39136
-143.92751 220.30745 850.39136
-142.55542 220.30745 850.39136
-141.30405 220.4958 851.11835
-140.05052 220.68446 851.84662
-140.05052 222.0589 851.84662
-138.55753 223.24231 851.11835
-138.32101 224.23216 849.66553
-138.20306 225.41069 848.94098
-138.08531 226.58722 848.21771
-136.71674 227.9558 848.21771
-137.8504 230.30051 846.77478
-57.193031 230.10478 846.05511
-137.49954 231.07712 844.61951
-137.49954 232.43988 844.61951
-136.13678 232.43988 844.61951
-136.25238 234.00119 845.33673
-135.1179 235.7655 846.77478
-133.97958 236.16727 848.21771
-134.09383 237.7384 848.94098
-134.32292 239.51663 850.39136
-134.55278 241.30096 851.84662
-134.43776 243.84119 851.11835
-135.69501 245.00497 850.39136
-137.06709 246.37706 850.39136
-136.9501 247.5377 849.66553
-136.48416 248.06175 846.77478
-121.45541 248.06175 846.77478
-137.73326 249.21603 846.05511
-130.79666 249.00441 845.33673
-129.43272 249.00441 845.33673
-138.98024 250.36835 845.33673
-138.98024 251.73227 845.33673
-138.98024 253.09621 845.33673
-138.86232 254.24425 844.61951
-138.86232 255.60701 844.61951
-132.72409 256.91483 848.94098
-139.09834 257.40656 846.05511
-137.96776 259.21222 847.49561
-136.60034 260.57965 847.49561
-136.9501 262.61774 849.66553
-137.06709 264.21417 850.39136
-138.32101 265.35959 849.66553
-139.57281 266.50305 848.94098
-139.21666 267.18924 846.77478
-137.8504 268.55551 846.77478
-136.25238 269.46335 845.33673
-136.25238 270.82727 845.33673
-136.25238 272.19122 845.33673
-134.88844 272.19122 845.33673
-134.32292 273.81876 850.39136
-140.17046 278.64908 852.57617
-141.42496 279.7851 851.84662
-138.55753 279.5459 851.11835
-137.18427 279.5459 851.11835
-135.69501 279.3071 850.39136
-141.54607 281.4003 852.57617
-141.54607 282.77591 852.57617
-140.05052 283.90839 851.84662
-140.05052 285.28281 851.84662
-141.54607 286.90274 852.57617
-1.2296283 285.92328 849.66553
-141.54607 288.27835 852.57617
-139.81125 288.91168 850.39136
-138.43916 288.91168 850.39136
-136.60034 289.29532 847.49561
-137.06709 291.65585 850.39136
-135.00308 290.16867 846.05511
-135.00308 291.53378 846.05511
-135.00308 292.89886 846.05511
-134.88844 294.01407 845.33673
-136.13678 295.12741 844.61951
-138.20306 298.00717 848.94098
-136.13678 296.49017 844.61951
-142.67731 300.14474 851.11835
-141.30405 300.14474 851.11835
-139.93079 300.14474 851.11835
-136.13678 297.85297 844.61951
-143.43741 300.23462 847.49561
-143.07202 300.83374 845.33673
-142.82947 301.68533 843.90356
-142.82947 303.04694 843.90356
-140.46344 303.81958 846.05511
-142.82947 304.40854 843.90356
-141.46785 304.40854 843.90356
-139.57281 306.22565 848.94098
-137.96776 308.43909 847.49561
-141.54607 313.03934 852.57617
-139.69193 311.97064 849.66553
-141.06285 313.34155 849.66553
-142.67731 315.25061 851.11835
-140.94255 314.44412 848.94098
-141.30405 316.62384 851.11835
-34.102455 315.81384 848.94098
-137.06709 319.09756 850.39136
-137.06709 320.46964 850.39136
-135.69501 321.84174 850.39136
-79.439522 321.84174 850.39136
-135.69501 323.21381 850.39136
-130.42949 323.76694 851.84662
-128.94472 323.49014 851.11835
-78.067436 323.21381 850.39136
-134.43776 324.8634 851.11835
-133.17836 325.14139 851.84662
-127.78997 325.41983 852.57617
-100.27776 325.41983 852.57617
-126.41436 326.79544 852.57617
-124.82494 326.23666 851.11835
-8.0498457 324.2959 846.05511
-126.41436 328.17105 852.57617
-125.03875 328.17105 852.57617
-123.24097 327.05069 849.66553
-121.76613 326.77182 848.94098
-120.49914 327.05069 849.66553
-119.02663 326.77182 848.94098
-117.75731 327.05069 849.66553
-116.48581 327.33008 850.39136
-115.21214 327.60992 851.11835
-113.83888 327.60992 851.11835
-112.36956 327.33008 850.39136
-110.99747 327.33008 850.39136
-109.71911 327.60992 851.11835
-108.34585 327.60992 851.11835
-106.9726 327.60992 851.11835
-105.59933 327.60992 851.11835
-104.22607 327.60992 851.11835
-102.94083 327.89023 851.84662
-101.65337 328.17105 852.57617
-95.986526 327.60992 851.11835
-94.613274 327.60992 851.11835
-93.319794 327.89023 851.84662
-91.945366 327.89023 851.84662
-90.416199 327.33008 850.39136
-89.044113 327.33008 850.39136
-87.672028 327.33008 850.39136
-86.373726 327.60992 851.11835
-85.000465 327.60992 851.11835
-83.484459 327.05069 849.66553
-81.903839 326.21545 847.49561
-80.536423 326.21545 847.49561
-79.169014 326.21545 847.49561
-77.735428 325.93799 846.77478
-76.369171 325.93799 846.77478
-75.13073 326.49341 848.21771
-73.762154 326.49341 848.21771
-72.393578 326.49341 848.21771
-70.904175 325.93799 846.77478
-69.41983 325.38446 845.33673
-68.055901 325.38446 845.33673
-66.691978 325.38446 845.33673
-65.383568 325.66098 846.05511
-64.018478 325.66098 846.05511
-62.653389 325.66098 846.05511
-61.2883 325.66098 846.05511
-59.92321 325.66098 846.05511
-58.558121 325.66098 846.05511
-57.290409 326.21545 847.49561
-56.066185 327.05069 849.66553
-54.695271 327.05069 849.66553
-53.324356 327.05069 849.66553
-51.86491 326.49341 848.21771
-50.496334 326.49341 848.21771
-49.169647 326.77182 848.94098
-47.840702 327.05069 849.66553
-46.469788 327.05069 849.66553
-45.098873 327.05069 849.66553
-43.653442 326.49341 848.21771
-42.177059 325.66098 846.05511
-40.777317 325.38446 845.33673
-39.379948 325.1084 844.61951
-38.049458 325.38446 845.33673
-36.716705 325.66098 846.05511
-35.381687 325.93799 846.77478
-34.073399 326.49341 848.21771
-32.676979 326.21545 847.49561
-31.256351 325.66098 846.05511
-29.891262 325.66098 846.05511
-28.526175 325.66098 846.05511
-27.207329 326.21545 847.49561
-25.861933 326.49341 848.21771
-24.514242 326.77182 848.94098
-23.164251 327.05069 849.66553
-21.793337 327.05069 849.66553
-20.422422 327.05069 849.66553
-19.019045 326.49341 848.21771
-17.635441 326.21545 847.49561
-16.240377 325.66098 846.05511
-14.887941 325.93799 846.77478
-13.510201 325.66098 846.05511
-12.134799 325.38446 845.33673
-10.752609 324.83279 843.90356
-9.3909922 324.83279 843.90356
-8.0293751 324.83279 843.90356
-6.6961389 326.21545 847.49561
-5.3287263 326.21545 847.49561
-3.9613135 326.21545 847.49561
-2.5916944 325.93799 846.77478
-1.2254448 325.93799 846.77478
0.14104475 326.49341 848.21771
1.5109099 326.77182 848.94098
2.8733041 325.93799 846.77478
4.2395539 325.93799 846.77478
5.615356 326.49341 848.21771
6.9839334 326.49341 848.21771
8.3383026 325.93799 846.77478
9.7045527 325.93799 846.77478
11.061394 325.66098 846.05511
12.426482 325.66098 846.05511
13.77986 325.38446 845.33673
15.130941 325.1084 844.61951
16.493713 325.1084 844.61951
17.871649 325.38446 845.33673
19.235577 325.38446 845.33673
20.599506 325.38446 845.33673
21.982101 325.66098 846.05511
23.367048 325.93799 846.77478
24.733297 325.93799 846.77478
26.077368 325.66098 846.05511
27.442455 325.66098 846.05511
28.807545 325.66098 846.05511
30.224005 326.21545 847.49561
31.645296 326.77182 848.94098
33.015041 326.77182 848.94098
34.384785 326.77182 848.94098
35.724068 326.49341 848.21771
37.092644 326.49341 848.21771
38.461224 326.49341 848.21771
39.795895 326.21545 847.49561
41.093342 325.66098 846.05511
42.458431 325.66098 846.05511
43.823517 325.66098 846.05511
45.188606 325.66098 846.05511
