# .PCD v0.7 - Point Cloud Data file format
VERSION 0.7
FIELDS x y z
SIZE 4 4 4
TYPE F F F
COUNT 1 1 1
WIDTH 229
HEIGHT 1
VIEWPOINT 0 0 0 1 0 0 0
POINTS 229
DATA ascii
237.2168 225.64871 839.63306
238.7729 227.19505 840.3418
239.72406 228.16573 838.92554
241.07765 229.51932 838.92554
240.67203 230.48444 837.51398
243.04567 231.45804 841.05176
240.67203 231.83575 837.51398
236.46036 234.37007 841.76288
237.6176 234.17207 841.05176
238.97462 234.17207 841.05176
239.32072 233.18706 837.51398
235.90004 236.5282 844.61951
234.13998 237.48801 843.18878
231.79788 237.84125 839.63306
233.15262 237.84125 839.63306
233.15262 239.19597 839.63306
233.34943 240.75375 840.3418
232.58252 242.72427 842.47522
234.33846 243.13579 843.90356
235.90004 244.70483 844.61951
235.70007 245.85902 843.90356
232.95613 245.76233 838.92554
235.10219 246.59354 841.76288
234.11244 246.90785 838.21918
234.70529 250.24484 840.3418
235.10219 252.02618 841.76288
235.30115 253.59879 842.47522
235.70007 255.39034 843.90356
235.70007 256.75195 843.90356
235.70007 258.11359 843.90356
235.50044 260.61588 843.18878
231.99355 261.0918 840.3418
235.70007 262.19843 843.90356
232.18954 262.6694 841.05176
234.33846 263.56003 843.90356
232.18954 264.0264 841.05176
234.13998 264.69727 843.18878
232.77951 266.05774 843.18878
232.77951 267.41821 843.18878
232.77951 268.77866 843.18878
235.33591 271.51895 847.49561
236.502 272.65424 846.77478
237.86824 272.65424 846.77478
238.82822 272.19122 845.33673
240.19214 272.19122 845.33673
238.7729 271.93878 840.3418
236.81734 273.95676 838.21918
235.86206 275.77359 839.63306
236.81734 275.3092 838.21918
236.06116 277.36224 840.3418
237.41702 277.36224 840.3418
236.06116 278.71811 840.3418
235.30115 280.78503 842.47522
236.30099 283.34323 846.05511
233.74403 285.98026 841.76288
234.13998 289.18564 843.18878
237.06169 289.43076 843.90356
210.65526 290.05475 841.76288
232.18954 289.80972 841.05176
237.06169 290.79239 843.90356
238.42331 292.15399 843.90356
238.82822 294.01407 845.33673
228.89198 294.87723 843.90356
236.30099 295.62903 846.05511
237.46428 295.37802 845.33673
238.97462 293.88077 841.05176
233.57083 301.08939 846.05511
232.95613 299.90573 838.92554
231.60255 301.25931 838.92554
232.75999 301.00568 838.21918
236.30099 303.81958 846.05511
236.30099 305.18466 846.05511
233.74403 306.35272 841.76288
235.90004 307.39236 844.61951
235.90004 308.75513 844.61951
229.67075 310.90924 846.77478
231.03699 310.90924 846.77478
233.74403 310.42722 841.76288
233.74403 311.78537 841.76288
227.91678 314.47302 845.33673
233.74403 313.14352 841.76288
236.10036 314.47302 845.33673
227.53036 315.30148 843.90356
236.10036 315.83694 845.33673
227.33766 316.3949 843.18878
237.26282 316.93176 844.61951
224.23689 317.21802 841.76288
225.40446 316.95001 841.05176
226.95322 317.21802 841.76288
235.10219 317.21802 841.76288
236.06116 316.6825 840.3418
238.42331 318.02472 843.90356
223.63509 319.65732 844.61951
224.61673 319.11584 843.18878
225.97719 319.11584 843.18878
235.90004 319.65732 844.61951
237.06169 319.38635 843.90356
219.7332 321.29266 845.33673
219.7332 322.65659 845.33673
145.58653 322.92371 842.47522
46.514164 325.38446 845.33673
47.878094 325.38446 845.33673
49.200245 325.1084 844.61951
50.563019 325.1084 844.61951
51.925793 325.1084 844.61951
53.288563 325.1084 844.61951
54.605007 324.83279 843.90356
55.966625 324.83279 843.90356
57.376881 325.1084 844.61951
58.789528 325.38446 845.33673
60.204582 325.66098 846.05511
61.569668 325.66098 846.05511
62.881317 325.38446 845.33673
64.13633 324.83279 843.90356
65.497948 324.83279 843.90356
66.859558 324.83279 843.90356
68.27906 325.1084 844.61951
69.700966 325.38446 845.33673
71.004601 325.1084 844.61951
72.428825 325.38446 845.33673
73.792755 325.38446 845.33673
75.156685 325.38446 845.33673
76.455688 325.1084 844.61951
77.752495 324.83279 843.90356
79.181236 325.1084 844.61951
80.612404 325.38446 845.33673
81.976326 325.38446 845.33673
83.340256 325.38446 845.33673
84.48896 324.55768 843.18878
85.849426 324.55768 843.18878
87.357872 325.1084 844.61951
88.795975 325.38446 845.33673
90.236526 325.66098 846.05511
91.601616 325.66098 846.05511
92.887764 325.38446 845.33673
94.091904 324.83279 843.90356
95.372673 324.55768 843.18878
96.733139 324.55768 843.18878
98.093597 324.55768 843.18878
99.454063 324.55768 843.18878
100.81453 324.55768 843.18878
102.2616 324.83279 843.90356
103.71114 325.1084 844.61951
105.07391 325.1084 844.61951
106.43668 325.1084 844.61951
107.61684 324.55768 843.18878
108.97731 324.55768 843.18878
110.33778 324.55768 843.18878
111.79292 324.83279 843.90356
113.15454 324.83279 843.90356
114.51616 324.83279 843.90356
116.07456 325.38446 845.33673
117.43849 325.38446 845.33673
118.70163 325.1084 844.61951
119.65833 324.00882 841.76288
120.91425 323.73511 841.05176
122.37466 324.00882 841.76288
123.73282 324.00882 841.76288
125.19684 324.28302 842.47522
126.55615 324.28302 842.47522
127.91547 324.28302 842.47522
129.05635 323.73511 841.05176
130.41336 323.73511 841.05176
131.77039 323.73511 841.05176
133.46565 324.55768 843.18878
134.82613 324.55768 843.18878
136.07133 324.28302 842.47522
137.19844 323.73511 841.05176
138.55545 323.73511 841.05176
139.91248 323.73511 841.05176
141.26949 323.73511 841.05176
142.38593 323.18903 839.63306
143.74065 323.18903 839.63306
145.70984 324.55768 843.18878
147.19496 324.83279 843.90356
148.55658 324.83279 843.90356
149.41159 323.73511 841.05176
150.7686 323.73511 841.05176
152.25424 324.00882 841.76288
153.61241 324.00882 841.76288
154.97057 324.00882 841.76288
156.19666 323.73511 841.05176
157.42068 323.46182 840.3418
158.77655 323.46182 840.3418
160.26772 323.73511 841.05176
161.62473 323.73511 841.05176
162.98174 323.73511 841.05176
164.33876 323.73511 841.05176
166.11679 324.55768 843.18878
167.47725 324.55768 843.18878
168.69484 324.28302 842.47522
170.05415 324.28302 842.47522
171.55864 324.55768 843.18878
173.21252 325.1084 844.61951
174.57529 325.1084 844.61951
175.19489 323.73511 841.05176
176.5519 323.73511 841.05176
177.90892 323.73511 841.05176
179.41751 324.00882 841.76288
180.92865 324.28302 842.47522
182.28796 324.28302 842.47522
183.49199 324.00882 841.76288
184.69398 323.73511 841.05176
186.05101 323.73511 841.05176
187.40802 323.73511 841.05176
188.6057 323.46182 840.3418
189.96158 323.46182 840.3418
191.47906 323.73511 841.05176
193.32607 324.55768 843.18878
194.68652 324.55768 843.18878
196.047 324.55768 843.18878
196.90714 323.73511 841.05176
198.26414 323.73511 841.05176
199.62117 323.73511 841.05176
200.97818 323.73511 841.05176
202.33519 323.73511 841.05176
204.03696 324.28302 842.47522
205.91905 325.1084 844.61951
207.28183 325.1084 844.61951
208.64459 325.1084 844.61951
209.47421 324.28302 842.47522
210.47729 323.73511 841.05176
211.8343 323.73511 841.05176
213.55215 324.28302 842.47522
214.91147 324.28302 842.47522
216.45395 324.55768 843.18878
217.63008 324.28302 842.47522
218.43484 323.46182 840.3418
219.79071 323.46182 840.3418
