# .PCD v0.7 - Point Cloud Data file format
VERSION 0.7
FIELDS x y z
SIZE 4 4 4
TYPE F F F
COUNT 1 1 1
WIDTH 260
HEIGHT 1
VIEWPOINT 0 0 0 1 0 0 0
POINTS 260
DATA ascii
63.811771 -325.72507 839.63306
65.166496 -325.72507 839.63306
66.521225 -325.72507 839.63306
67.818756 -325.45059 838.92554
69.114098 -325.17657 838.21918
70.466545 -325.17657 838.21918
71.758568 -324.90302 837.51398
73.109879 -324.90302 837.51398
74.211456 -323.81335 834.70514
77.034187 -324.35727 836.10724
78.515106 -324.90302 837.51398
79.933662 -325.17657 838.21918
81.28611 -325.17657 838.21918
82.63855 -325.17657 838.21918
83.990997 -325.17657 838.21918
85.415359 -325.45059 838.92554
86.768944 -325.45059 838.92554
88.048332 -325.17657 838.21918
89.40078 -325.17657 838.21918
90.67688 -324.90302 837.51398
91.796509 -324.08508 835.40558
93.379494 -324.90302 837.51398
94.730797 -324.90302 837.51398
96.082108 -324.90302 837.51398
97.51545 -325.17657 838.21918
98.867897 -325.17657 838.21918
100.30479 -325.45059 838.92554
101.65839 -325.45059 838.92554
102.92523 -325.17657 838.21918
104.45358 -325.72507 839.63306
105.8083 -325.72507 839.63306
107.25349 -326.00003 840.3418
108.70111 -326.27542 841.05176
109.96523 -326.00003 840.3418
111.03991 -325.17657 838.21918
112.20341 -324.62991 836.81
113.7448 -325.17657 838.21918
115.48619 -326.27542 841.05176
116.942 -326.5513 841.76288
118.20022 -326.27542 841.05176
119.35557 -325.72507 839.63306
120.7103 -325.72507 839.63306
122.06503 -325.72507 839.63306
126.34232 -326.27542 841.05176
127.48393 -325.72507 839.63306
129.05635 -326.27542 841.05176
130.30328 -326.00003 840.3418
131.65915 -326.00003 840.3418
132.90283 -325.72507 839.63306
134.14442 -325.45059 838.92554
135.49802 -325.45059 838.92554
136.85159 -325.45059 838.92554
138.20518 -325.45059 838.92554
139.55876 -325.45059 838.92554
141.15024 -326.00003 840.3418
142.38593 -325.72507 839.63306
143.74065 -325.72507 839.63306
145.21785 -326.00003 840.3418
146.57372 -326.00003 840.3418
148.05457 -326.27542 841.05176
149.53792 -326.5513 841.76288
150.7686 -326.27542 841.05176
151.74103 -325.45059 838.92554
153.09462 -325.45059 838.92554
154.4482 -325.45059 838.92554
156.19666 -326.27542 841.05176
158.77655 -326.00003 840.3418
159.59357 -324.90302 837.51398
162.56972 -325.45059 838.92554
163.78528 -325.17657 838.21918
165.13773 -325.17657 838.21918
166.49017 -325.17657 838.21918
167.84262 -325.17657 838.21918
169.19505 -325.17657 838.21918
170.83519 -325.72507 839.63306
172.48085 -326.27542 841.05176
173.83786 -326.27542 841.05176
174.60484 -325.17657 838.21918
175.80927 -324.90302 837.51398
177.16057 -324.90302 837.51398
178.51187 -324.90302 837.51398
179.86319 -324.90302 837.51398
181.21449 -324.90302 837.51398
182.5658 -324.90302 837.51398
183.9171 -324.90302 837.51398
185.26842 -324.90302 837.51398
186.61972 -324.90302 837.51398
187.97102 -324.90302 837.51398
189.32234 -324.90302 837.51398
190.67365 -324.90302 837.51398
192.02495 -324.90302 837.51398
193.53908 -325.17657 838.21918
195.05576 -325.45059 838.92554
196.40935 -325.45059 838.92554
197.92972 -325.72507 839.63306
199.45267 -326.00003 840.3418
200.97818 -326.27542 841.05176
202.1644 -326.00003 840.3418
203.52028 -326.00003 840.3418
204.70335 -325.72507 839.63306
206.05807 -325.72507 839.63306
207.41281 -325.72507 839.63306
208.76753 -325.72507 839.63306
210.29962 -326.00003 840.3418
211.6555 -326.00003 840.3418
213.19131 -326.27542 841.05176
214.36723 -326.00003 840.3418
214.99718 -324.90302 837.51398
216.3485 -324.90302 837.51398
217.6998 -324.90302 837.51398
219.0511 -324.90302 837.51398
220.4024 -324.90302 837.51398
221.94043 -325.17657 838.21918
223.29288 -325.17657 838.21918
224.64532 -325.17657 838.21918
225.80765 -324.90302 837.51398
227.15895 -324.90302 837.51398
228.51025 -324.90302 837.51398
230.44316 -325.72507 839.63306
231.99355 -326.00003 840.3418
233.34943 -326.00003 840.3418
234.50734 -325.72507 839.63306
235.86206 -325.72507 839.63306
237.2168 -325.72507 839.63306
123.41975 -324.37033 839.63306
124.77448 -324.37033 839.63306
213.82576 -323.82413 838.21918
230.24896 -324.09698 838.92554
237.41702 -324.64413 840.3418
237.41702 -323.28827 840.3418
238.7729 -321.9324 840.3418
217.26237 -320.84735 841.05176
238.57152 -320.30615 839.63306
239.72406 -318.68265 838.92554
242.43123 -317.32907 838.92554
243.78482 -315.97549 838.92554
243.99043 -314.88727 839.63306
144.48608 -312.21591 836.10724
190.35336 -312.21591 836.10724
238.16977 -313.00455 838.21918
239.52222 -313.00455 838.21918
240.87466 -313.00455 838.21918
242.6357 -313.53253 839.63306
173.29167 -309.30823 831.9151
188.68739 -310.34558 834.70514
191.38094 -310.34558 834.70514
238.16977 -311.6521 838.21918
191.38094 -308.99881 834.70514
236.81734 -310.29965 838.21918
174.9263 -307.13699 833.3078
237.01689 -307.85397 838.92554
171.89995 -306.24234 838.21918
174.45795 -305.98468 837.51398
237.01689 -306.5004 838.92554
238.37048 -305.14682 838.92554
237.76938 -303.02716 836.81
241.21164 -302.26492 834.70514
241.21164 -300.91815 834.70514
242.76196 -299.82275 835.40558
243.78482 -299.73245 838.92554
243.99043 -298.63052 839.63306
171.12384 -297.77811 841.05176
172.48085 -297.77811 841.05176
222.12746 -297.0253 838.92554
244.19638 -297.52673 840.3418
157.15536 -295.67172 838.92554
243.99043 -295.92108 839.63306
241.61681 -293.32938 836.10724
244.19638 -294.815 840.3418
237.91963 -288.07257 832.61084
245.1384 -287.5502 838.92554
154.62906 -284.04239 832.61084
243.37465 -285.71509 837.51398
155.9332 -285.08325 839.63306
157.28792 -285.08325 839.63306
158.50896 -284.84302 838.92554
161.61636 -283.17264 834.00586
239.66391 -283.17264 834.00586
241.8199 -284.12476 836.81
239.66391 -281.827 834.00586
242.02333 -280.30984 837.51398
114.61473 -278.02298 834.70514
243.37465 -278.95853 837.51398
114.61473 -276.67621 834.70514
244.72595 -277.60724 837.51398
148.53319 -275.7919 836.10724
244.93201 -276.48853 838.21918
242.22711 -275.13608 838.21918
243.57956 -275.13608 838.21918
240.12877 -274.47696 840.3418
241.28098 -274.24545 839.63306
172.52608 -271.28909 834.70514
238.97462 -273.35181 841.05176
236.06116 -271.7652 840.3418
237.6176 -271.99481 841.05176
234.11244 -269.72629 838.21918
236.06116 -270.40933 840.3418
177.91318 -267.24878 834.70514
234.11244 -268.37384 838.21918
158.10925 -263.87216 836.81
233.91548 -264.09415 837.51398
234.30972 -263.18567 838.92554
236.06116 -263.62997 840.3418
173.87285 -260.51489 834.70514
217.58672 -259.6441 831.9151
218.92899 -259.6441 831.9151
235.2668 -261.39154 837.51398
239.4633 -260.07877 833.3078
240.80783 -260.07877 833.3078
235.06905 -259.82166 836.81
236.22066 -259.60345 836.10724
243.17007 -259.82166 836.81
243.78482 -259.12491 838.92554
243.78482 -257.77133 838.92554
242.22711 -256.20184 838.21918
218.92899 -251.59045 831.9151
243.99043 -253.92455 839.63306
243.99043 -252.56982 839.63306
240.06615 -249.95026 835.40558
242.6357 -251.2151 839.63306
229.66835 -246.31993 836.81
242.15234 -245.28903 833.3078
99.800194 -244.35358 834.70514
210.23579 -244.35358 834.70514
242.15234 -243.9445 833.3078
101.14697 -243.00681 834.70514
158.10925 -243.6196 836.81
236.37854 -242.19453 831.9151
240.60643 -242.39709 832.61084
243.37465 -243.82454 837.51398
242.02333 -242.47324 837.51398
238.51808 -237.61971 834.70514
238.51808 -236.27293 834.70514
237.56969 -233.97173 836.10724
234.30972 -233.4068 838.92554
241.00957 -230.6924 834.00586
241.61681 -229.92461 836.10724
242.02333 -228.96016 837.51398
242.22711 -227.80049 838.21918
244.19638 -227.02148 840.3418
245.7597 -225.85626 841.05176
245.7597 -224.49925 841.05176
247.11671 -221.78522 841.05176
248.47372 -221.78522 841.05176
250.04199 -220.61458 841.76288
246.90813 -218.88626 840.3418
248.47372 -219.07118 841.05176
246.69987 -217.34692 839.63306
248.68382 -217.89825 841.76288
244.10986 -214.90471 835.40558
245.87041 -215.26599 836.81
245.25197 -213.37775 834.70514
244.84138 -211.67601 833.3078
244.63663 -210.15558 832.61084
246.39215 -210.50769 834.00586
242.55841 -209.33742 834.70514
243.29323 -208.81218 832.61084
244.72595 -208.69054 837.51398
243.99043 -207.86385 839.63306
244.40268 -202.787 841.05176
