# .PCD v0.7 - Point Cloud Data file format
VERSION 0.7
FIELDS x y z
SIZE 4 4 4
TYPE F F F
COUNT 1 1 1
WIDTH 170
HEIGHT 1
VIEWPOINT 0 0 0 1 0 0 0
POINTS 170
DATA ascii
241.28098 21.084972 839.63306
241.28098 22.439699 839.63306
241.07765 23.774374 838.92554
241.07765 25.127958 838.92554
239.72406 26.481544 838.92554
239.52222 27.811693 838.21918
239.52222 29.164139 838.21918
239.52222 30.516584 838.21918
239.72406 31.895885 838.92554
239.72406 33.24947 838.92554
239.72406 34.603054 838.92554
239.32072 35.896141 837.51398
239.52222 37.278812 838.21918
239.52222 38.631256 838.21918
239.52222 39.9837 838.21918
241.28098 40.051147 839.63306
239.52222 41.336147 838.21918
241.28098 41.405872 839.63306
241.28098 42.760601 839.63306
241.48463 44.152565 840.3418
241.48463 45.508434 840.3418
239.52222 46.74593 838.21918
241.28098 46.82478 839.63306
241.28098 48.179504 839.63306
241.28098 49.534233 839.63306
240.67203 50.760525 837.51398
240.67203 52.111832 837.51398
240.87466 54.8606 838.21918
244.40268 56.403008 841.05176
245.7597 57.760021 841.05176
245.7597 59.117039 841.05176
247.74461 59.26725 843.18878
247.74461 60.627712 843.18878
247.32567 61.88335 841.76288
247.11671 67.259132 841.05176
247.11671 68.61615 841.05176
247.11671 69.973167 841.05176
241.61681 72.259865 836.10724
247.32567 72.748657 841.76288
247.32567 75.464981 841.76288
247.11671 76.75824 841.05176
245.7597 78.115257 841.05176
247.11671 78.115257 841.05176
242.22711 79.20462 838.21918
244.40268 79.472275 841.05176
240.87466 80.55706 838.21918
240.87466 81.909508 838.21918
240.67203 84.543221 837.51398
240.67203 85.894524 837.51398
240.87466 87.31929 838.21918
242.22711 87.31929 838.21918
244.40268 87.614365 841.05176
246.17564 87.762657 842.47522
245.7597 88.971382 841.05176
245.7597 90.3284 841.05176
245.7597 91.685417 841.05176
243.04567 93.042435 841.05176
244.60933 93.121101 841.76288
245.9675 93.121101 841.76288
240.67203 94.002373 837.51398
241.61681 95.193512 836.10724
241.8199 96.623695 836.81
240.87466 98.138855 838.21918
240.87466 99.491302 838.21918
240.87466 100.84374 838.21918
240.87466 102.19619 838.21918
239.52222 103.54864 838.21918
239.52222 104.90108 838.21918
239.32072 106.16414 837.51398
239.32072 107.51545 837.51398
239.32072 108.86675 837.51398
239.32072 110.21806 837.51398
241.07765 110.40382 838.92554
241.07765 111.75741 838.92554
239.52222 113.01575 838.21918
239.72406 114.46458 838.92554
239.52222 115.72064 838.21918
241.07765 117.17175 838.92554
241.07765 118.52533 838.92554
239.72406 119.87891 838.92554
239.32072 121.02853 837.51398
239.32072 122.37983 837.51398
241.28098 124.0442 839.63306
239.52222 125.18776 838.21918
241.48463 125.50478 840.3418
241.48463 126.86065 840.3418
241.48463 128.21652 840.3418
239.72406 129.35402 838.92554
241.48463 129.57239 840.3418
239.72406 130.7076 838.92554
241.48463 130.92825 840.3418
241.48463 132.28413 840.3418
241.28098 133.52728 839.63306
240.87466 134.65488 838.21918
240.87466 136.00732 838.21918
240.87466 137.35977 838.21918
241.07765 138.8291 838.92554
241.07765 140.18269 838.92554
241.07765 141.53629 838.92554
241.28098 143.01038 839.63306
241.28098 144.3651 839.63306
241.28098 145.71983 839.63306
241.28098 147.07455 839.63306
241.48463 148.55458 840.3418
239.92624 149.78401 839.63306
241.89301 150.16396 841.76288
241.48463 151.26631 840.3418
241.89301 152.88028 841.76288
238.97462 154.10814 841.05176
240.33163 154.10814 841.05176
239.58183 155.86018 843.18878
239.37909 157.08759 842.47522
239.98836 158.85019 844.61951
233.54655 159.53621 841.05176
239.98836 160.21297 844.61951
238.57152 163.33128 839.63306
239.72406 164.54723 838.92554
239.52222 165.76112 838.21918
239.52222 167.11357 838.21918
238.16977 168.46602 838.21918
240.12877 170.2485 840.3418
237.06169 172.3317 843.90356
239.72406 171.31516 838.92554
238.42331 173.69331 843.90356
241.07765 172.66873 838.92554
237.26282 175.20346 844.61951
238.42331 175.05493 843.90356
241.07765 174.02232 838.92554
241.28098 175.52382 839.63306
239.52222 176.58069 838.21918
239.72406 178.08307 838.92554
239.72406 179.43666 838.92554
248.37572 180.80794 845.33673
238.97462 181.24846 841.05176
240.12877 181.09546 840.3418
247.95462 181.86302 843.90356
239.37909 182.91454 842.47522
249.10509 183.06946 843.18878
238.01978 184.27385 842.47522
249.10509 184.42992 843.18878
248.05461 185.0069 839.63306
238.22137 187.15085 843.18878
248.26399 186.51894 840.3418
247.11671 188.03354 841.05176
240.19214 190.35545 845.33673
247.11671 189.39055 841.05176
247.11671 190.74756 841.05176
244.81633 192.42972 842.47522
246.17564 192.42972 842.47522
247.53496 192.42972 842.47522
241.28098 193.13527 839.63306
241.07765 194.3261 838.92554
241.28098 198.55417 839.63306
243.66322 199.39502 843.18878
243.66322 200.75548 843.18878
241.68866 201.60368 841.05176
241.68866 202.96071 841.05176
241.68866 204.31772 841.05176
241.68866 205.67474 841.05176
240.12877 206.85699 840.3418
239.17668 208.56497 841.76288
237.6176 211.1028 841.05176
237.6176 212.45981 841.05176
236.26059 215.17384 841.05176
236.8609 217.08105 843.18878
238.22137 218.44151 843.18878
238.57152 218.87508 839.63306
239.72406 220.04422 838.92554
239.72406 221.3978 838.92554
239.17668 223.50476 841.76288
