# .PCD v0.7 - Point Cloud Data file format
VERSION 0.7
FIELDS x y z
SIZE 4 4 4
TYPE F F F
COUNT 1 1 1
WIDTH 191
HEIGHT 1
VIEWPOINT 0 0 0 1 0 0 0
POINTS 191
DATA ascii
-142.3468 -3.3056853 841.05176
-142.58772 -1.9519676 842.47522
-142.70848 -0.59315711 843.18878
-142.70848 0.76730669 843.18878
-141.34802 2.1277704 843.18878
-141.58786 6.2196975 844.61951
-141.46785 7.5760422 843.90356
-142.95064 8.9452419 844.61951
-143.07202 10.316767 845.33673
-141.46785 10.299276 843.90356
-141.46785 11.660893 843.90356
-141.34802 14.371944 843.18878
-141.22841 15.719094 842.47522
-141.22841 17.078407 842.47522
-139.75082 18.422131 841.76288
-138.50978 19.797031 842.47522
-138.62709 21.174263 843.18878
-139.98756 22.534727 843.18878
-139.86909 23.874969 842.47522
-139.75082 25.212946 841.76288
-139.86909 26.593594 842.47522
-139.86909 27.952908 842.47522
-139.75082 29.287436 841.76288
-141.10899 30.645597 841.76288
-142.58772 32.030846 842.47522
-141.10899 32.003761 841.76288
-142.58772 33.390156 842.47522
-142.58772 34.74947 842.47522
-141.46785 37.531616 843.90356
-153.59219 38.860294 843.18878
-141.46785 38.893234 843.90356
-153.46222 40.186718 842.47522
-152.10291 40.186718 842.47522
-150.87128 40.220757 843.18878
-141.46785 40.254852 843.90356
-153.46222 41.546032 842.47522
-142.95064 41.651775 844.61951
-141.46785 41.616467 843.90356
-153.46222 42.905346 842.47522
-153.59219 44.302147 843.18878
-153.59219 45.662613 843.18878
-153.59219 47.023075 843.18878
-154.82153 48.342594 842.47522
-153.59219 49.744003 843.18878
-142.82947 49.786171 843.90356
-153.59219 51.104465 843.18878
-142.70848 51.104465 843.18878
-153.59219 52.464931 843.18878
-142.70848 52.464931 843.18878
-153.59219 53.825394 843.18878
-152.23174 53.825394 843.18878
-150.99916 53.871021 843.90356
-142.82947 53.871021 843.90356
-152.23174 55.18586 843.18878
-141.46785 55.232639 843.90356
-141.70808 56.690365 845.33673
-141.70808 58.054295 845.33673
-141.58786 59.367813 844.61951
-141.46785 60.679108 843.90356
-141.58786 62.093361 844.61951
-141.70808 63.510014 845.33673
-141.70808 64.87394 845.33673
-141.58786 66.181679 844.61951
-142.95064 67.544449 844.61951
-142.95064 68.907219 844.61951
-141.58786 70.269989 844.61951
-137.26663 71.511421 843.18878
-137.26663 72.871887 843.18878
-137.26663 75.592812 843.18878
-137.15047 76.888153 842.47522
-141.46785 78.380127 843.90356
-140.10623 78.380127 843.90356
-138.50978 78.247467 842.47522
-142.82947 79.741745 843.90356
-141.46785 79.741745 843.90356
-142.82947 81.103363 843.90356
-142.82947 82.464981 843.90356
-141.34802 83.7556 843.18878
-141.34802 85.116058 843.18878
-141.34802 86.476524 843.18878
-141.34802 87.83699 843.18878
-141.34802 89.197449 843.18878
-141.46785 90.634682 843.90356
-143.07202 92.152534 845.33673
-141.70808 92.152534 845.33673
-143.07202 93.516457 845.33673
-143.07202 94.880386 845.33673
-143.1936 96.326111 846.05511
-142.06999 96.49012 847.49561
-142.06999 97.857529 847.49561
-142.19104 99.309486 848.21771
-142.19104 100.67806 848.21771
-142.06999 101.95977 847.49561
-141.94916 103.2393 846.77478
-141.94916 104.60555 846.77478
-143.1936 105.88173 846.05511
-142.95064 107.06484 844.61951
-144.43594 108.51968 845.33673
-143.07202 109.88361 845.33673
-141.70808 111.24754 845.33673
-141.70808 112.61147 845.33673
-141.82852 114.07227 846.05511
-84.710777 114.36384 848.21771
-141.82852 115.43736 846.05511
-142.06999 117.0013 847.49561
-142.06999 118.36872 847.49561
-142.95064 119.3298 844.61951
-142.95064 120.69257 844.61951
-143.07202 122.15898 845.33673
-143.07202 123.5229 845.33673
-144.43594 124.88683 845.33673
-144.31342 126.14365 844.61951
-142.95064 127.50642 844.61951
-143.1936 129.08824 846.05511
-141.82852 130.45332 846.05511
-140.34416 131.70648 845.33673
-140.34416 133.07042 845.33673
-138.74461 132.8448 843.90356
-137.49954 134.32028 844.61951
-136.60034 136.14508 847.49561
-135.23294 137.5125 847.49561
-58.707798 137.62965 848.21771
-133.75166 138.76178 846.77478
-133.75166 140.12804 846.77478
-135.57919 143.34825 849.66553
-133.75166 142.86053 846.77478
-142.43376 144.71916 849.66553
-141.06285 144.71916 849.66553
-136.48416 144.22678 846.77478
-135.1179 144.22678 846.77478
-142.55542 146.21486 850.39136
-139.69193 146.09007 849.66553
-138.08531 145.84113 848.21771
-132.83736 146.09007 849.66553
-131.46645 146.09007 849.66553
-142.55542 147.58694 850.39136
-142.55542 148.95903 850.39136
-142.55542 150.33112 850.39136
-143.43741 151.18663 847.49561
-142.43376 151.57373 849.66553
-143.31541 152.42429 846.77478
-143.31541 153.79053 846.77478
-142.43376 154.31555 849.66553
-143.07202 154.89328 845.33673
-143.07202 156.25722 845.33673
-142.95064 157.48741 844.61951
-141.58786 158.85019 844.61951
-141.70808 160.349 845.33673
-140.34416 161.71294 845.33673
-140.34416 163.07686 845.33673
-140.34416 165.80472 845.33673
-140.46344 167.31071 846.05511
-141.94916 168.81927 846.77478
-143.1936 170.04089 846.05511
-144.43594 171.26044 845.33673
-142.95064 171.11514 844.61951
-144.5587 172.77107 846.05511
-133.97958 173.21268 848.21771
-134.32292 175.02864 850.39136
-134.20827 176.25018 849.66553
-133.97958 177.31842 848.21771
-141.58786 177.929 844.61951
-136.25238 178.08008 845.33673
-156.27628 180.51698 850.39136
-143.31541 179.74927 846.77478
-156.27628 181.88907 850.39136
-154.50824 181.42415 848.21771
-153.13966 181.42415 848.21771
-143.1936 180.96159 846.05511
-143.1936 182.32669 846.05511
-143.43741 184.00453 847.49561
-143.55962 185.52988 848.21771
-143.80467 187.21748 849.66553
-145.29959 188.7495 850.39136
-143.80467 188.58839 849.66553
-143.92751 190.12158 850.39136
-138.55753 190.28412 851.11835
-136.9501 192.70114 849.66553
-136.83331 193.90656 848.94098
-136.9501 195.44298 849.66553
-138.20306 196.64606 848.94098
-139.21666 197.51051 846.77478
-139.09834 198.70775 846.05511
-138.98024 199.90295 845.33673
-137.49954 201.09613 844.61951
-136.13678 201.09613 844.61951
-135.46358 203.49478 848.94098
-135.46358 204.86452 848.94098
-135.23294 205.88313 847.49561
-135.00308 206.89828 846.05511
-134.88844 208.08653 845.33673
