# .PCD v0.7 - Point Cloud Data file format
VERSION 0.7
FIELDS x y z
SIZE 4 4 4
TYPE F F F
COUNT 1 1 1
WIDTH 171
HEIGHT 1
VIEWPOINT 0 0 0 1 0 0 0
POINTS 171
DATA ascii
-135.90617 -222.34875 843.18878
-135.79115 -220.80128 842.47522
-135.56172 -219.07118 841.05176
-135.4473 -217.5304 840.3418
-131.71323 -218.08266 842.47522
-130.46431 -218.26736 843.18878
-135.4473 -216.17453 840.3418
-134.09142 -216.17453 840.3418
-131.49068 -210.92909 841.05176
-132.84769 -209.57208 841.05176
-129.10385 -210.10458 843.18878
-127.74339 -210.10458 843.18878
-134.31818 -208.39111 841.76288
-135.67635 -207.03294 841.76288
-135.67635 -205.67479 841.76288
-135.67635 -204.31662 841.76288
-135.67635 -202.95847 841.76288
-135.90617 -201.9418 843.18878
-135.90617 -200.58133 843.18878
-135.67635 -198.88397 841.76288
-135.67635 -197.5258 841.76288
-135.67635 -196.16765 841.76288
-135.56172 -194.6449 841.05176
-135.56172 -193.28789 841.05176
-136.91873 -191.93088 841.05176
-136.91873 -190.57385 841.05176
-135.56172 -189.21684 841.05176
-135.79115 -188.17778 842.47522
-135.79115 -186.81847 842.47522
-135.90617 -185.61623 843.18878
-135.90617 -184.25577 843.18878
-135.90617 -182.89531 843.18878
-135.90617 -181.53484 843.18878
-136.02138 -180.3271 843.90356
-136.02138 -178.96548 843.90356
-136.02138 -177.60387 843.90356
-135.79115 -175.94397 842.47522
-135.90617 -174.73251 843.18878
-135.90617 -173.37206 843.18878
-136.13678 -172.30347 844.61951
-136.13678 -170.94069 844.61951
-136.13678 -169.57793 844.61951
-136.02138 -168.07256 843.90356
-134.65976 -166.71094 843.90356
-134.5457 -163.84882 843.18878
-134.5457 -162.48834 843.18878
-135.90617 -161.12788 843.18878
-135.56172 -159.36249 841.05176
-137.26663 -158.40695 843.18878
-138.86232 -157.31297 844.61951
-140.2251 -155.9502 844.61951
-138.86232 -155.9502 844.61951
-141.10899 -154.06459 841.76288
-139.98756 -154.32556 843.18878
-141.34802 -152.9651 843.18878
-141.34802 -151.60463 843.18878
-141.22841 -150.11703 842.47522
-139.86909 -150.11703 842.47522
-138.98024 -149.26297 845.33673
-138.98024 -146.53511 845.33673
-138.98024 -145.17119 845.33673
-137.383 -144.92506 843.90356
-137.383 -143.56345 843.90356
-135.90617 -143.44185 843.18878
-135.90617 -142.08139 843.18878
-135.90617 -140.72093 843.18878
-135.90617 -139.36046 843.18878
-135.79115 -137.88321 842.47522
-137.26663 -136.63954 843.18878
-137.26663 -135.27907 843.18878
-138.62709 -132.55814 843.18878
-138.50978 -131.08665 842.47522
-138.50978 -129.72734 842.47522
-138.62709 -128.47675 843.18878
-138.62709 -127.11629 843.18878
-137.26663 -127.11629 843.18878
-137.26663 -125.75582 843.18878
-137.26663 -124.39536 843.18878
-137.26663 -123.0349 843.18878
-137.26663 -121.67443 843.18878
-137.0345 -120.11051 841.76288
-136.91873 -118.65202 841.05176
-136.91873 -117.29501 841.05176
-137.15047 -116.13422 842.47522
-137.15047 -114.7749 842.47522
-137.26663 -113.51165 843.18878
-137.15047 -112.05628 842.47522
-137.15047 -110.69697 842.47522
-137.15047 -109.33765 842.47522
-137.15047 -107.97834 842.47522
-137.15047 -106.61903 842.47522
-137.0345 -105.17072 841.76288
-138.62709 -103.9884 843.18878
-138.62709 -102.62794 843.18878
-138.62709 -101.26748 843.18878
-136.91873 -101.01082 841.05176
-136.91873 -99.653801 841.05176
-136.91873 -98.296783 841.05176
-136.91873 -96.939774 841.05176
-135.56172 -95.582756 841.05176
-136.91873 -94.225739 841.05176
-136.91873 -92.868721 841.05176
-138.50978 -91.666588 842.47522
-138.50978 -90.307281 842.47522
-138.50978 -88.947968 842.47522
-136.91873 -87.440659 841.05176
-136.91873 -86.083641 841.05176
-136.91873 -84.726631 841.05176
-137.0345 -83.440102 841.76288
-135.56172 -82.012596 841.05176
-135.56172 -80.655579 841.05176
-135.56172 -79.298569 841.05176
-135.67635 -78.007454 841.76288
-137.26663 -76.779129 843.18878
-137.26663 -75.418663 843.18878
-137.26663 -74.058205 843.18878
-137.15047 -72.636215 842.47522
-137.15047 -71.276901 842.47522
-137.15047 -69.917595 842.47522
-137.15047 -68.558281 842.47522
-137.0345 -67.142151 841.76288
-138.39267 -65.783981 841.76288
-141.10899 -64.425819 841.76288
-139.75082 -64.425819 841.76288
-142.46716 -63.067657 841.76288
-143.94704 -61.761715 842.47522
-145.42941 -60.453564 843.18878
-143.70381 -60.300346 841.05176
-146.78989 -59.093098 843.18878
-141.10899 -58.993168 841.76288
-139.75082 -58.993168 841.76288
-145.42941 -57.732635 843.18878
-143.70381 -57.586315 841.05176
-136.91873 -56.229298 841.05176
-137.15047 -54.965153 842.47522
-137.15047 -53.605843 842.47522
-138.50978 -52.246529 842.47522
-138.39267 -50.844189 841.76288
-138.39267 -49.486027 841.76288
-138.39267 -48.127865 841.76288
-136.80316 -48.046612 840.3418
-136.80316 -46.690742 840.3418
-136.80316 -45.334873 840.3418
-135.4473 -43.979004 840.3418
-134.2047 -42.659142 841.05176
-134.2047 -41.302124 841.05176
-135.67635 -39.978886 841.76288
-137.15047 -38.653404 842.47522
-138.62709 -37.32568 843.18878
-138.62709 -35.965214 843.18878
-138.50978 -34.575466 842.47522
-139.86909 -33.216156 842.47522
-141.10899 -31.829906 841.76288
-144.06895 -30.523359 843.18878
-142.46716 -30.471743 841.76288
-144.06895 -29.162897 843.18878
-144.06895 -27.802433 843.18878
-142.46716 -26.397253 841.76288
-141.22841 -25.06028 842.47522
-142.70848 -21.000114 843.18878
-144.06895 -19.63965 843.18878
-142.3468 -18.232859 841.05176
-142.3468 -16.875843 841.05176
-141.22841 -15.545093 842.47522
-141.22841 -14.18578 842.47522
-141.22841 -12.826468 842.47522
-144.06895 -11.476868 843.18878
-144.06895 -10.116404 843.18878
-142.70848 -10.116404 843.18878
-139.86909 -6.0299048 842.47522
-141.10899 -4.6666436 841.76288
