# .PCD v0.7 - Point Cloud Data file format
VERSION 0.7
FIELDS x y z
SIZE 4 4 4
TYPE F F F
COUNT 1 1 1
WIDTH 208
HEIGHT 1
VIEWPOINT 0 0 0 1 0 0 0
POINTS 208
DATA ascii
-116.85968 -327.10446 843.18878
-115.30389 -326.5513 841.76288
-113.94573 -326.5513 841.76288
-112.49245 -326.27542 841.05176
-111.13544 -326.27542 841.05176
-109.77842 -326.27542 841.05176
-108.78903 -327.38174 843.90356
-107.42741 -327.38174 843.90356
-106.0658 -327.38174 843.90356
-104.35036 -326.27542 841.05176
-101.80835 -326.82764 842.47522
-100.44904 -326.82764 842.47522
-98.922295 -326.27542 841.05176
-97.482925 -326.00003 840.3418
-96.045982 -325.72507 839.63306
-94.691254 -325.72507 839.63306
-91.981796 -325.72507 839.63306
-90.627075 -325.72507 839.63306
-89.197121 -325.45059 838.92554
-87.843529 -325.45059 838.92554
-86.417122 -325.17657 838.21918
-85.13636 -325.45059 838.92554
-83.853439 -325.72507 839.63306
-82.638107 -326.27542 841.05176
-81.28109 -326.27542 841.05176
-79.856613 -326.00003 840.3418
-78.302452 -325.17657 838.21918
-76.950005 -325.17657 838.21918
-75.597565 -325.17657 838.21918
-74.370354 -325.72507 839.63306
-73.015625 -325.72507 839.63306
-71.660896 -325.72507 839.63306
-70.306175 -325.72507 839.63306
-69.009651 -326.00003 840.3418
-67.71093 -326.27542 841.05176
-66.35392 -326.27542 841.05176
-64.996902 -326.27542 841.05176
-63.586166 -326.00003 840.3418
-62.125416 -325.45059 838.92554
-60.771832 -325.45059 838.92554
-59.468357 -325.72507 839.63306
-58.162685 -326.00003 840.3418
-56.854809 -326.27542 841.05176
-55.497791 -326.27542 841.05176
-54.04945 -325.72507 839.63306
-52.694725 -325.72507 839.63306
-51.339996 -325.72507 839.63306
-49.985271 -325.72507 839.63306
-48.630543 -325.72507 839.63306
-47.275818 -325.72507 839.63306
-45.959854 -326.00003 840.3418
-44.603985 -326.00003 840.3418
-43.248112 -326.00003 840.3418
-41.892242 -326.00003 840.3418
-40.536373 -326.00003 840.3418
-39.180504 -326.00003 840.3418
-37.920658 -326.82764 842.47522
-36.561348 -326.82764 842.47522
-35.202034 -326.82764 842.47522
-33.785542 -326.27542 841.05176
-32.428524 -326.27542 841.05176
-31.04528 -326.00003 840.3418
-29.66437 -325.72507 839.63306
-28.309645 -325.72507 839.63306
-26.954918 -325.72507 839.63306
-25.578617 -325.45059 838.92554
-24.225033 -325.45059 838.92554
-22.890738 -325.72507 839.63306
-21.536011 -325.72507 839.63306
-20.181284 -325.72507 839.63306
-18.826557 -325.72507 839.63306
-17.47183 -325.72507 839.63306
-16.117104 -325.72507 839.63306
-14.749936 -325.45059 838.92554
-13.385072 -325.17657 838.21918
-12.032626 -325.17657 838.21918
-10.680182 -325.17657 838.21918
-9.3434696 -325.72507 839.63306
-7.9887428 -325.72507 839.63306
-6.6340165 -325.72507 839.63306
-5.2792897 -325.72507 839.63306
-3.9245629 -325.72507 839.63306
-2.5698361 -325.72507 839.63306
-1.2151095 -325.72507 839.63306
0.13961726 -325.72507 839.63306
1.4930847 -325.45059 838.92554
2.8514757 -326.00003 840.3418
4.2002549 -325.45059 838.92554
5.5538402 -325.45059 838.92554
6.9074249 -325.45059 838.92554
8.254055 -325.17657 838.21918
9.5984182 -324.90302 837.51398
10.949726 -324.90302 837.51398
12.301034 -324.90302 837.51398
13.652342 -324.90302 837.51398
15.003649 -324.90302 837.51398
16.368727 -325.17657 838.21918
17.721172 -325.17657 838.21918
19.089691 -325.45059 838.92554
20.443275 -325.45059 838.92554
21.796862 -325.45059 838.92554
23.150446 -325.45059 838.92554
24.4834 -325.17657 838.21918
25.81411 -324.90302 837.51398
27.18829 -325.17657 838.21918
28.540735 -325.17657 838.21918
29.918371 -325.45059 838.92554
31.271957 -325.45059 838.92554
32.653057 -325.72507 839.63306
34.036491 -326.00003 840.3418
35.392361 -326.00003 840.3418
36.779278 -326.27542 841.05176
38.104103 -326.00003 840.3418
39.426693 -325.72507 839.63306
40.781418 -325.72507 839.63306
42.065189 -325.17657 838.21918
43.417637 -325.17657 838.21918
44.770081 -325.17657 838.21918
46.044991 -324.62991 836.81
47.474972 -325.17657 838.21918
48.868565 -325.45059 838.92554
50.264507 -325.72507 839.63306
51.575733 -325.45059 838.92554
52.929317 -325.45059 838.92554
54.237198 -325.17657 838.21918
55.63649 -325.45059 838.92554
56.942089 -325.17657 838.21918
58.294537 -325.17657 838.21918
59.64698 -325.17657 838.21918
61.102318 -325.72507 839.63306
62.457047 -325.72507 839.63306
-116.66206 -325.19315 841.76288
-116.5635 -323.5614 841.05176
-121.78579 -318.95145 839.63306
-120.43106 -318.95145 839.63306
-116.76078 -320.0311 842.47522
-105.97597 -320.30215 843.18878
-127.74339 -318.94168 843.18878
-126.06261 -318.13333 841.05176
-124.7056 -318.13333 841.05176
-123.24446 -317.86481 840.3418
-118.12009 -318.67178 842.47522
-116.76078 -318.67178 842.47522
-129.10385 -317.58121 843.18878
-128.66794 -315.15305 840.3418
-131.60185 -314.32785 841.76288
-133.07254 -313.23453 842.47522
-133.18524 -312.13937 843.18878
-133.41124 -311.30624 844.61951
-133.52452 -310.20663 845.33673
-133.52452 -308.84271 845.33673
-133.52452 -307.47879 845.33673
-133.52452 -306.11487 845.33673
-130.79666 -303.38699 845.33673
-133.29814 -298.78778 843.90356
-134.774 -297.6785 844.61951
-133.41124 -296.31573 844.61951
-129.10385 -294.45334 843.18878
-129.10385 -293.09286 843.18878
-129.32292 -289.50186 844.61951
-126.06261 -288.27899 841.05176
-129.10385 -287.651 843.18878
-130.46431 -286.29056 843.18878
-129.10385 -284.93008 843.18878
-129.10385 -283.56961 843.18878
-129.10385 -282.20917 843.18878
-128.77664 -280.1369 841.05176
-124.7056 -280.1369 841.05176
-128.66794 -278.54456 840.3418
-127.31207 -278.54456 840.3418
-125.9562 -278.54456 840.3418
-123.76682 -279.72516 843.90356
-122.50906 -278.5997 844.61951
-121.24915 -277.47232 845.33673
-121.24915 -273.38055 845.33673
-122.19804 -271.09583 842.47522
-123.45287 -269.50845 841.76288
-124.91666 -268.37723 842.47522
-126.1692 -266.79211 841.76288
-127.85167 -266.10898 843.90356
-127.52737 -264.07581 841.76288
-127.63528 -262.93997 842.47522
-127.63528 -261.58066 842.47522
-127.63528 -260.22134 842.47522
-127.41962 -258.42465 841.05176
-127.41962 -257.06763 841.05176
-127.31207 -255.49477 840.3418
-127.41962 -254.35359 841.05176
-127.52737 -253.21049 841.76288
-127.52737 -251.85234 841.76288
-127.52737 -250.49417 841.76288
-127.41962 -248.92554 841.05176
-127.41962 -247.56851 841.05176
-128.77664 -246.2115 841.05176
-128.88553 -245.06152 841.76288
-127.52737 -243.70335 841.76288
-127.52737 -242.34518 841.76288
-128.9946 -241.19096 842.47522
-129.21329 -240.23825 843.90356
-116.5635 -239.42642 841.05176
-134.5457 -235.95338 843.18878
-135.90617 -234.59293 843.18878
-137.26663 -233.23247 843.18878
-138.62709 -230.51154 843.18878
-137.26663 -229.15108 843.18878
-135.79115 -227.59784 842.47522
-135.79115 -226.23853 842.47522
-134.31818 -224.68907 841.76288
