# .PCD v0.7 - Point Cloud Data file format
VERSION 0.7
FIELDS x y z
SIZE 4 4 4
TYPE F F F
COUNT 1 1 1
WIDTH 1555
HEIGHT 1
VIEWPOINT 0 0 0 1 0 0 0
POINTS 1555
DATA ascii
10.229152 -63.373158 276.80798
10.294341 -65.429832 278.2449
10.301908 -64.346336 276.89404
10.395243 -65.231308 277.08069
10.40827 -63.076466 277.58463
10.622991 -62.905891 278.47678
10.631611 -62.972897 276.88882
10.634471 -63.879936 276.70999
10.716401 -65.098999 278.38934
10.733456 -64.737366 276.92493
10.952016 -65.038887 277.7334
10.970606 -63.396118 276.54382
11.058517 -64.307526 276.70328
11.14536 -64.792595 278.55618
11.305024 -62.920681 276.36905
11.367771 -64.685722 277.85739
11.398276 -63.806049 276.55527
11.519471 -64.555244 276.8815
11.566365 -64.458023 278.69724
11.730363 -63.341976 276.36884
11.791395 -64.360428 278.00693
11.835583 -64.169014 276.61502
12.018944 -64.271744 277.3248
12.164597 -63.719913 276.41318
12.210696 -64.019821 278.14243
12.440994 -63.940876 277.46921
12.490046 -63.288174 276.19345
12.618157 -63.814663 276.76062
12.631169 -63.683361 278.28174
12.851134 -63.567825 277.57498
12.958744 -63.498154 276.41049
10.843203 -62.791237 277.77084
11.053919 -62.606468 278.65002
11.069489 -62.698082 277.08463
11.279916 -62.512295 277.96286
11.495793 -62.382278 277.24286
11.712742 -62.219593 278.14224
11.726562 -62.305008 276.57117
11.933345 -62.106316 277.43759
12.03302 -62.495831 276.14514
12.142773 -61.916988 278.31256
12.145793 -61.964149 276.70645
12.361477 -61.796986 277.60175
12.393211 -61.945854 276.08881
12.572309 -61.612633 278.48129
12.577645 -61.667999 276.88266
12.780006 -62.359478 275.93643
12.790791 -61.491844 277.76974
12.792783 -61.535366 276.16025
12.99149 -61.271603 278.61639
12.996988 -61.327541 277.01831
9.3979588 -53.911221 275.47745
9.4711046 -53.668282 277.42844
9.6730051 -53.452293 278.27902
9.8232746 -53.591919 275.63248
10.011215 -53.326485 276.43774
10.212609 -53.1087 277.28665
10.418376 -52.90641 278.14978
10.455151 -53.109592 275.03726
10.650217 -52.8694 275.86563
10.847578 -52.637337 276.70148
10.861365 -52.722633 275.13028
11.046379 -52.41037 277.54199
11.249589 -52.19902 278.39679
11.277922 -52.372303 275.25687
11.472712 -52.13113 276.08435
9.5866385 -50.389484 276.96866
9.7884007 -50.173008 277.81879
9.8977718 -50.16777 275.03952
9.9890537 -49.952602 278.66531
10.103476 -49.965256 275.90244
10.308887 -49.761703 276.7644
10.510318 -49.544052 277.61343
10.710879 -49.323322 278.45966
10.711566 -49.398682 275.23001
10.91579 -49.190926 276.0881
11.114858 -48.964901 276.92947
11.342764 -48.707554 278.2851
11.473793 -48.603428 275.40533
11.667715 -48.384869 277.35593
11.6697 -51.897743 276.91898
11.707008 -48.34391 276.20731
11.869972 -51.675991 277.76428
11.987759 -51.700562 275.0123
12.072897 -51.463631 278.61816
12.178287 -51.44429 275.82596
12.475824 -51.101494 277.08459
12.705854 -50.866711 278.46173
12.799463 -50.784 276.16071
13.003113 -50.545486 277.53949
12.185287 -47.843697 278.37769
12.231578 -47.782921 276.65793
12.246464 -47.743244 275.51541
12.47127 -47.52306 277.45828
12.748709 -47.18343 275.97162
12.967514 -46.963562 277.91599
12.986424 -46.923672 276.77249
13.045835 -63.326328 278.40219
13.265461 -63.209595 277.69434
13.462962 -62.978024 278.53064
13.483978 -63.088924 276.98288
13.683752 -62.943428 276.2019
13.112784 -61.892033 275.75345
13.207675 -62.769421 275.94791
13.210005 -61.150925 277.90494
13.216581 -61.210686 276.31036
13.409349 -60.925888 278.74722
13.415776 -60.985115 277.15213
13.461899 -61.184944 275.68588
13.538802 -62.310009 275.75662
13.626369 -60.83638 276.41498
13.629766 -60.811947 278.04196
13.679234 -62.849403 277.81189
13.839089 -60.658718 277.30066
13.845791 -60.718918 275.70648
13.873378 -61.833801 275.58264
13.874797 -62.61097 278.64191
13.898961 -62.733025 277.10437
13.994893 -62.581429 275.91049
14.048139 -60.468052 278.17444
14.048804 -60.506874 276.56064
14.087749 -62.470592 277.91238
14.155129 -60.94511 275.28452
14.244415 -60.305073 275.77487
14.257463 -60.314827 277.43317
14.290642 -62.258118 278.76617
14.304614 -62.344074 277.19559
14.314551 -62.177917 275.66177
14.460772 -60.103825 278.2883
14.464092 -60.15205 276.68314
14.497938 -62.09771 278.01831
14.505532 -60.335297 275.20169
14.525514 -62.231846 276.49188
14.586291 -61.338017 275.31348
14.666065 -59.972782 275.918
14.670905 -59.953461 277.54965
14.713744 -61.967442 277.29807
14.863515 -59.704567 278.37006
14.876783 -59.788029 276.79718
14.8901 -59.871662 275.22446
14.907867 -61.723907 278.12341
14.924663 -60.843311 275.15851
14.928059 -61.831886 276.573
15.044005 -61.601528 275.47546
15.073763 -59.554611 277.63177
15.118024 -61.57362 277.38483
15.130018 -59.52647 275.94177
15.270538 -59.320473 278.4657
15.278371 -59.421143 275.25925
15.283379 -59.402416 276.89145
15.315803 -61.343037 278.22202
15.330532 -61.431671 276.65387
15.363816 -61.197273 275.22751
15.523751 -61.184937 277.47626
15.543708 -61.292091 275.92511
15.694043 -60.742256 275.03174
15.724007 -60.963127 278.3215
15.732343 -61.029114 276.7326
15.927106 -60.787853 277.56003
15.951387 -60.910316 276.02289
16.123884 -60.553722 278.39395
16.131779 -60.618141 276.80365
16.24567 -60.573498 275.63654
16.330013 -60.389172 277.6423
16.527178 -60.156414 278.47751
16.531038 -60.206547 276.87408
16.637947 -60.156124 275.70276
15.478306 -59.161728 277.71936
15.676553 -58.9328 278.55807
15.684653 -58.997959 276.96844
15.706985 -58.962727 276.37924
15.70886 -58.94318 275.80939
15.731753 -58.922531 275.23425
15.883237 -58.770226 277.80823
16.076908 -58.525085 278.63211
16.237385 -58.420879 277.39777
16.258137 -58.400341 276.82318
16.264061 -58.361134 275.68292
16.279476 -58.379772 276.24844
16.432859 -58.163345 278.20923
13.127678 -50.461147 275.23071
13.301302 -50.224209 276.61703
13.507824 -50.004986 278.56445
13.585457 -49.903671 275.69809
13.776935 -49.685242 277.64929
14.035272 -49.346611 276.16745
14.077485 -49.305496 275.0181
14.221071 -49.14793 278.68945
14.257895 -49.08765 276.97208
14.466951 -48.751614 275.50256
14.49945 -48.827694 277.77197
14.672215 -48.589691 277.97849
14.682835 -48.493008 276.3089
14.699857 -48.548916 277.96771
14.742756 -48.488144 277.9436
13.208676 -46.586945 275.29968
13.437706 -46.405434 278.38022
13.441658 -46.327438 276.10172
13.461042 -46.365311 277.23563
13.856841 -45.733307 275.44098
13.883801 -45.770782 276.573
13.895559 -45.809059 277.7088
14.274237 -45.177956 275.91846
14.31841 -45.214523 277.04614
14.349185 -45.251801 278.17722
14.440169 -44.863632 275.02914
14.884188 -48.235165 277.11887
14.927932 -48.259079 277.87543
15.067294 -47.900494 275.65585
15.100358 -48.063946 277.82971
15.176761 -47.969151 277.80713
15.227845 -47.859493 277.78583
15.26494 -47.642845 276.46677
15.448689 -47.480312 277.76874
15.508267 -47.400097 277.7728
15.545469 -47.33699 277.76471
15.561324 -47.035515 275.26645
15.648762 -47.108704 277.52203
15.747996 -46.778446 276.08008
15.79977 -46.814617 277.20587
15.890407 -46.640522 277.36795
15.920184 -46.522137 276.89737
15.933687 -46.533176 277.2381
16.011576 -46.192287 275.45737
16.060759 -46.241009 276.94727
16.157879 -46.000301 276.80304
16.180023 -45.953426 276.78067
16.188158 -45.935745 276.27353
16.259729 -45.626389 275.4079
16.311157 -45.662579 276.53378
16.400572 -45.505924 276.60941
16.485859 -45.061646 275.36395
16.558201 -45.07729 275.91519
14.683626 -44.623024 276.39795
14.785864 -44.65654 277.51108
14.829547 -44.309753 275.51367
14.856594 -44.672268 278.06274
15.117161 -44.047375 276.302
15.19577 -44.062687 276.85168
15.319544 -44.075626 277.39001
15.42548 -43.720528 275.92258
15.546696 -44.083126 277.90247
15.621548 -43.520348 275.13828
15.671255 -43.659943 276.91553
15.691646 -44.161263 278.5
15.830003 -43.701485 277.64105
15.838431 -43.678993 277.57831
15.862936 -43.444225 276.11697
15.912523 -43.493572 277.24902
15.913684 -43.834633 278.06058
15.935591 -43.842556 278.13907
16.050722 -43.346432 276.88647
16.054749 -43.868958 278.40121
16.103325 -43.257652 275.79041
16.114378 -43.869473 278.50049
16.11714 -43.25407 275.88132
16.123844 -43.281879 276.64468
16.170073 -43.260624 276.26047
16.170425 -43.270634 276.43726
16.197533 -43.860386 278.62735
16.729733 -59.979206 277.71426
16.93 -59.757431 278.55951
16.961224 -59.755211 276.89972
17.035343 -59.737926 275.76718
17.195265 -59.495651 277.70151
17.250956 -59.453827 276.54877
17.344959 -59.409988 275.38641
17.419048 -59.236626 278.50583
16.752712 -57.763142 275.00378
16.757895 -57.840656 277.28003
16.780746 -57.781113 275.56613
16.786045 -57.819729 276.70358
16.787418 -57.800209 276.13385
16.930981 -57.603748 278.66647
16.963331 -57.5826 278.08896
17.261709 -57.261311 277.16644
17.286106 -57.201687 275.45218
17.292492 -57.220798 276.01996
17.294767 -57.240128 276.58878
17.444174 -57.023911 278.55054
17.465979 -57.003315 277.97568
17.711552 -58.915649 277.58481
17.742573 -56.644279 275.91986
17.743401 -58.894527 277.00742
17.744038 -56.624756 275.35013
17.753502 -56.663155 276.48651
17.754333 -56.682556 277.05569
17.771725 -58.873592 276.43094
17.81041 -58.852108 275.85187
17.844147 -58.830887 275.27402
17.915136 -56.446293 278.44522
17.934875 -56.425808 277.87088
17.955107 -58.655586 278.38419
18.179813 -56.048992 275.2536
18.181982 -56.087772 276.39185
18.185314 -56.06815 275.82162
18.185608 -56.107025 276.9603
18.235992 -58.33522 277.46606
18.258474 -58.31459 276.89105
18.278372 -58.294098 276.31665
18.300499 -58.273487 275.74173
18.319149 -58.253059 275.16766
18.379433 -55.869026 278.34155
18.402164 -55.848385 277.76645
18.457298 -58.076328 278.27103
18.722977 -57.737316 276.78732
18.729353 -57.756428 277.3551
18.748529 -57.716522 276.21155
18.775789 -57.695644 275.63531
18.788874 -57.675507 275.06265
18.950695 -57.497532 278.16006
19.193624 -57.179161 277.25146
19.197836 -57.159492 276.68103
19.211163 -57.139343 276.10828
19.224709 -57.119186 275.53552
19.41382 -56.920326 278.0567
19.638083 -56.583492 276.58337
19.644787 -56.544247 275.44293
19.645145 -56.563675 276.01224
19.648863 -56.602371 277.15005
19.863552 -56.343826 277.9567
20.062546 -55.969425 275.35095
20.068525 -56.008007 276.48822
20.070988 -55.98843 275.91821
20.074512 -56.08548 278.76425
20.080536 -56.026821 277.0546
20.289705 -55.768566 277.86258
18.584862 -55.474842 275.16479
18.590906 -55.493969 275.73267
18.5994 -55.51297 276.29993
18.600941 -55.532337 276.86893
18.818766 -55.293076 278.24414
18.819824 -55.273571 277.6745
18.964153 -54.902046 275.08246
18.976458 -54.920845 275.64874
18.984518 -54.939869 276.21613
18.987368 -54.959164 276.78479
19.190691 -54.701218 277.59427
19.206083 -54.719856 278.15979
19.319096 -54.330528 275.00623
19.339333 -54.348911 275.57053
19.357826 -54.367386 276.13528
19.36911 -54.386242 276.70181
19.555645 -54.129177 277.5155
19.567928 -54.14798 278.08182
19.679066 -53.778198 275.49811
19.709484 -53.796043 276.05984
19.722042 -53.814831 276.6261
19.923143 -53.557003 277.43613
19.931925 -53.575985 278.0033
19.996086 -53.208675 275.43137
20.034857 -53.226086 275.99103
20.065954 -53.243896 276.55261
20.270523 -52.985886 277.36176
20.302858 -53.003632 277.92303
20.310495 -52.639294 275.36526
16.720089 -44.496479 275.31796
19.256018 -41.750992 278.74713
19.310995 -42.785458 278.74945
19.366346 -43.855534 278.74576
19.584873 -41.265221 278.55237
19.648291 -42.295986 278.58908
19.783688 -44.315796 278.70547
20.045671 -42.853535 278.44876
20.207653 -40.026409 278.53125
20.282879 -40.842091 278.20847
20.3473 -52.656803 275.92545
20.381559 -52.67445 276.48624
20.450695 -52.748604 278.74643
20.463375 -55.395496 275.26318
20.473124 -55.414433 275.83014
20.476759 -55.433689 276.39862
20.486423 -55.452629 276.96558
20.489878 -55.510788 278.67285
20.572659 -52.417145 277.29877
20.601471 -52.07114 275.30508
20.605246 -52.434879 277.85999
20.639332 -52.088596 275.86496
20.671989 -52.106327 276.42615
20.696926 -55.194302 277.77325
20.788359 -52.177998 278.67453
20.858952 -54.821846 275.17676
20.860767 -54.841198 275.7457
20.868969 -54.860214 276.31302
20.88867 -54.878624 276.87747
20.92732 -54.934933 278.57593
21.091072 -54.620728 277.68716
21.229607 -54.249504 275.09659
21.240335 -54.268387 275.66327
21.249128 -54.287373 276.23047
21.264185 -54.306026 276.79605
21.325254 -54.361156 278.48889
21.471842 -54.047852 277.60446
21.586756 -53.677872 275.01978
21.591805 -53.697056 275.58789
21.604885 -53.715813 276.15402
21.630089 -53.733936 276.71707
21.716494 -53.787731 278.40356
21.836929 -53.475803 277.52567
21.932003 -53.126316 275.51535
21.955484 -53.144527 276.07886
21.977869 -53.162796 276.64264
22.080627 -53.215736 278.32501
22.196173 -52.904064 277.44833
22.263363 -52.556042 275.44504
22.282434 -52.574486 276.00964
22.308165 -52.592579 276.57257
22.414251 -52.64534 278.25412
22.534136 -52.333443 277.37637
22.540205 -52.658165 278.79193
22.575445 -51.986778 275.37955
22.612106 -52.004299 275.93973
22.633947 -52.022598 276.50363
22.742018 -52.075256 278.18469
22.853823 -52.088821 278.72604
20.874298 -51.848434 277.2359
20.875578 -51.50388 275.24908
20.899891 -51.866535 277.79886
20.910423 -51.521492 275.80975
20.967861 -51.537918 276.36472
21.079201 -51.609852 278.61435
21.128313 -50.937737 275.19849
21.155109 -51.280819 277.17822
21.175694 -50.954693 275.75598
21.178879 -51.299015 277.74167
21.220716 -50.971771 276.31409
21.329739 -51.043827 278.56427
21.380322 -50.371635 275.14804
21.420563 -50.388966 275.70734
21.421783 -50.713943 277.12411
21.452044 -50.7318 277.68591
21.486057 -50.404968 276.26031
21.610201 -50.476231 278.50671
21.620085 -49.806179 275.10068
21.652237 -50.148975 277.0791
21.677896 -49.822586 275.65558
21.67815 -50.167061 277.64197
21.724478 -49.839581 276.21329
21.824881 -49.242558 275.06207
21.846962 -49.910927 278.46011
21.883768 -49.258907 275.6167
21.883963 -49.583942 277.03375
21.91094 -49.601971 277.59637
21.942991 -49.275242 276.17123
22.081026 -49.345772 278.41415
22.086788 -49.020424 276.99564
22.087866 -48.695328 275.57828
22.131584 -49.037518 277.5538
22.134701 -48.712311 276.13593
22.281719 -48.782368 278.37659
22.299234 -48.456406 276.95511
22.343699 -48.473515 277.51337
22.847616 -51.764107 277.31052
22.887671 -51.417511 275.314
22.923546 -51.43507 275.87439
22.955935 -51.452816 276.43564
23.072956 -51.505001 278.11447
23.160734 -51.19479 277.24475
23.184507 -50.849052 275.25232
23.213169 -50.866989 275.81451
23.258558 -50.884052 276.37253
23.3878 -51.393997 278.72922
23.399872 -50.934959 278.04526
23.432909 -50.627628 277.18927
23.474943 -50.28093 275.19226
23.505682 -50.298759 275.75394
23.549511 -50.315903 276.31232
23.732166 -50.870071 278.60428
23.732821 -50.059006 277.12683
23.757957 -50.363281 277.96823
23.781404 -49.731411 275.69754
23.962917 -49.474609 276.51248
20.582235 -44.742512 278.58432
21.050358 -45.62521 278.65796
21.713299 -44.703056 278.27887
21.857622 -46.009445 278.58051
21.947472 -46.911404 278.74966
22.136017 -45.137123 278.2655
22.271816 -48.132805 275.54492
22.280659 -46.441959 278.56873
22.369305 -47.912373 278.61386
22.456942 -47.875813 276.35895
22.506674 -47.281456 275.22046
22.528252 -47.910957 277.47983
22.554123 -47.929043 278.04272
22.692347 -47.102226 278.31189
22.693197 -47.024391 276.03415
22.696939 -47.349239 277.45029
22.824518 -46.159042 275.16626
22.830158 -46.769936 276.86026
22.939692 -46.191879 276.27615
22.957268 -46.515999 277.68884
23.027769 -45.328804 275.41913
23.043871 -45.691895 277.97095
23.086748 -45.936893 277.09973
23.145298 -45.361519 276.52844
23.275055 -44.84074 277.6474
23.319014 -44.818981 277.06702
20.353447 -41.838017 278.28104
20.451509 -43.369854 278.35083
20.6957 -41.324387 278.14551
20.75387 -42.380733 278.15594
21.168215 -42.855598 278.10065
21.251673 -43.7887 278.23779
21.426851 -41.409645 277.82718
21.836609 -41.90686 277.7489
21.964312 -43.294254 277.96722
22.050976 -44.211727 278.12045
22.300131 -42.811989 277.79947
22.39114 -43.708286 277.97446
22.46785 -44.674278 278.07779
22.542944 -41.443146 277.44675
22.632566 -42.346207 277.61478
22.727324 -43.224243 277.80853
22.815983 -44.131996 277.97174
22.971542 -41.848549 277.46283
23.057985 -42.767105 277.61496
23.228535 -44.498695 275.67261
23.318113 -43.368839 275.10626
23.386345 -44.243141 276.4935
23.412045 -44.261238 277.05643
23.417994 -43.669182 275.92892
23.466732 -42.255325 275.09451
23.480804 -43.438072 277.34302
23.532953 -43.415882 276.76056
23.553574 -42.842503 276.19876
23.67766 -42.588722 277.02808
20.566402 -39.454693 278.45404
20.622032 -40.343571 278.05743
21.027655 -40.860947 277.9584
21.718134 -40.474503 277.57681
22.128777 -40.967415 277.50293
27.626314 -55.679363 278.65244
25.015423 -52.098652 278.63989
25.101255 -53.020176 278.78894
25.815207 -52.519344 278.52493
25.900284 -53.44455 278.6702
26.52689 -52.02956 278.24957
26.609432 -52.967121 278.38214
26.698311 -53.873798 278.54648
26.828642 -55.24839 278.77795
27.321579 -52.475075 278.1091
27.409758 -53.38517 278.26993
27.497118 -54.299255 278.42661
24.013409 -49.166359 275.65213
24.073032 -50.363197 278.46182
24.088665 -49.793041 277.89804
24.174541 -51.208324 278.68942
24.198921 -48.909351 276.46606
24.233871 -49.213108 277.30502
24.470037 -48.342243 276.41086
24.509132 -50.732048 278.51553
24.572052 -48.642475 277.23297
24.59326 -51.66188 278.65604
24.668894 -49.098042 277.88715
24.805992 -49.769726 278.29309
24.930801 -51.171223 278.49692
24.995358 -48.661366 277.67255
25.221918 -50.236893 278.2457
25.466997 -48.857002 277.9043
25.556669 -49.759819 278.0726
25.643202 -50.67794 278.22516
25.729486 -51.597267 278.37646
25.802181 -48.377831 277.73337
25.889559 -49.291828 277.89017
25.983652 -50.1731 278.0806
26.227671 -48.798386 277.73389
26.446007 -51.0839 278.12534
26.653667 -49.216465 277.73697
26.738634 -50.142212 277.88168
27.246319 -51.502018 278.01303
27.450317 -49.652428 277.60632
27.536106 -50.574169 277.75516
24.342154 -48.310074 275.30414
24.719839 -47.776257 276.36096
24.829149 -48.076103 277.18127
24.833517 -47.197983 275.77582
25.073097 -47.510426 277.13284
25.086115 -46.345703 275.44693
25.088421 -46.937325 276.57236
25.316523 -46.372478 276.52792
25.358622 -45.79797 275.96075
25.370569 -47.987114 277.70218
25.431274 -44.935703 275.10757
25.539024 -45.235634 275.92825
25.578836 -46.786633 277.17633
25.703794 -47.517483 277.52142
25.759588 -45.529629 276.72067
25.912647 -46.314148 276.99854
26.137787 -47.896591 277.56458
26.282452 -45.666252 277.00107
26.426834 -46.972347 277.30298
26.564453 -48.311417 277.57098
26.632654 -45.11388 276.9054
26.715469 -46.050114 277.03931
26.854216 -47.383682 277.31299
27.052383 -45.562511 276.87704
27.143751 -46.457066 277.05383
27.321005 -48.272888 277.37991
27.385292 -45.094421 276.69473
27.614807 -47.325466 277.14215
25.62686 -44.392017 275.64066
25.803213 -43.829895 275.60919
25.824127 -44.687237 276.4389
25.978226 -44.126286 276.41302
26.541132 -44.220078 276.72781
26.964146 -44.652691 276.71597
29.863214 -59.258469 278.78198
30.664322 -59.67271 278.67365
31.085962 -60.112026 278.65491
31.118483 -60.828308 275.14767
31.123159 -60.724476 275.01608
31.158268 -60.84716 275.40717
31.175474 -60.855427 275.45355
31.24423 -59.901421 275.29233
31.283695 -60.471642 275.83908
27.712587 -56.598751 278.80368
28.427967 -56.09095 278.54684
28.512243 -57.020061 278.68811
28.975271 -57.927593 278.73621
29.223993 -56.529957 278.41309
29.686666 -57.439213 278.45941
29.774256 -58.352173 278.61725
30.35643 -56.483807 278.1145
30.48789 -57.852882 278.35168
30.579229 -58.747578 278.52832
30.822508 -57.376469 278.17792
30.913168 -58.274471 278.35114
31.000031 -59.190979 278.50534
31.116472 -56.428261 277.94095
31.252451 -57.775311 278.20074
28.035702 -51.9734 277.84598
28.125013 -52.877975 278.01245
28.208353 -53.811649 278.14902
28.29421 -54.733067 278.29819
28.838034 -52.381676 277.7438
28.922493 -53.309898 277.88596
29.006281 -54.241386 278.02478
29.09602 -55.143887 278.19339
29.635811 -52.812141 277.6188
29.721943 -53.732212 277.76935
29.804586 -54.669289 277.9024
29.892969 -55.578388 278.06424
30.430222 -53.259018 277.47693
30.515673 -54.182415 277.62405
30.603611 -55.093681 277.78366
30.722776 -52.317684 277.23291
31.029102 -55.514217 277.78421
31.225567 -53.70134 277.33975
28.117535 -48.709431 277.24869
28.250404 -50.07164 277.49289
28.333195 -51.007999 277.62671
28.91902 -49.12183 277.14224
29.046894 -50.508389 277.36145
29.132584 -51.430614 277.50977
29.712982 -49.570896 276.99814
29.846304 -50.930904 277.24463
29.930454 -51.860626 277.38525
30.007774 -48.618652 276.76532
30.51055 -50.00238 276.8721
30.640341 -51.379601 277.10089
30.805187 -49.050892 276.63852
27.856798 -45.960625 276.78531
28.149158 -45.020233 276.54031
28.322067 -46.857231 276.84464
28.40914 -47.772717 276.99991
28.947897 -45.446022 276.42014
29.032686 -46.372643 276.56393
29.120369 -47.285145 276.72226
29.210342 -48.186501 276.89206
29.750092 -45.854969 276.31726
29.834417 -46.78384 276.45877
29.919825 -47.707443 276.60568
30.544523 -46.301743 276.17551
30.635342 -47.198975 276.34952
30.719589 -48.128227 276.49063
31.336445 -59.916016 275.83859
31.362335 -59.342358 275.27548
31.401392 -60.484898 276.37894
31.405378 -59.709698 278.40494
31.414419 -59.931362 276.38843
31.433825 -61.014832 275.79059
31.447989 -59.3573 275.82336
31.50444 -59.948742 276.93234
31.513248 -60.523815 278.66443
31.536716 -59.372082 276.37051
31.583973 -59.391937 276.9249
31.598177 -59.687992 277.77863
31.611986 -61.091106 276.2561
31.638391 -61.057293 276.39877
31.707884 -60.248619 277.76233
31.839386 -60.38768 275.16888
31.939939 -60.938526 278.67096
32.067936 -60.613674 276.03302
32.245247 -60.604946 278.35034
32.36813 -60.459866 277.2626
32.431561 -60.144573 275.84235
32.516052 -60.159576 276.39053
32.671791 -59.559643 275.22546
32.726013 -60.206879 278.04605
32.73262 -59.900936 277.19669
32.750332 -59.574959 275.77518
32.78635 -59.592514 276.33551
33.004112 -59.333809 277.14136
33.059158 -60.208805 278.53189
33.167892 -59.344643 277.66968
33.389931 -59.829193 278.25366
31.334616 -58.714718 278.33142
31.452879 -55.943119 277.77615
31.467716 -58.78397 275.26181
31.540976 -56.853619 277.93655
31.554226 -58.798866 275.80948
31.572193 -58.225624 275.24835
31.64576 -58.813499 276.35593
31.654913 -58.30809 278.08591
31.671957 -58.239826 275.79272
31.687468 -57.666714 275.23221
31.718693 -59.134705 277.75473
31.73279 -58.256073 276.34686
31.752497 -58.735027 276.9993
31.762812 -57.682198 275.78268
31.799692 -57.107964 275.21683
31.823114 -57.698475 276.33694
31.866211 -56.42292 277.71576
31.879992 -57.467674 277.75253
31.886618 -57.122837 275.7644
31.891365 -57.714333 276.88922
31.91165 -58.285561 277.44077
31.921585 -56.548702 275.19901
31.935141 -57.139732 276.32162
31.96073 -57.157837 276.88458
31.996403 -56.564217 275.74963
32.009483 -55.99123 275.18973
32.03426 -56.581673 276.30951
32.069057 -56.599289 276.87018
32.121735 -55.77697 277.1608
32.147732 -56.022854 276.29382
32.946777 -58.992332 275.16928
33.000298 -59.008965 275.72525
33.053253 -59.025627 276.28134
33.169849 -58.427753 275.1261
33.216309 -58.444756 275.68384
33.245453 -58.768269 277.0936
33.268742 -58.461449 276.24008
33.395115 -57.863056 275.08237
33.429371 -57.880703 275.64316
33.481121 -57.89743 276.19958
33.504517 -58.201794 277.04141
33.573647 -58.748356 277.60483
33.585533 -57.300194 275.04736
33.641083 -57.316719 275.60284
33.677277 -57.334263 276.16315
33.737984 -57.636665 276.99561
33.823917 -56.754257 275.56973
33.928833 -58.171715 277.53409
33.993248 -56.784245 276.66605
34.024406 -56.190865 275.53223
34.127316 -59.214153 278.10709
34.216156 -57.255871 277.26389
34.252369 -55.931622 276.33551
34.498203 -56.365742 276.96719
34.634426 -58.892662 278.58881
34.710052 -58.012947 277.46667
34.845646 -55.826824 276.8577
31.317059 -54.595291 277.51715
31.52091 -52.746403 277.10971
31.653439 -54.110298 277.3522
31.739063 -55.032825 277.50021
31.854801 -52.273552 276.93228
31.94606 -53.168629 277.10852
32.072212 -54.563576 277.31909
32.186695 -55.220703 277.15726
32.186913 -55.448498 275.72736
32.251057 -55.197872 276.57172
32.281158 -52.689869 276.93716
32.369938 -54.619324 275.98529
32.374466 -54.638535 276.55353
32.492878 -53.754414 275.11951
32.500328 -54.059616 275.96536
32.501259 -53.259464 276.83832
32.525475 -54.077744 276.52844
32.619854 -53.500484 275.94812
32.729019 -52.941895 275.9335
32.809315 -52.40427 276.49551
32.892334 -52.380455 275.9053
34.327549 -55.355373 275.76004
34.496319 -54.793648 275.73047
34.630531 -55.092186 276.54453
34.66124 -54.232124 275.70187
34.836929 -53.670036 275.67056
34.863785 -54.527069 276.49878
31.306158 -50.443413 276.73624
31.433609 -51.832043 276.95328
31.512804 -48.580925 276.34277
31.594687 -49.521713 276.47202
31.769327 -51.350262 276.78503
32.103252 -50.877216 276.60782
32.18998 -51.794388 276.76132
32.309086 -49.018692 276.21027
32.39761 -49.927105 276.3728
32.524933 -51.316334 276.58926
32.646145 -48.530365 276.04877
32.737682 -49.424095 276.22638
32.821426 -50.355797 276.36496
32.919914 -51.815804 276.45154
33.005753 -51.802197 275.32025
33.023251 -51.820721 275.88525
33.07008 -48.9585 276.04147
33.150063 -50.994503 276.15726
33.215019 -50.971642 275.57159
33.33754 -50.412346 275.55362
33.3825 -49.590431 275.84616
33.389179 -48.557716 275.78995
33.468086 -49.566486 275.25531
33.537754 -49.009972 275.25061
33.645386 -48.451462 275.23636
31.339762 -46.744591 276.03778
31.427114 -47.658699 276.19446
32.135361 -47.185669 275.90186
32.220627 -48.109962 276.04807
32.556622 -47.626835 275.8812
32.979172 -48.061703 275.867
34.993114 -57.117874 277.17508
35.036263 -58.446281 278.07443
35.281902 -56.194901 276.91217
35.429974 -57.483017 277.23257
35.433647 -58.071953 278.73199
35.599537 -57.863811 277.94595
35.620743 -55.697895 276.75958
35.707317 -56.615822 276.91232
35.820423 -57.61615 278.76193
36.024483 -57.320953 278.79898
36.042999 -56.134209 276.7439
36.127525 -57.283195 277.82632
36.179535 -57.13842 278.68915
36.343925 -57.051338 278.6033
36.373413 -57.019569 278.57254
36.379566 -55.648293 276.5799
36.481873 -56.489548 276.81149
36.653305 -56.702698 277.70724
36.657444 -56.686852 278.24149
36.811367 -56.038101 276.61206
36.871563 -56.424519 277.9436
37.134747 -56.124531 277.5993
37.182285 -56.124607 278.14035
37.391659 -55.844318 277.82596
37.434246 -55.851612 278.09445
34.997185 -53.108761 275.64313
34.997776 -52.536434 275.08636
35.11903 -51.977207 275.0687
35.20163 -55.246269 276.79099
35.323959 -53.124775 276.11557
35.443089 -53.884041 276.43146
35.482037 -52.263714 275.82538
35.536411 -54.769054 276.61804
35.869125 -54.30191 276.43475
35.955124 -55.222645 276.58463
36.063366 -52.499874 275.97916
36.158405 -53.376545 276.17432
36.290051 -54.744728 276.41238
36.403355 -51.997292 275.83228
36.491772 -52.906231 275.99426
36.581112 -53.81065 276.16092
36.717201 -55.157185 276.42123
36.821941 -52.451477 275.79822
37.049786 -54.690674 276.2373
37.14835 -55.550152 276.45013
37.293713 -53.316395 275.89014
37.383121 -54.220509 276.0571
37.480202 -55.087208 276.26251
37.577587 -55.528946 276.93164
37.622734 -55.541271 278.03555
37.625927 -52.851692 275.70435
37.714489 -53.75993 275.86703
37.812496 -54.622116 276.07712
37.880959 -55.265736 277.71603
38.025265 -55.081692 277.87244
38.047729 -53.290226 275.68637
38.061623 -54.950642 276.82303
38.104012 -54.982727 277.81705
38.143784 -54.161938 275.88666
38.303162 -54.711258 277.60046
38.339783 -52.351334 275.43985
38.346169 -54.648746 277.57355
38.478455 -53.685265 275.71313
38.501602 -54.374653 276.72546
38.518257 -54.393223 277.29068
35.354424 -50.859131 275.03519
35.44442 -51.426693 275.56924
35.466301 -50.3004 275.0199
35.628036 -50.864189 275.53598
35.975838 -51.58662 275.82159
36.220757 -50.207512 275.4794
36.314304 -51.091434 275.66711
36.644592 -50.636127 275.47165
36.734261 -51.538956 275.63992
37.069439 -51.059807 275.46896
37.535477 -51.952679 275.53214
37.824936 -51.026413 275.27261
38.699097 -54.180172 277.46747
38.751724 -54.111095 277.43091
38.762585 -52.784973 275.42691
38.894451 -53.813377 277.20209
38.940277 -53.798737 276.62823
39.118519 -53.522659 276.8746
39.282784 -53.347256 277.01541
39.311958 -53.206894 275.97839
39.360241 -53.238091 276.9541
39.480579 -52.264435 275.1832
39.560986 -52.979412 276.74054
39.590446 -52.943237 276.71762
39.629093 -52.875126 276.69336
39.657566 -52.635868 275.90451
39.731155 -52.651443 276.45544
39.855721 -52.497272 276.5853
39.936317 -52.368317 276.52991
40.060665 -52.061821 275.81619
40.069603 -52.070972 276.37378
38.62952 -51.423721 275.18173
39.051571 -51.861034 275.16501
-1.1710607 -68.747406 282.43497
-1.0469774 -68.696022 282.18289
-0.7963931 -68.656136 281.5824
-0.70092911 -68.785683 281.93597
-0.68150359 -68.585922 281.25592
-0.55335909 -68.557625 280.96411
-0.27899989 -68.556366 280.45035
-0.2667577 -68.399727 282.14032
-0.2288167 -68.979019 282.17014
-0.2051509 -68.678192 280.71933
-0.15352631 -68.506927 280.29971
-0.089779101 -68.785843 281.15689
-0.0231365 -68.363319 281.51132
0.0375016 -68.41893 280.13321
0.067393601 -68.504288 280.23453
0.16989741 -68.120583 282.33212
0.2510412 -69.134605 282.44308
0.26293999 -68.319397 279.98306
0.38394761 -68.284012 279.935
0.38544291 -68.964027 281.40662
0.40883529 -68.07225 281.68695
0.54007381 -68.694862 280.47153
0.60969567 -67.852577 282.53415
0.63739878 -67.982513 281.00909
0.77402562 -68.097076 279.92169
0.84852809 -67.803864 281.88864
0.86814481 -69.105759 281.69382
1.0084693 -68.906311 280.68704
1.0819738 -67.736076 281.22565
1.1700439 -68.085846 279.89526
1.2803746 -68.735527 280.19904
1.2902857 -67.542801 282.09702
1.3133987 -67.656479 280.55707
1.3571151 -69.216934 282.01242
1.4891165 -69.058052 280.96393
1.4915413 -69.186768 282.5549
1.5278795 -67.4897 281.44751
1.5370315 -67.976318 279.77365
1.731526 -67.2799 282.30374
1.7441564 -68.96946 280.39142
1.7501698 -67.382401 280.74829
1.8340888 -67.7033 279.40741
1.9612489 -67.198921 281.62866
1.9754153 -68.326851 279.84027
1.9861474 -69.149353 281.31885
2.0322435 -67.445465 280.2518
-1.2115778 -57.640667 279.02036
-1.0121731 -57.41584 279.86282
-0.80939329 -57.202969 280.71625
-0.74007058 -57.484974 279.32529
-0.72734988 -55.667789 279.75717
-0.60417122 -56.998745 281.57761
-0.54111159 -57.258568 280.16632
-0.46878091 -55.688988 279.17572
-0.39419261 -56.811371 282.45438
-0.33526599 -57.056553 281.02969
-0.27024609 -57.323318 279.62479
-0.13250551 -56.843613 281.88306
-0.067833498 -57.109146 280.47699
-0.0060076001 -57.364597 279.06171
0.1346945 -56.895382 281.32962
0.202153 -57.170784 279.93259
0.34364381 -56.704361 282.20306
0.40047151 -56.942108 280.77155
0.46539691 -57.208538 279.36633
0.60626233 -56.739902 281.63474
0.66744381 -56.993073 280.21735
0.82341927 -56.577953 282.53482
0.87030339 -56.780479 281.07104
0.93212271 -57.035912 279.65573
1.0866638 -56.615711 281.96854
1.1361258 -56.82737 280.51312
1.3461123 -56.640022 281.38992
1.3995819 -56.865879 279.94754
1.5609238 -56.469769 282.28241
1.5619606 -57.011929 278.95624
1.6095496 -56.678467 280.82428
1.8144289 -56.47303 281.68451
1.8712531 -56.710766 280.25299
2.027988 -56.836826 279.24338
2.0377612 -56.332954 282.60464
2.0772982 -56.509457 281.117
-0.51831973 -55.477055 280.63089
-0.31534699 -55.264866 281.48495
-0.2589286 -55.501163 280.05209
-0.1095465 -55.062695 282.34818
-0.053587601 -55.297363 280.91385
-0.0056385002 -55.503666 279.45352
0.1457749 -55.072388 281.75616
0.2026007 -55.310127 280.32465
0.2465193 -55.502151 278.85126
0.40318289 -55.089474 281.17096
0.45810291 -55.320465 279.73325
0.61504549 -54.908772 282.05383
0.66055012 -55.106415 280.5856
0.70917702 -55.315113 279.12747
0.86951232 -54.91544 281.45908
0.91393822 -55.109261 279.9873
1.0736851 -54.7075 282.31702
1.1198393 -54.907444 280.85086
1.1683453 -55.115715 279.39236
1.3257514 -54.705666 281.71445
1.3721321 -54.90641 280.24905
1.5362015 -54.519962 282.59277
1.5788099 -54.707344 281.11511
1.6246642 -54.906223 279.64801
1.7901602 -54.52483 281.99637
1.8323114 -54.710594 280.51721
1.8733845 -54.892536 279.03458
2.0355787 -54.499447 281.37222
2.0785482 -54.68811 279.89572
1.4802692 -48.076569 280.02655
1.6662621 -48.106628 279.63181
1.7376986 -48.02533 279.93378
1.9260205 -48.132038 279.05423
1.9878238 -47.9856 279.8298
2.0253482 -46.621616 279.76718
2.0441544 -46.536354 280.23099
2.1134515 -67.345566 278.98837
2.1751394 -67.025406 282.51813
2.1964447 -67.137337 280.97134
2.2077308 -69.003082 282.23331
2.2332201 -69.080185 280.71051
2.4010701 -66.931 281.83075
2.4113741 -68.696381 279.89328
2.4263008 -67.052177 280.29767
2.4598165 -69.00132 281.63083
2.5816605 -67.681 279.17712
2.6376679 -66.874374 281.17798
2.6564009 -67.111221 279.18533
2.6630139 -68.789925 282.4856
2.6857107 -66.98925 279.73721
2.7140765 -69.007256 281.03537
2.734607 -68.275444 279.66245
2.8675966 -68.967155 280.04779
2.8703241 -66.803787 280.51242
2.91625 -68.792236 281.88684
3.0424504 -67.92952 279.35452
3.0769503 -66.604538 281.37833
3.1690702 -68.793068 281.28671
3.3123336 -66.543617 280.72165
3.3263803 -67.700127 278.92679
3.3697164 -68.572639 282.13321
3.4245052 -68.803169 280.6951
3.4492986 -66.599648 279.64786
3.4914813 -68.235344 279.47302
3.6220927 -68.571899 281.53165
3.665143 -68.760849 280.05542
3.6867006 -66.545876 278.99771
3.7900832 -67.934448 279.1188
3.8240788 -68.356216 282.38251
3.9444425 -68.522011 279.61121
4.0741758 -68.347412 281.77356
4.2225981 -68.444023 280.73697
4.276155 -68.131699 282.62439
4.4709802 -68.429138 280.12244
4.542634 -67.915413 278.90768
4.7320938 -68.331917 279.57599
4.7717109 -68.097649 281.39142
4.9724503 -67.877548 282.23822
5.2694535 -68.07135 280.16556
5.4644175 -67.830788 280.99362
5.5059175 -68.014252 279.51236
5.6654701 -67.611801 281.84143
3.2879024 -66.420616 282.25827
3.856802 -66.180786 281.36102
3.897759 -66.36232 279.87799
4.0657187 -65.989655 282.23434
4.1237831 -66.268242 279.19092
4.4492197 -66.024261 280.54007
4.577765 -66.050476 279.43896
4.6484284 -65.798744 281.3819
4.8526959 -65.591141 282.24014
5.1350203 -65.732941 280.11984
5.3405871 -65.529945 280.98233
5.542964 -65.315643 281.83444
5.6161957 -65.647957 278.84024
2.2946727 -56.348282 282.01782
2.3362544 -56.532024 280.5368
2.4912546 -56.651943 279.52158
2.5469406 -56.34716 281.41589
2.7547834 -56.690708 278.95621
2.7682829 -56.200035 282.32956
2.7998812 -56.348419 280.81619
2.9516554 -56.456909 279.79047
3.0198071 -56.196278 281.72525
3.2374737 -56.036137 282.62698
3.2705002 -56.189579 281.11823
3.4182324 -56.283752 280.07941
3.483927 -56.01442 282.0062
3.5754907 -56.411667 279.0715
3.7347827 -56.008297 281.39972
3.8802803 -56.094555 280.35364
3.951555 -55.844986 282.29855
4.2046623 -55.846836 281.69937
4.3975997 -56.137592 279.19131
4.421113 -55.682388 282.59717
4.7000842 -55.812313 280.46597
5.210145 -55.829639 279.28009
2.2436025 -54.305149 282.24268
2.2875376 -54.497231 280.76932
2.3276603 -54.675808 279.2836
2.5243242 -54.441273 280.11716
2.7385063 -54.268791 281.0076
2.9469192 -54.075871 281.8793
3.1259897 -54.317505 279.32623
3.3289907 -54.105419 280.18036
3.539304 -53.919228 281.05826
3.7452095 -53.717426 281.92181
3.8208277 -54.058197 278.93533
4.0222907 -53.84066 279.78448
4.2291794 -53.642342 280.65125
4.4345059 -53.438488 281.51294
4.6411052 -53.239143 282.37875
4.7025995 -53.529884 279.34647
4.9072771 -53.323734 280.20602
5.0262423 -55.570889 281.81747
5.1127753 -53.120491 281.06827
5.3244944 -52.939281 281.95071
5.4833364 -53.109268 279.332
5.5095806 -55.493565 280.54486
5.5890398 -55.272984 282.51633
5.6855936 -52.894547 280.18372
5.7219758 -55.314751 281.4295
2.0986338 -47.944248 279.78207
2.1191096 -46.556599 280.15479
2.2392344 -46.808643 279.9064
2.3028612 -46.709915 279.24722
2.3653409 -47.862339 279.2547
2.5064509 -47.204544 279.58694
5.9555631 -67.78112 279.74634
6.1567388 -67.562569 280.59457
6.3518653 -67.322586 281.42316
6.5365252 -67.584023 278.88821
6.5578423 -67.12104 282.28693
6.7409949 -67.377136 279.74713
6.9371858 -67.140923 280.57916
7.142498 -66.937019 281.4408
7.3248334 -67.190224 278.89835
7.513979 -66.929054 279.70752
7.6812978 -66.554115 282.0618
7.7180395 -66.720718 280.56509
7.9193769 -66.502739 281.41385
8.1901512 -66.60363 279.25604
5.8223619 -65.447083 279.70465
6.030746 -65.254059 280.57626
6.2314181 -65.033722 281.42282
6.3969846 -65.227524 278.82596
6.4322386 -64.813904 282.2699
6.6113415 -65.055656 279.71695
6.8225641 -64.872688 280.59778
7.0178552 -64.633293 281.42688
7.1829882 -64.825562 278.82858
7.2209992 -64.421715 282.28149
7.3995676 -64.661568 279.72681
7.6049557 -64.457939 280.58868
7.629704 -64.582062 279.05307
7.7993402 -64.215332 281.41486
7.998662 -63.990204 282.25705
8.0737638 -64.329147 279.26892
8.2778015 -64.120728 280.12643
8.3898411 -66.379814 280.09946
8.4591103 -66.123138 282.03784
8.4777708 -63.8979 280.97073
8.5144711 -64.064362 279.47388
8.5920229 -66.164825 280.95093
8.6794872 -63.681267 281.82068
8.7184811 -63.855843 280.3313
8.9168758 -63.627445 281.1705
8.9567308 -63.805065 279.6839
8.9630394 -66.15522 279.21613
9.1193523 -63.413494 282.02292
9.1312256 -65.783348 281.57321
9.1577702 -65.913834 280.04343
9.1581278 -63.587299 280.53284
9.3302202 -65.557068 282.41434
9.3519192 -63.342594 281.35709
9.3623848 -65.707458 280.9028
5.8942161 -52.70237 281.05612
5.9065418 -55.575851 278.89426
6.1035128 -52.512581 281.93069
6.1134639 -55.377651 279.76114
6.251183 -52.642998 279.27573
6.2828436 -55.01001 282.1221
6.3127894 -55.152542 280.60333
6.4571686 -52.441479 280.13953
6.5146418 -54.936386 281.45377
6.6654 -52.247917 281.01065
6.7996101 -55.087551 279.34204
6.8701043 -52.041859 281.87033
7.0025573 -54.875275 280.19601
7.0146646 -52.161263 279.20526
7.0860009 -54.668808 282.18042
7.2109637 -54.682331 281.06769
7.5435982 -54.463848 282.44022
7.5840235 -54.679958 279.33951
7.7651701 -54.354 281.73868
7.789196 -54.475563 280.20071
8.0039387 -54.305061 281.09296
8.2943172 -53.936905 282.32834
8.3619041 -54.249229 279.3158
8.5414009 -53.917419 281.70959
8.5647087 -54.036442 280.16931
8.7687473 -53.82803 281.02679
8.9916744 -53.68652 281.94562
9.1204567 -53.750034 279.22934
9.1665773 -54.058899 282.56509
9.2274513 -53.626987 281.29019
9.3296328 -53.559818 280.10352
6.0500484 -48.438477 282.57199
6.500504 -49.407276 282.5571
6.5726752 -50.395386 282.6377
6.9937325 -50.83754 282.616
7.0141535 -51.620964 282.53314
7.2158632 -51.942791 280.05356
7.2288957 -48.836063 282.36545
7.3050294 -49.804859 282.46591
7.4293799 -51.767948 280.94183
7.6314383 -51.552521 281.79291
7.7253847 -50.250435 282.4407
7.7523661 -51.049725 282.38068
7.8732333 -51.550766 279.54108
8.0275431 -49.262295 282.24481
8.0837736 -51.365379 280.41968
8.2886419 -51.159908 281.27988
8.3725071 -48.735455 282.12289
8.4447184 -49.723362 282.20367
8.4675455 -50.862465 282.05582
8.6297054 -51.044205 279.44785
8.8357468 -50.842884 280.31186
8.8463364 -50.378372 282.05981
9.0450335 -50.653061 281.1864
9.1360865 -48.66267 281.96704
9.2028828 -49.676971 282.02072
9.2620163 -50.563423 278.85403
5.9664006 -46.905766 282.55984
5.9835863 -46.861599 282.63763
5.9989161 -47.347836 282.5968
6.2430344 -46.842407 282.63806
6.3717966 -46.779533 282.59491
6.5558567 -46.772049 282.61908
6.796845 -47.777569 282.47256
7.1767488 -46.76849 282.59113
7.2757163 -46.76548 282.57001
7.5586796 -47.713287 282.30798
7.5624557 -46.754967 282.52405
7.6312814 -46.741596 282.52313
7.9064612 -46.976395 282.24133
8.3238182 -47.632904 282.15994
8.6773129 -46.986328 282.09717
8.7264814 -48.091602 282.06143
9.0859613 -47.56712 281.99692
9.401248 -63.55378 279.90125
9.5588493 -63.144424 282.22397
9.591938 -65.625885 280.22717
9.5924349 -63.299843 280.71704
9.7902937 -63.069546 281.5545
9.8272181 -65.56459 279.57013
9.8346291 -63.263035 280.08243
9.8948355 -65.302071 281.50317
9.960166 -63.278595 278.97159
9.9962358 -62.867867 282.41818
10.023737 -65.329544 280.40323
10.027936 -63.016617 280.90512
10.055767 -65.479462 278.89124
10.098565 -65.09256 282.35968
10.254178 -65.251114 279.7305
10.268585 -62.974342 280.2655
10.327227 -65.007828 281.68115
10.400615 -63.01289 279.17572
10.456886 -65.037987 280.58368
10.484201 -65.171204 279.0564
10.529309 -64.79248 282.53232
10.681789 -64.939934 279.89297
10.756456 -64.702385 281.84888
10.885684 -64.731018 280.75
10.911162 -64.857719 279.21674
11.111251 -64.635315 280.06143
11.182531 -64.385765 282.00638
11.31507 -64.426125 280.91824
11.338666 -64.546165 279.37888
11.538523 -64.322937 280.22281
11.610572 -64.076111 282.17023
11.739503 -64.103691 281.07037
11.759947 -64.21257 279.52078
11.964375 -64.005539 280.37958
11.988433 -64.127213 278.84171
12.040154 -63.771927 282.33911
12.163059 -63.77816 281.2197
12.183545 -63.887188 279.67026
12.386854 -63.676186 280.52539
12.405494 -63.778667 278.96994
12.466029 -63.454597 282.49594
12.586571 -63.452461 281.36887
12.607035 -63.561409 279.81934
12.807197 -63.339264 280.66428
12.824403 -63.43668 279.10416
13.004083 -63.105515 281.49857
13.025948 -63.219429 279.95358
10.229156 -62.798225 281.75348
10.435792 -62.599003 282.61942
10.46498 -62.73885 281.09821
10.662421 -62.507072 281.9343
10.70418 -62.691444 280.45389
10.830206 -62.708736 279.3446
10.895052 -62.436394 281.26865
11.100966 -62.234623 282.13226
11.132215 -62.381767 280.61774
11.259574 -62.403782 279.51279
11.330065 -62.15144 281.45514
11.488522 -62.320061 278.83517
11.524937 -61.910553 282.2829
11.561845 -62.077747 280.78674
11.69271 -62.112179 279.69318
11.758743 -61.844044 281.62109
11.916225 -62.009216 278.99796
11.95861 -61.62085 282.46506
11.99065 -61.770805 280.95309
12.119355 -61.797585 279.85251
12.186813 -61.534496 281.78503
12.343925 -61.698353 279.16071
12.373586 -61.264923 282.58652
12.415359 -61.449345 281.10614
12.547424 -61.488029 280.01648
12.623483 -61.255405 281.9769
12.767528 -61.372982 279.31018
12.841335 -61.132385 281.26331
12.968762 -61.154636 280.1586
13.036429 -60.892288 282.0918
10.909861 -56.209633 282.63376
11.630572 -55.675846 282.40366
11.714057 -56.608818 282.54092
12.431136 -56.092739 282.2926
12.516038 -57.018803 282.43698
12.598737 -57.955605 282.57034
9.4029436 -53.317463 282.05505
9.5856657 -54.510647 282.53357
9.6701298 -53.315544 281.4494
9.8834705 -53.266644 279.15738
9.8883543 -53.519924 282.3403
9.8938503 -53.266945 280.80701
10.011738 -54.928364 282.53702
10.085598 -53.05146 280.00867
10.09289 -52.740459 281.35614
10.155015 -52.704781 281.96655
10.308082 -53.968555 282.31198
10.605213 -53.004913 282.09088
10.613884 -52.667782 278.97961
10.623439 -52.665157 280.62656
10.730476 -54.404194 282.297
10.824803 -55.284325 282.48862
10.829891 -52.501759 279.87595
10.844267 -52.324314 281.5788
11.024967 -53.453419 282.06268
11.03189 -52.286121 280.72684
11.365802 -52.946705 281.92007
11.449665 -53.877831 282.05923
11.450888 -51.980904 279.24542
11.543896 -54.758434 282.25037
11.660022 -51.997253 281.68439
11.789618 -53.375412 281.9122
12.087218 -52.409489 281.69348
12.217957 -53.782082 281.92703
12.352675 -55.135284 282.18051
12.51152 -52.835827 281.68805
12.854094 -52.320644 281.55414
12.938712 -53.248085 281.69711
13.032043 -54.133068 281.88373
9.4667463 -50.357456 279.71381
9.550868 -49.135403 281.91394
9.5549202 -50.167747 281.71356
9.6740351 -50.160557 280.58185
9.8978815 -48.598583 281.80228
10.196075 -49.754757 279.5325
10.199341 -49.729858 281.15903
10.404489 -49.561832 280.40421
10.604885 -49.340523 281.24988
10.657776 -48.543758 281.62796
10.918749 -49.128475 279.32959
11.129079 -48.942348 280.20752
11.32476 -48.704334 281.0379
11.450239 -51.942142 280.85925
11.586442 -48.486378 280.22324
11.615829 -48.445938 279.07709
11.702106 -51.79739 280.11774
11.867701 -51.595016 280.98877
12.273298 -51.242332 279.46387
12.351987 -51.24926 281.10629
12.423449 -51.925209 281.5278
12.496978 -51.103489 280.3851
12.783196 -50.757061 279.99106
12.935886 -50.607361 279.2645
13.002201 -50.662216 280.95602
9.4408312 -46.992004 281.92462
9.4937792 -48.088943 281.90573
9.8508711 -47.487854 281.84775
9.9613457 -46.52261 282.49081
10.206428 -46.961597 281.76794
10.252956 -48.057526 281.72363
10.610563 -47.498394 281.65891
10.675405 -46.331379 282.16232
10.966774 -46.934319 281.58966
11.006689 -48.006817 281.5239
11.161466 -46.227238 282.51447
11.36242 -47.418362 281.45786
11.42045 -46.249908 281.93439
11.707684 -46.372631 281.44595
11.714334 -48.258434 281.07693
11.889202 -46.084454 282.23038
12.096656 -47.786842 281.09241
12.098787 -46.86327 281.29465
12.154283 -47.88422 279.52423
12.430736 -47.622429 280.31537
12.460257 -46.317822 281.24243
12.469644 -47.282192 281.07761
12.589561 -45.8447 281.85739
12.714656 -47.282455 278.82709
12.824337 -46.712738 281.00342
12.85763 -45.899544 281.30676
12.939335 -47.042831 280.20059
13.23113 -63.015064 280.81479
13.244237 -63.097954 279.24139
13.445821 -62.880852 280.09094
16.517626 -63.314236 282.60193
13.145523 -60.34758 282.64114
13.193115 -61.054642 279.46609
13.265101 -60.80759 281.4133
13.386591 -60.808811 280.28931
13.429206 -62.78553 281.65295
13.474415 -59.34626 282.55466
13.611152 -60.709553 279.59747
13.624766 -62.633022 282.4649
13.651406 -62.677914 280.95346
13.66223 -62.752708 279.37265
13.696532 -60.509945 281.58817
13.804851 -60.464516 280.42142
13.828373 -60.584297 278.88184
13.847822 -60.114697 282.27448
13.849877 -62.449776 281.79291
13.865596 -62.541916 280.22797
14.026049 -60.353344 279.71869
14.066555 -62.322594 281.0755
14.077653 -62.398369 279.49557
14.105206 -60.131695 281.68918
14.213683 -59.584801 282.23654
14.2251 -60.127262 280.56
14.244932 -60.233974 279.00842
14.267275 -62.102425 281.92221
14.280086 -62.184265 280.34787
14.440787 -59.996574 279.83939
14.44869 -62.266151 282.61145
14.480418 -61.962723 281.19333
14.489244 -62.030449 279.60605
14.494029 -59.683132 281.72577
14.633245 -59.747143 280.6593
14.652646 -59.852325 279.10632
14.693997 -61.824566 280.46588
14.701847 -61.888836 278.8754
14.76505 -61.878712 282.34619
14.849256 -59.617596 279.93973
14.89012 -61.588112 281.29767
14.902657 -61.668983 279.72244
14.905812 -59.315895 281.83685
15.041919 -59.368889 280.76031
15.062175 -59.477104 279.21011
15.081221 -61.492199 282.07999
15.104527 -61.452888 280.57291
15.11078 -61.511501 278.97726
15.23889 -62.063633 282.58899
15.257176 -59.236679 280.03827
15.299829 -61.213535 281.40207
15.313812 -61.299526 279.83148
15.512342 -61.071602 280.67111
15.518968 -61.131531 279.07669
15.57275 -61.590904 282.41144
15.666569 -62.473518 282.60049
15.714681 -60.857166 281.5231
15.719037 -60.909061 279.92133
15.905773 -61.122257 282.22968
15.918361 -60.683945 280.76352
15.922066 -60.733536 279.15961
16.004581 -61.980553 282.44373
16.125523 -60.523056 280.01523
16.133081 -60.498901 281.65872
16.317686 -60.272579 280.83417
16.343262 -61.484337 282.29031
16.425877 -62.421551 282.42325
16.528732 -60.125454 280.09848
16.62355 -60.602776 281.98483
13.055236 -58.894951 282.58572
13.23576 -56.489841 282.2019
13.320099 -57.418648 282.34348
13.39775 -58.380051 282.45154
13.811706 -58.856815 282.39426
13.957682 -55.950161 281.97784
14.039134 -56.893036 282.10495
14.121927 -57.829376 282.23877
14.532974 -58.320316 282.16693
14.757302 -56.371647 281.86209
14.838933 -57.313656 281.99008
15.255446 -57.777954 281.94565
15.302977 -58.896881 281.90051
15.448634 -58.983704 280.85495
15.465643 -59.080414 279.29422
15.553514 -56.80975 281.72925
15.660288 -58.83873 280.12125
15.661214 -58.294621 281.84735
15.848498 -58.574253 280.92737
15.86712 -58.676666 279.37186
15.898644 -56.282097 281.60815
15.966943 -57.289078 281.66934
16.064928 -58.44619 280.20917
16.236504 -55.789879 281.45062
16.250036 -58.170727 281.00522
16.267994 -58.270798 279.44757
16.304834 -56.796703 281.51199
16.576298 -57.947441 280.17249
16.649784 -56.269939 281.38998
16.653198 -57.772949 281.08835
16.663532 -57.84602 279.50595
13.155205 -55.542595 282.07932
13.660746 -52.707855 281.47363
13.754807 -53.589279 281.66391
13.835973 -54.533558 281.78955
14.429426 -52.610214 281.34332
14.557907 -53.993813 281.56555
14.635648 -54.954777 281.67407
15.23934 -52.981537 281.27914
15.359047 -54.407898 281.45743
15.437256 -55.366581 281.56827
15.915206 -51.996399 280.96481
16.036476 -53.415131 281.15094
16.156544 -54.839737 281.33099
13.156556 -51.331013 281.35977
13.186497 -50.359779 280.07462
