# .PCD v0.7 - Point Cloud Data file format
VERSION 0.7
FIELDS x y z
SIZE 4 4 4
TYPE F F F
COUNT 1 1 1
WIDTH 1512
HEIGHT 1
VIEWPOINT 0 0 0 1 0 0 0
POINTS 1512
DATA ascii
-19.256964 -53.500347 281.89758
-19.253645 -54.632393 280.06509
-19.161942 -55.525311 280.24356
-19.078371 -55.529602 282.18427
-19.049135 -53.807381 281.0538
-18.831877 -54.147816 280.24063
-18.828146 -55.052898 280.06567
-18.709625 -53.613243 282.44864
-18.506067 -53.905159 281.591
-18.475477 -54.515533 279.97668
-18.399374 -55.457458 280.08264
-18.316614 -54.147102 280.68756
-18.063725 -54.976009 279.91403
-18.005003 -54.356178 280.27826
-17.972155 -53.970501 282.09845
-17.763126 -54.281788 281.25858
-17.637526 -55.393105 279.91812
-17.455387 -54.477146 280.8367
-17.432795 -54.055145 282.6236
-17.246717 -54.787163 279.99564
-17.22938 -54.346542 281.7655
-16.917841 -54.555363 281.35596
-16.872749 -55.314495 279.76828
-16.716141 -54.840691 280.49228
-16.696283 -54.409 282.27032
-16.40218 -55.058086 280.09061
-16.383751 -54.621338 281.86401
-16.180613 -54.911758 281.005
-17.231037 -44.734516 279.02249
-17.009386 -44.742306 279.53632
-16.775467 -44.749454 280.04703
-16.72361 -45.260681 278.88251
-16.529047 -44.755939 280.55463
-16.427828 -45.264572 279.37775
-16.280252 -44.762302 281.06165
-16.165092 -45.262894 279.87415
-19.79558 -42.124584 280.29861
-19.722324 -42.634689 279.12872
-19.635677 -41.62167 281.97943
-19.589258 -42.133183 280.81628
-19.509798 -42.64296 279.64484
-19.40716 -41.629097 282.49152
-19.358675 -42.140503 281.32785
-19.300879 -42.651421 280.16183
-19.196058 -43.159863 278.98404
-19.122459 -42.14753 281.83801
-19.06089 -42.658245 280.67105
-18.963556 -43.16708 279.49512
-18.893888 -42.154953 282.35007
-18.893038 -41.218678 279.2374
-18.82585 -42.665333 281.18152
-18.708252 -43.173103 280.00049
-18.63892 -41.224762 279.74304
-18.576857 -42.671684 281.68845
-18.467855 -43.179909 280.50961
-18.400013 -41.231644 280.25253
-18.351772 -43.687756 279.32898
-18.333105 -42.678314 282.19672
-18.296032 -41.740131 279.07495
-18.230993 -43.186897 281.01962
-18.163755 -41.238667 280.7627
-18.128578 -43.695465 279.84241
-18.042757 -41.746258 279.58084
-17.977125 -43.192993 281.52533
-17.89175 -41.243809 281.26385
-17.891317 -43.702435 280.35229
-17.809269 -44.212078 279.18021
-17.799093 -42.159218 278.83292
-17.776659 -41.751713 280.0835
-17.725042 -43.199184 282.03152
-17.66798 -43.71014 280.86569
-17.605085 -41.24818 281.76138
-17.595192 -44.220264 279.69592
-17.493273 -43.206444 282.54279
-17.426418 -43.716881 281.37451
-17.387432 -42.264645 279.40378
-17.362833 -41.842216 280.6394
-17.36198 -44.227448 280.20685
-17.356472 -41.254555 282.26843
-17.187801 -43.723782 281.88406
-17.121065 -42.26947 279.90576
-17.109861 -44.233635 280.71301
-16.97501 -41.767895 281.59067
-16.952068 -43.730831 282.39435
-16.888166 -42.665298 279.14334
-16.858398 -44.239861 281.21936
-16.703735 -41.773075 282.09201
-16.616148 -44.246567 281.728
-16.562534 -42.422009 280.49313
-16.474396 -41.766617 282.59042
-16.380529 -44.253624 282.23831
-16.345684 -42.258976 281.39221
-16.332735 -42.80687 279.72067
-19.78318 -40.179237 280.05545
-19.709352 -40.689312 278.88541
-19.612604 -39.675758 281.73358
-19.537249 -40.185753 280.56317
-19.474367 -40.6964 279.39587
-19.372667 -39.68259 282.2428
-19.300707 -40.19276 281.07324
-19.249226 -40.704006 279.90881
-19.056454 -40.19936 281.58139
-19.000101 -40.710354 280.41574
-18.805809 -40.205627 282.08792
-18.7283 -40.715508 280.91699
-18.558308 -40.212059 282.59528
-18.480145 -40.721905 281.42413
-18.209795 -40.727135 281.92575
-17.955088 -40.733185 282.43127
-16.17428 -32.821861 279.88574
-16.063417 -56.723545 281.09241
-16.01609 -56.127922 279.79779
-15.903375 -56.918434 280.08154
-15.754201 -56.422112 282.38892
-15.745208 -56.955994 280.70453
-15.586766 -56.529785 279.81754
-15.551212 -56.712006 281.52942
-15.249144 -56.038727 279.65884
-15.245876 -56.898849 281.09976
-15.160114 -56.944672 279.82391
-15.039456 -56.698872 281.965
-14.935596 -57.10321 280.68613
-14.828753 -55.655872 279.80756
-14.823236 -56.457237 279.66147
-14.734934 -56.882835 281.53268
-14.719166 -57.289886 279.90189
-14.529516 -56.679306 282.39465
-14.466069 -56.045845 279.564
-14.432126 -57.060726 281.09479
-14.400949 -56.893402 279.64594
-14.322432 -55.623489 280.22546
-14.235728 -57.327274 280.2139
-14.228242 -56.851768 281.95181
-14.007132 -55.845627 279.82812
-13.965151 -57.263714 279.69812
-13.92505 -57.031021 281.51517
-13.798703 -55.652763 280.69989
-13.721856 -57.321636 280.65634
-13.718344 -56.832054 282.38135
-13.669281 -56.14764 279.50397
-13.634472 -56.806496 279.50464
-13.504956 -55.798561 280.2326
-13.494742 -57.465359 279.92374
-13.416212 -57.007549 281.94125
-13.272432 -55.691044 281.18256
-13.21913 -57.27652 281.06259
-13.201495 -57.190563 279.54266
-13.194251 -56.004429 279.82034
-13.021294 -57.548164 280.18637
-12.981064 -55.828419 280.70755
-12.910444 -56.973209 282.35739
-12.88661 -56.199436 279.39816
-12.755643 -57.511879 279.64523
-12.751378 -55.710846 281.64828
-12.709257 -57.256718 281.49203
-12.682152 -55.992512 280.25702
-12.513512 -57.520954 280.60904
-15.873467 -55.105007 280.58121
-15.852588 -54.676945 282.36255
-15.659623 -55.433357 279.75693
-15.644029 -54.986568 281.52115
-15.337812 -55.176533 281.09433
-15.147952 -55.419922 280.19223
-15.122825 -55.006901 281.98737
-14.816914 -55.195782 281.55957
-14.616171 -55.477718 280.69278
-14.595873 -55.047592 282.47226
-14.288431 -55.241894 282.04941
-14.099958 -55.48037 281.14279
-13.764243 -55.272797 282.52533
-13.573004 -55.521076 281.62769
-13.049529 -55.54945 282.10129
-12.535731 -55.543545 282.54349
-16.013313 -44.767712 281.56409
-15.947884 -45.101128 280.77438
-15.816833 -45.601772 279.58377
-15.626186 -44.843906 282.11142
-15.601583 -45.433075 280.47766
-15.480595 -45.898083 279.25439
-15.386625 -45.263336 281.37061
-15.265872 -45.727509 280.14658
-15.135866 -46.224457 278.95258
-15.046418 -45.573696 281.05411
-14.83105 -45.405415 281.94839
-14.582886 -46.357342 279.52191
-14.36545 -46.196381 280.42291
-14.278731 -45.535954 282.51559
-14.155712 -46.008152 281.29892
-13.915746 -46.931046 278.84586
-13.705623 -46.744179 279.72311
-13.506056 -46.017902 282.27969
-13.489667 -46.577976 280.61929
-13.27776 -46.397434 281.50232
-13.044557 -47.296371 279.02731
-12.833186 -47.113926 279.9086
-12.82052 -44.867455 278.82202
-12.632465 -46.391735 282.46893
-12.62042 -46.936424 280.79443
-16.13273 -42.082142 282.27866
-16.103098 -43.191143 278.94766
-16.000732 -42.586143 281.09113
-15.788899 -42.405334 281.97394
-15.777133 -42.949036 280.29852
-15.549795 -43.325172 279.51807
-15.446262 -42.7243 281.66531
-15.233038 -42.548424 282.55264
-15.225971 -43.075478 280.86197
-14.996869 -43.457867 280.08725
-14.893513 -42.856369 282.23392
-14.773055 -43.821518 279.29532
-14.667376 -43.228252 281.44955
-14.445294 -43.58577 280.65204
-14.225407 -43.935516 279.84738
-14.135002 -43.288147 281.95203
-14.005852 -44.284088 279.04166
-13.893501 -43.714447 281.21753
-13.680189 -44.040905 280.39154
-13.652541 -43.171249 282.29251
-13.465862 -44.37096 279.56885
-13.394574 -43.655876 281.61145
-13.146102 -44.106873 280.8996
-12.928632 -44.448055 280.0871
-12.871295 -43.337334 282.15704
-12.62951 -44.110867 281.35083
-15.43876 -34.155579 279.38477
-15.040512 -34.173531 280.42368
-14.854517 -34.697151 279.79492
-14.747077 -34.196991 281.48886
-14.630692 -35.485481 278.8656
-14.504576 -34.71764 280.84595
-14.333252 -34.214123 282.5239
-14.267984 -35.238602 280.2045
-14.152399 -34.738014 281.89642
-14.082569 -35.762253 279.57587
-13.880439 -35.257114 281.24609
-13.677701 -35.084915 282.06577
-13.624119 -35.777035 280.5997
-13.587449 -35.59853 281.15997
-13.508959 -36.551636 279.12823
-13.47213 -35.18457 282.38068
-13.449975 -35.733849 281.07339
-13.446376 -35.268497 282.45648
-13.402016 -35.783035 281.06161
-13.40027 -36.298668 279.96143
-13.363483 -35.824829 281.05783
-13.187101 -36.049866 281.05142
-13.143607 -36.304615 280.46646
-13.014434 -37.07848 278.99149
-12.89517 -36.824951 279.82202
-12.84397 -36.344296 280.99573
-12.766896 -36.422455 280.9751
-12.726866 -36.476028 280.9599
-12.640594 -36.831013 280.32761
-15.974065 -33.611435 278.96234
-15.958097 -32.315983 281.55243
-15.820105 -32.842129 280.9357
-15.619445 -32.603767 282.31525
-15.604088 -33.630871 280.00836
-15.478552 -33.129761 281.69778
-15.269581 -33.652172 281.06323
-14.931097 -33.673267 282.11716
-13.339158 -32.672764 279.1749
-13.232518 -32.419903 280.00861
-13.181629 -31.903271 281.14737
-12.875618 -32.440025 281.05789
-12.819486 -33.217731 279.60126
-12.723672 -32.18478 281.88025
-12.722383 -32.96537 280.43735
-12.493355 -56.718044 279.24954
-12.455701 -55.863483 281.18729
-12.380931 -56.170143 279.81287
-12.239984 -55.696434 282.08267
-12.221702 -57.659893 280.13547
-12.207552 -57.207985 281.89499
-12.157916 -56.023582 280.73309
-12.096473 -56.277679 279.31656
-12.06106 -57.105431 279.28418
-12.015414 -57.459442 281.00027
-11.942355 -55.85598 281.62799
-11.858698 -56.188759 280.28357
-11.730657 -56.649555 279.08929
-11.728011 -55.684067 282.51895
-11.718773 -57.61549 280.54239
-11.707645 -57.152885 282.29208
-11.64957 -55.998367 281.15759
-11.630379 -57.500683 279.31073
-11.567802 -56.324455 279.80704
-11.514678 -57.40728 281.40009
-11.433226 -55.833542 282.05502
-11.428848 -57.747753 280.06268
-11.352376 -56.15638 280.70148
-11.301852 -57.053951 279.10645
-11.222651 -57.546986 280.92722
-11.175785 -57.779396 279.45709
-11.140969 -55.974064 281.58292
-11.06257 -56.288219 280.22141
-11.013434 -57.356911 281.80151
-10.928307 -55.796196 282.46841
-10.927404 -57.698097 280.46478
-10.89153 -56.464947 279.25824
-10.869232 -57.439758 279.1427
-10.843582 -56.132755 281.12744
-10.719087 -57.504837 281.33618
-10.636514 -57.833775 279.98822
-10.635948 -55.937073 281.99661
-10.550622 -56.275764 280.65759
-10.550583 -56.777927 278.94412
-10.514 -57.300133 282.19708
-10.426711 -57.645779 280.86444
-10.426109 -57.774372 279.2316
-10.33541 -56.106926 281.55136
-10.26099 -56.406986 280.17697
-10.223783 -57.43343 281.71835
-10.13538 -57.78302 280.38931
-10.127983 -55.910515 282.41986
-10.106545 -56.524933 279.15991
-10.104648 -57.362072 278.99188
-10.047374 -56.232498 281.06555
-10.011596 -57.25388 282.60229
-9.9659882 -58.02615 279.40564
-9.934742 -57.562561 281.23578
-9.8340559 -56.05695 281.95316
-9.76227 -56.347683 280.57022
-9.7225428 -57.383053 282.11978
-9.6724529 -57.74995 279.02603
-9.6417255 -57.705769 280.76614
-9.587327 -56.538235 279.61969
-9.5451393 -56.185642 281.47021
-9.4433146 -57.97945 279.89178
-9.4340334 -57.510296 281.6355
-9.3327131 -56.006935 282.35495
-9.3116713 -56.619953 279.09369
-9.2598057 -56.301636 280.97562
-9.2236137 -57.324486 282.51373
-9.2234364 -58.055843 279.14444
-9.1438723 -57.643394 281.15659
-9.0863619 -56.486881 280.02023
-9.0441675 -56.134312 281.87076
-8.956995 -57.876221 280.24478
-8.936408 -57.447117 282.02521
-8.9113722 -57.689346 278.85767
-9.7701626 -48.478134 278.97278
-12.410321 -46.749477 281.67163
-12.186233 -47.616127 279.16702
-12.17983 -44.845448 279.77368
-11.976923 -47.426384 280.04163
-11.971416 -45.154556 278.93182
-11.763879 -47.24987 280.92838
-11.55451 -47.060333 281.80316
-11.336572 -45.111843 279.8645
-11.333778 -47.915096 279.28766
-11.130973 -45.410976 279.01349
-11.124997 -47.72348 280.16058
-11.124545 -44.931721 280.74792
-10.913363 -47.541969 281.04272
-10.700625 -47.364368 281.92847
-10.598162 -48.265785 278.93149
-10.495738 -45.369652 279.94745
-10.490655 -44.885628 281.67752
-10.387298 -48.081547 279.81113
-10.286283 -45.180424 280.82254
-10.277336 -44.710087 282.56516
-10.176105 -47.898472 280.69186
-9.9605904 -47.730709 281.58661
-9.7718229 -45.67889 279.55328
-9.6577282 -45.115429 281.7348
-9.5599384 -45.498264 280.43625
-9.5587006 -48.296009 279.85437
-9.3465824 -48.116215 280.7381
-9.3302937 -47.671886 282.50455
-9.1297083 -47.953266 281.63727
-9.0321131 -45.040028 282.63757
-8.9475574 -45.878014 279.58246
-8.9326077 -45.42894 281.34457
-12.090733 -44.193443 281.87411
-11.969359 -44.659817 280.65207
-11.545471 -44.298988 282.4184
-11.333367 -44.621166 281.5885
-12.468714 -37.602627 278.84192
-11.919145 -37.927204 279.04791
-11.702397 -37.763805 279.94669
-11.350078 -38.117065 279.66949
-11.208666 -37.869938 280.50183
-11.013422 -38.431545 279.3577
-10.666834 -38.779343 279.03906
-10.140844 -38.941242 279.12885
-9.9901094 -37.721024 281.96011
-9.9519253 -37.732929 281.8793
-9.9128523 -37.760452 281.78815
-9.7812738 -37.861935 281.57785
-9.7527599 -37.930267 281.37088
-9.6314545 -38.172382 280.88953
-9.616189 -38.889668 279.38791
-9.6104202 -38.145657 281.0015
-9.6026335 -38.10199 280.95749
-9.5845928 -38.214325 280.51266
-9.5662823 -37.755589 278.96188
-9.5243235 -37.525574 280.38123
-9.4956827 -37.543514 280.94342
-9.4943018 -37.771248 279.51324
-9.472436 -38.075695 280.35547
-9.4694853 -38.277378 280.13443
-9.4663372 -38.280392 280.06427
-9.4518738 -38.276302 279.996
-12.393054 -34.014854 279.19052
-12.370826 -36.852249 280.81189
-12.361397 -37.349731 279.67545
-12.110888 -37.356003 280.18204
-11.843437 -37.364052 280.68146
-11.825099 -34.557281 279.60474
-11.716169 -34.304298 280.4379
-11.634551 -35.080662 278.97482
-11.479086 -33.797325 282.09933
-11.438698 -35.089809 279.49512
-11.329631 -34.322865 281.47974
-11.242718 -35.098949 280.01535
-11.138968 -34.846241 280.84979
-11.122065 -34.331398 281.99707
-11.061532 -35.622826 279.38779
-10.861105 -35.631733 279.90692
-10.801935 -34.867413 281.90405
-10.691685 -37.424221 282.44077
-10.67344 -36.155266 279.27774
-10.617783 -35.391129 281.27576
-10.558125 -37.419029 282.3493
-10.494077 -36.165279 279.80215
-10.468546 -35.422176 282.37711
-10.427774 -35.914539 280.646
-10.282688 -35.945801 281.74838
-10.239602 -36.685299 279.15622
-10.201804 -35.960995 282.29749
-10.139738 -36.45224 280.561
-10.128758 -36.698917 279.69781
-10.087536 -36.468941 281.11731
-10.017518 -36.484707 281.66913
-9.9407196 -36.500114 282.21927
-9.9217443 -37.19688 282.34271
-9.8715687 -37.218792 279.05118
-9.8345547 -36.98904 280.47174
-9.8110113 -37.235054 279.60541
-9.778554 -37.005543 281.0271
-9.7501678 -37.023495 281.58936
-12.386258 -32.719887 281.7829
-12.2733 -33.761303 280.02094
-12.257224 -33.246502 281.16843
-12.242064 -31.675299 282.2879
-12.043606 -32.721313 282.26639
-11.903215 -33.780735 281.06693
-11.794132 -33.261044 282.19107
-11.403079 -31.904947 282.36935
-11.315312 -32.817051 282.52811
-11.203105 -31.304714 282.37222
-8.8017683 -56.600258 279.52325
-8.7573576 -56.255539 281.38098
-8.6627798 -58.023674 279.77902
-8.650053 -57.56673 281.53394
-8.57833 -56.460556 280.44373
-8.5455675 -56.074577 282.26364
-8.5451708 -56.614471 278.93539
-8.4698143 -58.03159 278.93869
-8.463789 -57.797386 280.62015
-8.4396677 -57.380798 282.41202
-8.3003511 -56.550507 279.92526
-8.2577314 -56.19944 281.77716
-8.1768703 -57.918995 280.13071
-8.1518612 -57.505554 281.92548
-8.0803919 -56.398479 280.83444
-8.0149975 -56.666573 279.43073
-7.9829116 -58.176903 279.24191
-7.9712791 -57.71608 280.99326
-7.8020005 -56.489891 280.31732
-7.7644024 -56.12104 282.15292
-7.6887012 -57.822319 280.48972
-7.6559424 -57.436325 282.30963
-7.5863886 -56.322468 281.21237
-7.5194707 -56.595959 279.81363
-7.4981346 -58.068211 279.5899
-7.4768043 -57.641739 281.37274
-7.3528733 -56.75695 278.83603
-7.3093228 -56.409184 280.69095
-7.2692275 -56.049175 282.53467
-7.2162738 -58.171909 279.08405
-7.1964898 -57.73996 280.86185
-7.0928187 -56.244923 281.58893
-7.0295582 -56.505455 280.17828
-7.0063715 -57.984261 279.96057
-6.9821768 -57.567936 281.75272
-6.8571224 -56.687126 279.21964
-6.8142071 -56.337109 281.07251
-6.7278075 -58.076283 279.44403
-6.6998048 -57.673447 281.2485
-6.6016092 -56.159012 281.95779
-6.5378013 -56.421486 280.54895
-6.5201144 -57.880814 280.31339
-6.4903812 -57.484104 282.12347
-6.4439287 -58.187126 278.9447
-6.3667293 -56.598328 279.58588
-6.3291106 -56.229553 281.42154
-6.2387667 -57.982693 279.80585
-6.2084894 -57.58791 281.61771
-6.1180973 -56.045841 282.3017
-6.0939631 -56.669811 279.05048
-6.0557542 -56.303123 280.88809
-6.0318794 -57.78437 280.67261
-6.0004182 -57.39378 282.48831
-5.9581542 -58.08197 279.29596
-5.8817677 -56.490292 279.93448
-5.8401423 -56.135704 281.78314
-5.7517972 -57.881767 280.16098
-5.7212629 -57.487896 281.97366
-5.6074214 -56.567371 279.40421
-5.5651884 -56.214935 281.25488
-5.5469027 -57.676384 281.02127
-5.4718041 -57.978848 279.64905
-5.3946476 -56.389896 280.29007
-5.3528357 -56.035969 282.13937
-5.3349323 -56.637871 278.86792
-5.2658749 -57.77713 280.5127
-5.2353911 -57.38308 282.32523
-8.837924 -48.594139 279.45001
-8.6290989 -48.402676 280.32306
-7.9192014 -48.662266 279.88339
-7.7069597 -48.482906 280.76752
-7.3172512 -49.005066 278.99573
-7.0885658 -48.381927 281.64682
-7.0030708 -48.721214 280.30835
-6.4123034 -49.024406 279.38443
-6.3879008 -48.608818 281.17722
-6.1801858 -48.413425 282.04663
-5.8103423 -48.865223 280.21039
-5.7254195 -49.202484 278.87006
-5.4890137 -48.606689 281.5462
-5.2753801 -48.432262 282.43484
-8.7326508 -45.708092 280.47522
-8.5053663 -47.873356 282.53589
-8.4135647 -48.234982 281.21786
-8.3080645 -45.349739 282.24384
-8.1256552 -46.068768 279.60394
-8.109724 -45.623169 281.36926
-7.9147358 -45.88472 280.4838
-7.7917399 -48.146152 282.10831
-7.4911227 -45.522923 282.24924
-7.2112589 -46.121571 280.02328
-6.9984646 -45.944172 280.90921
-6.8703861 -48.223602 282.55023
-6.7899947 -45.751453 281.7811
-6.6131973 -46.4506 279.12302
-6.29533 -46.179806 280.4476
-6.0855541 -45.991714 281.32373
-5.7078547 -46.471336 279.51297
-5.4771476 -45.855358 282.17062
-5.3943033 -46.185257 280.82355
-5.1885209 -58.087585 279.14783
-5.1179895 -56.475166 279.76733
-5.0806651 -56.105347 281.60205
-5.0612483 -57.570801 281.3721
-4.9861712 -57.873188 279.99985
-4.9079652 -56.287952 280.64426
-4.8695502 -55.921993 282.48251
-4.844924 -56.54771 279.23291
-4.7834392 -57.660149 280.85312
-4.7042251 -57.977188 279.49426
-4.6339579 -56.363834 280.11292
-4.5933928 -56.005489 281.95816
-4.5757737 -57.464577 281.72238
-4.5023103 -57.76125 280.34488
-4.4243979 -56.174976 280.98834
-4.4235463 -58.076698 278.98456
-4.3656998 -56.41935 279.5629
-4.2970767 -57.557072 281.20624
-4.2220259 -57.859364 279.83389
-4.1502042 -56.251518 280.45758
-4.1118455 -55.885361 282.29568
-4.0923381 -56.492943 279.02945
-4.0905638 -57.357422 282.07178
-4.0185423 -57.648987 280.68961
-3.9448771 -56.047668 281.31927
-3.9415159 -57.958275 279.32364
-3.8845127 -56.297943 279.89926
-3.8110645 -57.452751 281.55826
-3.7403138 -57.739815 280.17194
-3.6750042 -56.108902 280.77451
-3.6336563 -55.753334 282.62228
-3.6139829 -56.361504 279.3566
-3.6053162 -57.250397 282.42133
-3.5348907 -57.536308 281.03394
-3.4662008 -55.917366 281.64749
-3.4642799 -57.822876 279.64716
-3.4071004 -56.163166 280.22336
-3.3284492 -57.336403 281.89926
-3.259696 -57.616394 280.50644
-3.1986482 -55.970383 281.09518
-3.1889136 -57.903568 279.12024
-3.1373241 -56.224056 279.67825
-3.0551572 -57.409752 281.36557
-2.9949932 -55.760609 281.95145
-2.9877858 -57.684845 279.96829
-2.9390707 -55.995155 280.517
-2.8744919 -56.260357 279.11066
-2.8495841 -57.206772 282.22806
-2.7833853 -57.477711 280.82697
-2.7285614 -55.809658 281.39551
-2.7136898 -57.76104 279.43723
-2.6738772 -56.039814 279.95703
-2.5790067 -57.270504 281.68558
-2.5215292 -55.611847 282.26273
-2.5118878 -57.544701 280.28748
-2.4682362 -55.837074 280.81973
-2.4384329 -57.841343 278.90994
-2.4052501 -56.096638 279.40823
-2.3719482 -57.072784 282.55289
-2.305614 -57.344208 281.15222
-2.2518349 -55.672451 281.71738
-2.2353721 -57.629467 279.76425
-2.1937113 -55.914791 280.29007
-2.1385298 -56.146706 278.85321
-2.1006775 -57.138973 282.01266
-2.0316491 -57.419937 280.62076
-1.9917749 -55.698929 281.14075
-1.959784 -57.710945 279.23804
-1.930287 -55.953186 279.72437
-1.8254863 -57.219048 281.48514
-1.7575768 -57.496044 280.0896
-1.7226826 -55.757401 280.59344
-1.6659731 -55.994732 279.16156
-1.6181155 -57.022434 282.35349
-2.0447121 -55.47496 282.5849
-1.7802432 -55.517056 282.02258
-5.1268539 -49.031269 279.68503
-4.9154749 -48.848854 280.56635
-4.5912714 -48.60051 281.9115
-4.2390952 -48.989727 280.01791
-4.0286775 -48.803905 280.89612
-3.702425 -48.562817 282.24792
-3.6764307 -49.193378 279.00275
-3.3604755 -48.915813 280.32114
-3.1469915 -48.740852 281.20929
-2.8081744 -49.082756 279.27234
-2.5423007 -48.591335 282.04413
-2.4888542 -48.817108 280.60165
-1.9435062 -48.959423 279.53027
-1.900665 -48.609142 281.38293
-1.8552701 -48.568386 281.57251
-1.6441762 -48.605061 281.32776
-1.5777282 -48.616447 281.25815
-4.8089957 -46.469109 279.8819
-4.7805791 -46.067738 281.68771
-4.6222439 -46.701492 278.9697
-4.5768442 -45.85825 282.54422
-4.2078013 -46.307209 280.70538
-3.8851795 -46.053257 282.04538
-3.7357442 -46.655487 279.29849
-3.5252731 -46.469856 280.17688
-3.3163822 -46.278629 281.05014
-2.9957035 -46.017796 282.38385
-2.8542693 -46.591686 279.61099
-2.7149427 -46.117599 281.87442
-2.6440425 -46.40519 280.48859
-2.1852286 -46.706558 279.03873
-2.0413849 -46.248474 281.3168
-1.9709643 -46.534367 279.92941
-1.8288246 -46.070244 282.20197
-1.5515237 -57.294765 280.95364
-1.4840409 -57.570255 279.55673
-1.4606324 -55.790928 280.02328
-1.3468189 -57.088715 281.81332
-1.2825582 -57.352791 280.40594
-1.2474238 -55.614994 280.91055
-1.1929808 -55.844296 279.47131
-1.0762343 -57.15247 281.27087
-0.98756433 -55.640762 280.33331
-0.93224013 -55.873188 278.89691
-0.87042898 -56.950314 282.13409
-1.513942 -55.565643 281.46622
-1.3045954 -55.37603 282.34097
-1.0442978 -55.403347 281.76511
-0.83525717 -55.21265 282.63885
-0.78246462 -55.436108 281.19424
-0.57391328 -55.243679 282.06641
-1.5364006 -48.626007 281.22394
-1.454576 -48.624683 281.18332
-1.3539321 -48.756363 280.31607
-1.2971953 -48.99379 278.88425
-1.1536649 -48.64222 281.13876
-0.84191108 -48.567947 281.13156
-0.75861228 -48.547653 281.12595
-0.71896541 -48.750549 279.63321
-0.69482827 -48.540009 281.0744
-0.52499139 -48.527699 280.88065
-0.4422529 -48.506958 280.78796
-0.2893745 -48.480968 280.64551
-0.1515096 -48.469147 280.3472
-0.1167492 -48.45277 280.48926
-0.089515798 -48.725193 278.93246
0.082355604 -48.469254 280.30063
0.1638445 -48.4888 280.22412
0.21175811 -48.484859 280.18448
0.47276211 -48.428528 280.04181
0.4882198 -48.480202 279.67981
0.56885147 -48.408192 280.01651
0.63908422 -48.388706 280.01254
0.80474198 -48.340408 280.03113
1.1052513 -48.410858 278.93875
-1.3845953 -46.319954 280.7048
-1.3379263 -45.983231 282.56985
-1.3091358 -46.623695 279.33374
-1.16292 -46.174011 281.61954
-0.71983302 -46.419674 280.11865
-0.51128411 -46.227238 280.99078
-0.28560171 -46.095486 281.91855
-0.0572377 -46.511723 279.52545
0.14738271 -46.305367 280.38486
0.37133729 -46.167496 281.30701
0.53975952 -46.107285 282.31577
0.81962502 -46.431583 279.823
0.95498532 -48.307713 279.96936
0.97170532 -48.263474 280.04532
1.052888 -46.326683 280.77533
1.1251152 -46.259041 281.33304
1.168997 -46.272381 281.24982
1.1692117 -48.149929 280.04608
1.183242 -46.266453 281.30789
1.3359158 -46.434513 280.27325
1.3679262 -48.108444 280.04984
1.387596 -46.299366 281.23245
1.4873925 -46.54195 279.24658
1.5344328 -46.344246 281.08398
1.6461974 -46.419998 280.74768
1.7055126 -46.441086 280.5986
1.7903664 -46.478649 280.46826
1.8997556 -46.509644 280.35492
-33.096516 -37.664577 286.31134
-32.675053 -38.104748 286.29169
-32.336445 -37.608883 286.13794
-32.244892 -38.502533 286.31564
-31.906679 -38.008617 286.15985
-31.814989 -38.901588 286.33829
-31.566557 -37.505363 286.0137
-31.477097 -38.409214 286.18091
-31.382975 -39.29034 286.37149
-31.047323 -38.808884 286.20291
-30.953079 -39.689419 286.3941
-33.920811 -34.099625 286.32172
-33.81773 -34.647053 286.28311
-33.690842 -35.387173 286.02689
-33.526821 -36.576447 286.45026
-33.425232 -34.577145 285.64786
-33.316902 -37.118256 286.38486
-33.289005 -35.923008 285.90891
-33.093254 -34.113609 285.46085
-32.99889 -34.993549 285.65268
-32.862705 -36.339619 285.91348
-32.769428 -37.224857 286.09985
-32.659622 -34.494469 285.5022
-32.566483 -35.380394 285.68787
-32.431362 -36.731632 285.94336
-32.318836 -33.987999 285.35934
-32.226837 -34.879475 285.53928
-32.136299 -35.778072 285.71191
-31.997646 -37.112095 285.98511
-31.889629 -34.390427 285.37851
-31.796585 -35.276817 285.56369
-31.704191 -36.166374 285.74561
-31.22785 -37.009014 285.86041
-31.166378 -33.844273 285.1611
-31.074951 -34.738541 285.33817
-30.982178 -35.62624 285.522
-29.227322 -48.818615 285.93945
-29.127594 -48.793922 285.34506
-29.071262 -48.414364 284.16327
-29.021175 -48.768879 284.74899
-28.859604 -48.740936 284.1391
-28.793022 -49.348625 285.81781
-28.792175 -49.329132 285.2482
-28.781532 -48.460426 283.93988
-28.744518 -48.507236 283.87613
-28.70686 -48.547596 283.81348
-28.704657 -49.305084 284.65689
-28.583786 -49.279278 284.05719
-28.580355 -48.722408 283.51489
-28.566057 -49.356136 286.33029
-28.555435 -48.749039 283.44592
-28.523579 -48.850525 283.19717
-28.438564 -48.871918 283.08154
-28.414337 -48.588882 285.0033
-28.383099 -49.86047 285.1329
-28.351046 -49.839336 284.55548
-28.346996 -48.959778 282.86523
-28.248243 -49.814484 283.96033
-28.240549 -49.508484 283.11069
-28.216173 -49.062382 282.67194
-28.19853 -48.422153 285.89899
-28.189627 -49.86974 285.65378
-28.092098 -48.835598 284.62848
-27.936964 -50.370407 284.4389
-27.929708 -50.044983 283.01999
-27.898447 -50.348934 283.85986
-27.882942 -49.147339 283.789
-27.880606 -48.653587 285.51016
-27.776962 -50.381439 284.96817
-27.726002 -50.132317 285.81665
-27.661242 -49.443832 283.00275
-27.659367 -48.506096 286.42349
-27.560982 -48.891045 285.12686
-27.560097 -50.578396 282.91458
-27.490513 -50.880333 283.74484
-27.384447 -50.447453 285.50452
-27.349726 -49.210217 284.29422
-27.34878 -48.711544 286.01086
-27.256435 -50.937332 284.30402
-27.189402 -51.111752 282.8089
-27.165199 -50.292908 286.41138
-27.138464 -49.529411 283.46158
-29.773218 -47.741623 286.10181
-29.757408 -47.410339 286.3269
-29.749048 -47.536591 285.89758
-29.695589 -47.586426 285.80093
-29.672928 -47.371449 286.27222
-29.668795 -47.761215 285.54956
-29.606749 -47.513336 286.10422
-29.58423 -47.88237 285.3295
-29.54809 -48.282635 286.03262
-29.528961 -47.899845 285.26328
-29.394718 -47.933075 285.11154
-29.367107 -47.967522 285.13956
-29.320377 -48.104706 284.83969
-29.26931 -48.105072 284.78311
-29.26013 -48.21196 284.33459
-29.211895 -48.278343 284.30994
-29.132696 -48.18483 285.4234
-29.107027 -48.108353 284.31509
-29.024391 -48.06039 284.28928
-28.906656 -48.047115 286.15112
-28.724674 -48.025169 284.51694
-28.642984 -48.067421 284.2168
-28.083088 -41.152012 286.27603
-27.608686 -42.004112 286.3811
-30.752523 -37.856609 285.97015
-30.277891 -38.707581 286.07639
-30.185759 -39.598408 286.25702
-29.709036 -40.439194 286.37375
-29.553961 -38.158104 285.8624
-29.463579 -39.057472 286.03424
-28.986767 -39.89782 286.15143
-28.897001 -40.800179 286.32019
-28.832668 -37.62149 285.63519
-28.740612 -38.512691 285.81543
-28.264967 -39.358727 285.92676
-28.173496 -40.252781 286.10406
-28.018179 -37.97052 285.59393
-27.542728 -38.817505 285.70428
-27.451012 -39.71035 285.88281
-27.360909 -40.611069 286.05325
-30.505976 -36.469566 285.63611
-30.351835 -34.193047 285.12009
-30.25877 -35.079319 285.30539
-30.028831 -37.308296 285.75494
-29.78393 -35.929283 285.41269
-29.53734 -34.54203 285.07886
-29.309645 -36.781944 285.51718
-29.06016 -35.380592 285.19788
-28.582758 -36.218067 285.31802
-28.428839 -33.942612 284.8009
-28.337021 -34.834976 284.97992
-28.108265 -37.069714 285.42358
-27.859236 -35.670586 285.10196
-27.616276 -34.301025 284.74997
-27.383785 -36.51757 285.21231
-27.294374 -37.421658 285.3793
-27.138582 -35.137081 284.87155
-29.24291 -33.591557 284.84424
-27.709562 -33.415829 284.56357
-26.337578 -51.973522 282.92661
-25.786493 -52.099693 283.48981
-25.447277 -52.406548 283.1701
-25.23712 -52.219807 284.04745
-25.107761 -52.714458 282.85135
-25.018446 -52.063232 284.95245
-24.90065 -52.51693 283.71884
-24.683626 -52.354504 284.61847
-24.565092 -52.810818 283.38724
-24.469765 -52.180889 285.50787
-24.35251 -52.632668 284.27249
-24.230764 -53.100353 283.05167
-24.138006 -52.461323 285.16394
-24.021759 -52.909534 283.92529
-23.926266 -52.280186 286.04645
-23.804747 -52.74707 284.82489
-23.691061 -53.186214 283.57791
-23.592821 -52.566593 285.70801
-23.477448 -53.011711 284.46649
-23.466566 -53.55228 282.78824
-27.037931 -50.780155 285.2085
-27.029396 -48.948147 285.6268
-26.911436 -51.264668 284.00308
-26.82456 -50.604801 286.09628
-26.81703 -49.271252 284.79773
-26.795929 -51.643906 282.69748
-26.695877 -51.097054 284.89798
-26.677561 -51.657131 283.23718
-26.608259 -49.581623 283.957
-26.496378 -49.010326 286.13135
-26.478523 -50.93581 285.79871
-26.394547 -49.9095 283.13232
-26.355549 -51.407845 284.58188
-26.283579 -49.334965 285.30371
-26.14019 -51.239529 285.4761
-26.122889 -51.802834 283.81866
-26.07337 -50.152454 282.75406
-26.07029 -49.661343 284.47763
-25.92667 -51.064701 286.36441
-25.858728 -49.981598 283.64597
-25.802979 -51.53928 285.1499
-25.738323 -49.440491 285.84799
-25.590479 -51.360832 286.03485
-25.570745 -51.932755 284.38531
-25.536121 -49.727592 284.98593
-25.535604 -50.231449 283.27402
-25.322887 -50.053776 284.1597
-25.250185 -51.671501 285.71866
-25.217947 -50.461933 282.88434
-25.214239 -49.471024 286.32355
-25.002958 -49.790283 285.49097
-24.998413 -50.308411 283.79214
-24.788538 -50.120667 284.66858
-24.701399 -51.789539 286.27438
-24.678255 -50.547752 283.41058
-24.470495 -49.850494 285.99374
-24.461515 -50.384331 284.3093
-24.243563 -50.225201 285.21198
-24.139399 -50.630615 283.93408
-23.927994 -50.950314 283.1019
-23.925224 -50.458103 284.82449
-23.707008 -50.2999 285.728
-23.603666 -51.204426 282.73386
-23.6024 -50.70689 284.45157
-24.218422 -44.76516 286.45746
-26.886478 -41.463032 286.15851
-26.412806 -42.318684 286.25995
-26.32094 -43.210808 286.43921
-25.689756 -41.773506 286.04153
-25.598652 -42.669334 286.21701
-25.505589 -43.55563 286.40228
-24.962303 -41.20686 285.84518
-24.872524 -42.109158 286.01401
-24.783913 -43.017143 286.177
-24.309244 -43.867947 286.28342
-24.148655 -41.55999 285.79971
-24.05797 -42.457863 285.97308
-23.584373 -43.313892 286.07413
-23.493177 -44.209282 286.25006
-26.817959 -38.263943 285.49451
-26.728565 -39.168121 285.66138
-26.638077 -40.066959 285.83377
-26.166487 -40.932751 285.92477
-26.091368 -37.701508 285.29382
-25.999865 -38.595398 285.47128
-25.911514 -39.504658 285.63297
-25.442204 -40.381561 285.71255
-25.277803 -38.055038 285.24792
-25.184881 -38.942013 285.4325
-24.711657 -39.79985 285.53171
-24.463701 -38.405952 285.20471
-24.237839 -40.654793 285.63388
-24.172636 -37.471867 284.95325
-23.989958 -39.26125 285.30655
-23.746607 -37.889793 284.95648
-23.514284 -40.107155 285.418
-26.847334 -34.20211 284.621
-26.658642 -35.962185 285.00443
-26.567654 -36.858589 285.17929
-26.415218 -34.59037 284.65472
-26.078442 -34.103436 284.49179
-25.98431 -34.984516 284.6824
-25.842779 -36.30452 284.97003
-25.645267 -34.486538 284.53082
-25.551558 -35.369671 284.71933
-25.367926 -37.154408 285.07739
-25.36508 -34.163639 283.02505
-25.330742 -34.108044 284.25638
-25.246758 -34.176865 283.56479
-25.22076 -34.911877 284.52643
-25.122721 -35.773918 284.73663
-25.032265 -34.698986 282.92886
-24.910982 -34.712055 283.46783
-24.837431 -34.727634 284.01877
-24.796558 -35.338707 284.52051
-24.708742 -35.234821 282.83499
-24.690729 -36.162788 284.76974
-24.60046 -37.062691 284.94101
-24.582001 -35.247604 283.37262
-24.460918 -35.260681 283.91162
-24.369047 -35.749405 284.53116
-24.340626 -35.768311 282.72995
-24.263416 -36.574455 284.77942
-24.206402 -35.780701 283.26569
-24.098669 -35.794483 283.80804
-24.017384 -33.826065 282.97824
-23.94874 -36.195217 284.50574
-23.846926 -33.836548 283.50488
-23.828209 -36.947643 284.82864
-23.813675 -36.312897 283.15448
-23.71557 -34.363041 282.8898
-23.663208 -36.324429 283.68613
-23.5434 -34.373436 283.41602
-26.942257 -33.324886 284.42639
-26.508324 -33.704285 284.46924
-26.176594 -33.241947 284.28101
-25.748932 -33.651913 284.29242
-25.68359 -33.627541 283.11768
-25.545534 -33.639729 283.65244
-24.352074 -33.290817 283.07489
-24.109089 -33.297485 283.58334
-23.467413 -33.478497 283.77869
-23.262411 -52.842258 285.35971
-23.149403 -53.278996 284.11053
-23.051592 -52.65786 286.23923
-22.933044 -53.11422 285.00803
-22.927952 -53.634281 283.31097
-22.719116 -52.94083 285.89764
-22.605679 -53.379093 284.64984
-22.601887 -53.89455 282.94858
-22.393265 -53.200344 285.53455
-22.390997 -53.710403 283.82831
-22.184303 -53.009365 286.40802
-22.069267 -53.453289 285.16544
-22.065578 -53.96838 283.46381
-21.965679 -52.030888 282.66034
-21.856955 -53.274185 286.0498
-21.850281 -53.799843 284.35785
-21.841694 -54.332283 282.67212
-21.532413 -53.529057 285.68243
-21.52507 -54.057091 283.99268
-21.413658 -52.160374 283.22659
-21.312117 -53.880253 284.87912
-21.304701 -54.408543 283.18961
-21.089281 -52.414661 282.8587
-20.994194 -53.609657 286.20389
-20.989523 -54.128227 284.50546
-20.982309 -54.6558 282.81528
-20.869705 -52.261288 283.76663
-20.776718 -53.950859 285.39142
-20.772408 -54.468151 283.69183
-20.552349 -51.988678 285.08957
-20.545547 -52.514797 283.39807
-20.455849 -54.19273 285.01218
-20.450224 -54.714672 283.31683
-20.33062 -52.344955 284.29089
-20.244379 -54.512657 284.18021
-20.243252 -54.014629 285.89746
-20.222916 -52.762905 283.02451
-20.009924 -52.084183 285.62466
-20.008244 -52.592159 283.91653
-19.925577 -54.747204 283.79422
-19.925526 -54.245358 285.508
-19.896187 -53.025524 282.66428
-23.386089 -51.043968 283.63531
-23.380917 -50.560265 285.36569
-23.168522 -50.381451 286.25034
-23.062798 -50.792385 284.97751
-23.058674 -51.309021 283.27731
-22.852495 -50.606159 285.85535
-22.841488 -51.147171 284.17749
-22.726027 -51.592606 282.93628
-22.527903 -50.861214 285.48816
-22.51277 -51.416843 283.8237
-22.30484 -50.720184 286.40741
-22.298758 -51.243752 284.71356
-22.180641 -51.698589 283.48099
-21.97526 -50.992908 286.05643
-21.969587 -51.515022 284.36127
-21.756495 -51.338676 285.24814
-21.637693 -51.795937 284.01776
-21.424866 -51.618649 284.90381
-21.213648 -51.435669 285.78461
-21.095943 -51.889038 284.55069
-20.883104 -51.711796 285.43674
-20.672144 -51.527905 286.31671
-20.341177 -51.805534 285.97021
-23.405121 -45.119972 286.41025
-22.591824 -45.4748 286.36301
-21.86727 -44.922291 286.15216
-21.7773 -45.823654 286.32193
-21.053291 -45.273804 286.10834
-20.962362 -46.170494 286.28293
-20.877245 -47.095509 286.42838
-20.326883 -44.712261 285.90674
-20.237585 -45.616901 286.07315
-20.149788 -46.528854 286.23206
-20.06389 -47.450066 286.38144
-23.332563 -41.901199 285.76648
-22.858749 -42.756165 285.86862
-22.770378 -43.665321 286.0304
-22.682072 -44.574795 286.19183
-22.60799 -41.348598 285.55569
-22.134083 -42.20311 285.65833
-22.04574 -43.1124 285.81995
-21.954762 -44.00885 285.99478
-21.410181 -41.65377 285.44418
-21.320572 -42.5569 285.61215
-21.22909 -43.45089 285.78952
-21.140276 -44.357895 285.95349
-20.641764 -41.557411 285.31259
-20.505527 -42.903221 285.57367
-20.416082 -43.80714 285.74084
-20.302811 -41.059868 285.16055
-20.214365 -41.968666 285.32269
-19.874855 -41.468403 285.17343
-23.422342 -40.998905 285.59766
-23.320984 -38.309692 284.95767
-22.97974 -37.800983 284.81711
-22.883175 -38.670212 285.01993
-22.791235 -39.56197 285.19958
-22.70962 -37.91338 282.83939
-22.700583 -40.460011 285.3728
-22.546602 -38.184265 284.85599
-22.514288 -37.922558 283.3598
-22.454512 -39.075298 285.03638
-22.318691 -37.931717 283.88016
-22.312712 -38.445358 282.72714
-22.210081 -37.945454 284.4223
-22.12261 -38.612114 284.849
-22.108042 -38.454041 283.24521
-22.023323 -39.468079 285.06546
-21.939953 -38.464649 283.77243
-21.930702 -40.356522 285.24854
-21.755388 -38.474388 284.29556
-21.705427 -38.985718 283.1315
-21.692533 -39.010319 284.8725
-21.592575 -39.862999 285.09235
-21.528532 -38.995861 283.65652
-21.502167 -40.76223 285.26431
-21.358595 -39.006371 284.18332
-21.29101 -37.572079 282.77478
-21.270029 -39.515667 283.00958
-21.259516 -39.39418 284.91077
-21.165417 -40.275425 285.10123
-21.122761 -37.582676 283.30197
-21.092377 -39.525772 283.53442
-20.879818 -37.589348 283.81046
-20.86931 -38.102749 282.65631
-20.86758 -39.533398 284.04745
-20.840746 -39.847488 284.87762
-20.832396 -40.045502 282.88712
-20.738392 -40.688496 285.10947
-20.665619 -38.111485 283.17462
-20.622042 -40.053886 283.40375
-20.455299 -38.119869 283.69128
-20.438997 -40.063709 283.92725
-20.409754 -40.241222 284.90573
-20.37883 -40.574501 282.76065
-20.171799 -38.638363 283.03806
-20.159506 -40.582413 283.27502
-19.97674 -40.625107 284.94394
-19.952652 -40.590981 283.79257
-19.937853 -38.645508 283.5488
-19.928143 -37.523106 284.18011
-19.894831 -38.168865 284.17755
-23.435099 -36.845837 283.04678
-23.408434 -37.396053 284.80054
-23.403664 -34.899487 282.79886
-23.304848 -36.858433 283.58353
-23.24235 -34.91045 283.32779
-23.155487 -36.870026 284.11545
-23.081783 -37.380104 282.94547
-23.056648 -35.434086 282.6991
-23.032366 -33.852463 283.82712
-22.968077 -34.94268 283.85486
-22.895767 -37.389771 283.4682
-22.844969 -35.442402 283.21539
-22.746572 -37.401371 284.00018
-22.657194 -35.451973 283.7377
-22.599211 -34.235661 283.86606
-22.473452 -35.975712 283.1095
-22.318077 -35.986988 283.63992
-22.167786 -34.627285 283.89633
-22.110554 -36.50948 283.00577
-21.929775 -36.519417 283.52982
-21.820349 -34.088394 283.7868
-21.754654 -37.04361 282.90378
-21.735519 -35.014812 283.93082
-21.654732 -35.960934 284.0546
-21.59247 -36.521126 284.01465
-21.531721 -37.051334 283.41727
-21.386856 -34.469948 283.82742
-21.299086 -35.382034 283.98618
-21.272676 -37.057159 283.92172
-20.948633 -34.828445 283.89175
-20.865589 -35.763565 284.02682
-20.783028 -36.701035 284.15948
-20.656075 -33.887093 283.64777
-20.523247 -35.249504 283.89178
-20.427616 -36.12328 284.0899
-20.355577 -37.112038 284.16986
-19.999659 -36.531807 284.10281
-19.835705 -34.207455 283.63596
-23.115225 -32.916443 283.69296
-22.685684 -33.317261 283.71381
-22.341021 -32.791878 283.59036
-22.252867 -33.702095 283.75107
-21.565002 -32.65847 283.49686
-21.47365 -33.553108 283.67355
-20.745407 -32.982616 283.48117
-20.016483 -32.408813 283.29221
-19.922203 -33.289169 283.48358
-18.028936 -55.595158 283.13953
-17.717968 -55.801952 282.72812
-17.507235 -55.617252 283.60736
-17.199272 -55.8134 283.18622
-16.986469 -55.636032 284.07214
-16.892548 -56.005169 282.76105
-16.67942 -55.828945 283.64804
-16.46541 -55.655853 284.5379
-16.372456 -56.021564 283.22366
-19.791529 -52.428638 284.81519
-19.714121 -54.56506 284.67581
-19.7094 -55.083809 282.97754
-19.707218 -54.087486 286.4118
-19.678967 -52.8638 283.56454
-19.471075 -52.167011 286.14816
-19.461065 -52.704491 284.46707
-19.398169 -54.789513 284.28058
-19.391155 -54.312332 286.01694
-19.357424 -53.108051 283.18747
-19.24892 -52.524788 285.35086
-19.187279 -55.107388 283.44675
-19.185291 -54.6124 285.16678
-19.135267 -52.963814 284.10379
-19.032751 -53.363392 282.82056
-18.92761 -52.768211 284.97305
-18.86949 -55.338341 283.05746
-18.867655 -54.842815 284.77704
-18.816982 -53.196522 283.71616
-18.711937 -52.601013 285.86832
-18.661249 -55.144817 283.92862
-18.654167 -54.667873 285.66519
-18.603378 -53.021988 284.60471
-18.553383 -55.563339 282.66275
-18.491598 -53.45438 283.35153
-18.388542 -52.851822 285.49725
-18.344631 -55.371624 283.53558
-18.341179 -54.881824 285.26038
-18.277901 -53.280182 284.24039
-18.180231 -52.658543 286.36862
-18.167578 -53.707413 282.98251
-18.132641 -55.191368 284.41888
-18.131273 -54.694187 286.1369
-18.074083 -53.07098 285.09717
-17.953178 -53.53569 283.87363
-17.861471 -52.892937 285.98251
-17.820803 -55.401249 284.01031
-17.817959 -54.909298 285.73312
-17.747789 -53.332066 284.73553
-17.631302 -53.781124 283.49765
-17.610012 -55.216747 284.88974
-17.5417 -53.130909 285.5997
-17.424057 -53.584068 284.36557
-17.33983 -52.914814 286.45016
-17.296684 -55.431904 284.48599
-17.288553 -54.958683 286.22598
-17.220804 -53.372868 285.22052
-17.105917 -53.816265 283.97745
-17.082817 -55.258305 285.3754
-16.899435 -53.616505 284.84286
-16.899359 -54.118805 283.12955
-16.772509 -55.462761 284.96185
-16.698524 -53.397015 285.69025
-16.580162 -53.852722 284.45844
-16.55986 -55.284843 285.84732
-16.377087 -53.640892 285.31281
-16.365385 -54.184364 283.63721
-16.253893 -55.473927 285.41968
-16.164608 -53.462372 286.19772
-16.161783 -54.476429 282.77969
-18.354094 -49.094082 286.42282
-17.624863 -48.51878 286.23538
-17.541355 -49.451637 286.37277
-16.811766 -48.874588 286.18713
-16.342892 -49.753624 286.26456
-16.262533 -50.701832 286.38617
-19.511232 -45.055626 285.87131
-19.423483 -45.967815 286.02997
-19.336998 -46.886158 286.18228
-19.250225 -47.803104 286.33603
-18.695971 -45.400883 285.83392
-18.611927 -46.331131 285.974
-18.525484 -47.249687 286.1261
-18.439255 -48.169277 286.27713
-17.971849 -44.850483 285.62088
-17.883331 -45.758923 285.78339
-17.797215 -46.679066 285.93384
-17.71393 -47.613014 286.07013
-17.15955 -45.210175 285.56863
-17.069994 -46.11356 285.73636
-16.985893 -47.043526 285.87671
-16.899355 -47.96162 286.0293
-16.444124 -44.702156 285.31204
-16.344971 -45.558765 285.52783
-16.257812 -46.473831 285.68353
-16.171358 -47.392326 285.83569
-19.784475 -42.367775 285.34528
-19.691488 -43.254436 285.53015
-19.679085 -41.109997 283.14185
-19.601288 -44.154675 285.70111
-19.479773 -41.118961 283.66125
-19.441868 -41.852417 285.21155
-19.24684 -41.12616 284.17224
-19.171881 -41.636173 283.00192
-19.112156 -41.399914 285.01318
-19.01325 -42.257729 285.22772
-18.947283 -41.643806 283.51498
-18.922819 -43.156845 285.39984
-18.787403 -44.506649 285.6568
-18.764435 -41.653641 284.03851
-18.6845 -41.809906 285.02457
-18.663399 -42.162281 282.86166
-18.583666 -42.658321 285.24878
-18.425301 -42.169205 283.37137
-18.255987 -42.215725 285.04025
-18.176821 -42.175587 283.87845
-18.15641 -43.070274 285.25815
-18.074768 -42.684174 282.70135
-18.065523 -43.967171 285.43253
-17.988787 -42.185146 284.4007
-17.821608 -42.592953 285.08533
-17.816933 -42.690063 283.20609
-17.725235 -43.463116 285.28717
-17.589327 -42.69754 283.71838
-17.393667 -43.00156 285.09814
-17.3599 -42.704922 284.23026
-17.299473 -43.882336 285.28909
-17.273624 -43.21434 283.0571
-17.120401 -41.261585 282.77863
-17.040228 -43.221512 283.56796
-16.963043 -43.397091 285.12439
-16.870584 -44.286331 285.30664
-16.839092 -41.266239 283.27747
-16.824579 -43.229618 284.08328
-16.70373 -43.737217 282.90146
-16.686523 -43.203819 284.65952
-16.628929 -41.274635 283.79416
-16.535778 -43.808998 285.13382
-16.472862 -43.744522 283.41296
-16.255325 -41.611443 283.49673
-16.255171 -43.595802 284.68942
-16.23719 -43.751575 283.92328
-19.780197 -40.60136 284.3187
-19.667948 -39.164715 282.89899
-19.544411 -41.012329 284.97876
-19.492325 -39.174927 283.42432
-19.264563 -38.915695 284.22766
-19.144539 -39.690041 282.755
-19.059452 -38.277905 284.26993
-18.822123 -39.75 283.29944
-18.714149 -37.749405 284.14972
-18.62649 -38.662029 284.30792
-18.613892 -39.556438 284.17056
-18.301903 -40.218021 283.10037
-18.280102 -38.128258 284.19312
-18.270748 -39.969128 283.953
-18.197033 -39.063259 284.32831
-17.847807 -38.515648 284.22775
-17.773865 -40.276947 284.15323
-17.764505 -39.449512 284.36411
-17.722048 -40.740376 282.94223
-17.547241 -37.535263 284.02386
-17.489361 -40.747585 283.45328
-17.422089 -38.935085 284.22943
-17.343006 -39.889507 284.34464
-17.239105 -40.753872 283.9599
-17.076355 -38.404491 284.11136
-16.994884 -39.347279 284.23856
-16.914371 -40.294739 284.36093
-16.563931 -39.741207 284.26645
-16.486423 -40.703308 284.37378
-16.343021 -37.809196 283.94446
-16.259947 -38.744171 284.07971
-19.745543 -35.107883 283.8067
-19.653044 -35.996929 283.98917
-19.570097 -36.932518 284.12375
-19.141626 -37.338543 284.13922
-19.009552 -34.499638 283.65314
-18.923651 -35.420826 283.80255
-18.836187 -36.334412 283.95975
-18.368113 -37.217342 284.03314
-18.285534 -33.949738 283.43961
-18.195841 -34.852455 283.60797
-18.106356 -35.75618 283.77533
-17.631516 -36.60614 283.88263
-17.470181 -34.294552 283.40265
-17.381895 -35.204128 283.564
-16.90535 -36.04578 283.67984
-16.816557 -36.952881 283.84372
-16.758181 -33.803223 283.12888
-16.663349 -34.680893 283.32303
-16.183382 -35.505867 283.45602
-19.196629 -32.731689 283.27783
-19.104849 -33.624233 283.45667
-18.375727 -33.049461 283.26871
-17.719149 -32.15831 282.85776
-17.567242 -33.427742 283.19736
-16.951677 -32.066563 282.72141
-16.861027 -32.964607 282.89459
-16.515654 -32.435776 282.77472
-16.159016 -55.846447 284.11166
-16.062752 -56.223877 282.80817
-15.949445 -55.657627 284.98712
-15.853798 -56.032875 283.68161
-15.641434 -55.853947 284.56613
-15.54781 -56.222031 283.25406
-15.432699 -55.66217 285.4389
-15.335139 -56.044193 284.13959
-15.242806 -56.4077 282.8233
-15.121781 -55.868786 285.02734
-15.034066 -56.215939 283.69608
-14.911263 -55.683327 285.90588
-14.818878 -56.047016 284.58975
-14.72844 -56.403812 283.26733
-14.60636 -55.868637 285.47479
-14.517556 -56.219646 284.14706
-14.300282 -56.058113 285.04752
-14.21554 -56.394733 283.7066
-14.089025 -55.875263 285.92847
-14.017813 -56.665989 282.83005
-14.00031 -56.22596 284.60043
-13.791738 -56.033604 285.47266
-13.70044 -56.393444 284.15302
-13.507202 -56.648796 283.2619
-13.487587 -56.216251 285.03915
-13.276579 -56.032524 285.91928
-13.210377 -56.8055 282.8046
-13.191627 -56.369888 284.57904
-12.999482 -56.621372 283.68436
-12.980277 -56.18737 285.46027
-12.702182 -56.779755 283.22861
-12.681103 -56.352394 285.01062
-16.053974 -53.890705 284.94083
-16.036835 -55.31163 286.31946
-15.851339 -53.677319 285.79379
-15.839733 -54.220448 284.11786
-15.734293 -55.488579 285.88071
-15.629903 -54.534576 283.28058
-15.532715 -53.911232 285.40726
-15.329812 -53.698799 286.26108
-15.322474 -54.728832 282.8577
-15.319392 -54.237728 284.5813
-15.106914 -54.561234 283.75259
-15.007973 -53.944099 285.88495
-14.991641 -51.990665 286.35983
-14.799587 -54.253105 285.04297
-14.788184 -54.795517 283.36639
-14.580724 -54.599224 284.23502
-14.489731 -53.953938 286.34155
-14.274951 -54.285595 285.52032
-14.26862 -54.81004 283.8273
-14.172979 -52.319355 286.33945
-14.069917 -55.084755 282.95389
-14.063314 -54.606113 284.6889
-13.753408 -54.307125 285.98767
-13.750489 -54.819489 284.28354
-13.551677 -55.094589 283.41049
-13.547005 -54.609116 285.13925
-13.357686 -52.664463 286.30222
-13.267634 -54.201965 286.3389
-13.245198 -55.28548 282.98453
-13.236876 -54.812935 284.72513
-13.048336 -54.549625 285.53235
-13.036302 -55.094276 283.85782
-12.933328 -53.09053 286.29709
-12.739509 -54.74884 285.11401
-12.736509 -55.26149 283.41016
-12.63244 -52.108578 286.09482
-12.531396 -55.056881 284.27115
-12.524025 -54.580963 286.00867
-15.616396 -49.19165 286.06342
-15.53233 -50.121788 286.20361
-15.45424 -51.081051 286.31387
-14.885034 -48.605961 285.88666
-14.804537 -49.55349 286.00897
-14.724331 -50.502441 286.12982
-14.258595 -51.39677 286.1915
-14.073966 -48.971657 285.82825
-13.991725 -49.91069 285.95929
-13.52412 -50.795914 286.03033
-13.44195 -51.735291 286.16104
-13.351312 -48.428406 285.60785
-13.26418 -49.343605 285.76343
-12.792526 -50.209095 285.85474
-12.707779 -51.13591 285.99835
-12.537214 -48.779343 285.56464
-16.084312 -48.307949 285.99081
-15.581486 -45.486443 285.37152
-15.443489 -46.823662 285.64142
-15.355829 -47.73629 285.79962
-15.243379 -44.993019 285.21524
-15.151822 -45.88665 285.39297
-15.066108 -45.00193 282.7038
-14.8448 -44.854687 283.61737
-14.819146 -45.419701 285.20947
-14.724536 -46.29845 285.4025
-14.632969 -47.192032 285.58026
-14.48743 -44.95742 285.02115
-14.38621 -45.803963 285.24731
-14.288896 -44.997929 284.1962
-14.15936 -48.047993 285.6814
-14.059772 -45.38039 283.42154
-14.055521 -45.346691 285.05386
-13.958886 -46.215576 285.25702
-13.622579 -45.730923 285.09174
-13.527438 -46.607094 285.28741
-13.4383 -47.512512 285.45303
-13.336716 -45.492111 284.67368
