# .PCD v0.7 - Point Cloud Data file format
VERSION 0.7
FIELDS x y z
SIZE 4 4 4
TYPE F F F
COUNT 1 1 1
WIDTH 1509
HEIGHT 1
VIEWPOINT 0 0 0 1 0 0 0
POINTS 1509
DATA ascii
-11.298336 -12.863701 277.13123
-11.200522 -13.726839 277.3403
-11.10011 -14.577312 277.56241
-11.004706 -15.452199 277.75943
-10.869238 -13.266671 277.14984
-10.76888 -14.117408 277.37167
-10.726008 -15.280338 275.49869
-10.671686 -14.983568 277.57764
-10.59431 -15.558002 276.29294
-10.589625 -12.388404 276.84097
-10.441566 -13.676586 277.16132
-10.368204 -15.014267 276.26941
-10.342316 -14.532726 277.37759
-10.258261 -15.222397 277.18961
-10.215708 -14.414505 275.10516
-10.158906 -12.783469 276.86771
-10.109068 -14.44779 276.21719
-10.046485 -14.463946 276.7709
-9.8666487 -13.882193 276.16916
-9.7938862 -13.897814 276.72031
-9.7469454 -13.570303 275.29144
-9.6553402 -13.337678 276.69833
-9.6250134 -13.316636 276.12134
-9.3308945 -12.728873 275.49097
-9.293684 -12.746364 276.05103
-9.0693579 -12.181717 276.00751
-9.0647774 -12.162029 275.43698
-12.218709 -11.690866 276.92297
-12.132921 -9.0775394 276.20499
-12.031112 -9.9212046 276.43408
-11.935916 -10.797102 276.63004
-11.418592 -8.5748606 275.94287
-11.322195 -9.4449015 276.14487
-11.222132 -10.297076 276.36523
-11.126294 -11.169846 276.56439
-10.611084 -8.9579086 275.86664
-10.516103 -9.8348484 276.06152
-10.410574 -10.660389 276.30927
-10.305991 -11.490537 276.55228
-9.974288 -11.028325 276.36389
-9.9001875 -8.4719591 275.58734
-9.8721313 -11.8703 276.59473
-9.8000669 -9.3238544 275.80798
-9.6981831 -10.167156 276.03745
-9.5412817 -11.412249 276.4021
-9.2606945 -10.529232 276.09811
-9.0871191 -8.8279037 275.53897
-8.9787521 -9.6396112 275.8009
-12.338593 -7.4002147 275.73648
-12.236195 -8.2410097 275.96854
-12.167269 -5.709856 275.16608
-11.677801 -6.4885302 275.34665
-11.520122 -7.7298312 275.71518
-10.858134 -6.8123226 275.33133
-10.706836 -8.0847187 275.66788
-10.045974 -7.1726966 275.27841
-9.2316732 -7.5226393 275.23618
-8.7432346 -20.001688 278.59418
-8.701786 -19.427212 278.02713
-8.8342333 -19.109135 276.64325
-8.7048168 -18.243885 275.77585
-8.655467 -18.85248 277.45889
-8.5753613 -18.275972 276.88217
-8.4149876 -17.409094 276.00702
-8.3357677 -18.302265 277.96088
-8.3014603 -17.728165 277.39563
-8.2209187 -17.151634 276.81882
-8.2153244 -18.832958 278.52579
-8.1478834 -16.556049 275.67447
-8.036705 -16.589096 276.78537
-7.8765254 -18.336166 278.37299
-7.803906 -15.71841 275.89206
-7.8024349 -16.023928 276.73938
-7.7451553 -16.840527 277.60236
-7.6043105 -17.493954 278.02704
-7.4620166 -15.945077 277.31116
-7.3735237 -18.378963 278.7619
-6.9346657 -16.539125 277.68155
-6.8112798 -17.277637 278.01877
-6.6188908 -17.711561 278.6951
-6.6022496 -16.073439 277.49677
-6.3239422 -17.396774 278.32919
-6.0884814 -16.733685 277.7991
-5.7673683 -16.323084 277.55768
-5.4986057 -16.66785 278.55731
-7.5851555 -15.459652 276.69766
-7.504375 -14.863661 275.55139
-7.3151841 -14.892606 276.64273
-7.2621298 -14.298073 275.50339
-7.1162229 -15.414194 277.19339
-6.9410472 -14.033934 276.28336
-6.7753272 -14.90718 277.05109
-6.7687011 -13.452574 275.6835
-6.5130954 -12.866836 275.06277
-6.5016017 -14.057607 276.71271
-6.3151722 -12.963553 276.07745
-6.2698302 -15.607737 277.31198
-6.1666851 -13.579735 276.54044
-6.090744 -12.311222 275.53903
-5.9984431 -14.769558 276.96191
-5.8374448 -13.129524 276.33972
-5.6669378 -14.30831 276.77255
-5.5660543 -12.29133 275.98969
-5.4992695 -15.500929 277.19113
-5.3964062 -13.474302 276.41818
-8.7608738 -11.612645 275.94293
-8.7562857 -8.3699322 275.34622
-8.7284889 -11.591495 275.36542
-8.5460787 -10.025157 275.83743
-8.4185038 -11.022345 275.30045
-8.3195486 -8.735673 275.40311
-8.2174902 -9.5781212 275.63345
-8.0474901 -10.449984 275.22018
-7.892591 -9.1490688 275.41101
-7.7042723 -9.8790855 275.14688
-7.408175 -9.3106651 275.08539
-7.1854262 -8.7944145 275.08926
-5.7051959 -11.738098 275.45511
-5.2841172 -11.163105 275.36227
-5.2314091 -11.81478 275.81604
-8.4282846 -7.9257607 275.13931
-7.6025438 -8.2199497 275.15442
-5.0933237 -16.277586 278.64731
-4.9762282 -16.115982 277.53995
-4.6548376 -15.704028 277.2999
-4.4437928 -15.857799 278.10938
-5.1725278 -15.062898 276.97787
-5.0656457 -13.016683 276.22507
-4.8996358 -14.217384 276.63535
-4.7916489 -12.165787 275.88806
-4.3955793 -14.924958 276.88904
-4.3545794 -12.529905 275.94662
-4.2469764 -13.345335 276.20477
-4.1321282 -14.125458 276.49921
-4.0311933 -15.493453 278.22311
-3.79128 -15.448571 277.58112
-3.6206563 -14.796893 276.79004
-3.5378411 -12.867969 275.91663
-3.3525496 -13.974701 276.42352
-3.2789459 -14.971927 278.11621
-3.027724 -13.546007 276.20068
-3.0178914 -15.001927 277.54282
-2.8444855 -14.662745 276.6973
-2.5186322 -14.478971 278.03546
-2.3413403 -14.677844 277.09259
-4.5707288 -10.903643 275.42563
-4.45893 -11.698626 275.7048
-30.972937 -22.940399 279.28333
-30.85173 -23.486876 279.24017
-33.349606 -20.144985 282.54343
-33.320095 -20.715076 282.54156
-33.243858 -19.553818 282.4978
-32.618195 -20.152281 282.24249
-32.521099 -21.018925 282.44797
-32.281315 -19.664845 282.08005
-32.184338 -20.532049 282.28497
-32.09108 -21.417393 282.47122
-31.84376 -20.026594 282.14105
-31.752382 -20.921095 282.31787
-31.658243 -21.802149 282.50854
-31.540874 -19.919874 279.21115
-31.518333 -19.594967 281.92123
-31.459011 -20.468418 279.17789
-31.427309 -20.491201 282.09628
-31.420681 -19.933001 279.7504
-31.367905 -21.016476 279.14227
-31.342299 -20.481728 279.71799
-31.330433 -21.358904 282.30069
-31.291735 -19.945665 280.28745
-31.252291 -21.029842 279.68268
-31.227776 -22.198435 282.53403
-31.224905 -19.428196 281.42221
-31.217751 -20.494625 280.25616
-31.193581 -19.959951 280.83224
-31.193058 -22.112978 279.07294
-31.159424 -21.577808 279.64664
-31.122055 -21.04244 280.21942
-31.114199 -19.975224 281.38171
-31.098204 -20.507784 280.79556
-31.022182 -20.523233 281.34589
-31.012432 -21.056124 280.76132
-30.952099 -22.405903 279.86023
-30.950237 -21.091745 281.88449
-30.92202 -21.870918 280.43481
-30.823986 -21.618509 281.27069
-30.791363 -21.63624 281.83191
-33.156796 -18.996391 282.48874
-33.015156 -18.436094 282.46597
-32.856255 -17.874887 282.43887
-32.785038 -18.285732 281.96857
-32.708267 -19.251408 282.0722
-32.667179 -17.312096 282.40424
-32.494411 -16.730715 281.80426
-32.493004 -17.346914 281.72195
-32.373901 -18.77622 281.89719
-32.341263 -16.479099 282.62228
-32.280434 -16.166613 281.76337
-32.233429 -16.183586 282.32098
-32.091213 -15.927387 282.55676
-32.078365 -17.820351 281.66809
-31.943842 -19.174515 281.92059
-31.918604 -16.186357 281.03973
-31.900604 -15.782701 279.11227
-31.898062 -16.335417 279.09891
-31.87184 -16.886887 279.07956
-31.854067 -17.438801 279.06238
-31.819731 -17.044334 281.25412
-31.813583 -15.79757 279.65985
-31.80468 -17.989052 279.03723
-31.796881 -16.349543 279.64291
-31.771839 -16.901073 279.62387
-31.747889 -18.538916 279.01025
-31.743761 -17.452446 279.6041
-31.736668 -15.812974 280.20996
-31.710442 -16.364443 280.19061
-31.686188 -18.002268 279.5769
-31.678524 -19.088116 278.9801
-31.677355 -16.915552 280.16959
-31.672165 -18.334919 281.57199
-31.633511 -17.466095 280.14584
-31.623695 -18.55183 279.54849
-31.617512 -16.931852 280.72397
-31.577795 -18.016014 280.11911
-31.568445 -19.101774 279.52188
-31.547956 -17.481043 280.69376
-31.518026 -18.56572 280.09137
-31.48473 -18.030567 280.66516
-31.448118 -19.114893 280.0611
-31.423866 -18.580215 280.63715
-31.38249 -18.883635 281.47449
-31.34679 -19.129011 280.60507
-30.773546 -15.72343 278.82971
-32.047184 -15.620944 282.28702
-32.0047 -15.313114 281.42868
-31.987303 -15.331646 281.99368
-31.957357 -15.392185 282.509
-31.929161 -15.298667 282.50049
-31.877916 -15.228659 279.11935
-31.875975 -15.059091 282.25684
-31.812754 -15.244678 279.67239
-31.810726 -14.750065 281.39279
-31.809471 -14.672211 279.11493
-31.808514 -15.28335 280.81009
-31.802088 -14.730163 280.82123
-31.800713 -14.691196 279.68213
-31.76289 -14.708654 280.24203
-31.75972 -14.766829 281.94937
-31.743124 -15.260464 280.2243
-31.689152 -14.113033 279.09753
-31.685661 -14.132298 279.66602
-31.620573 -14.148321 280.21909
-31.607992 -14.167107 280.78531
-31.605751 -14.511101 282.18103
-31.580225 -14.185093 281.34775
-31.491425 -14.202751 281.89172
-31.417061 -13.909812 281.5979
-31.380289 -13.56223 279.01288
-31.375292 -13.60202 280.73972
-31.369944 -13.582292 280.16901
-31.338293 -13.619521 281.29984
-31.275637 -13.64045 281.8483
-31.191132 -13.345081 281.55402
-31.177938 -13.700573 279.44092
-31.15914 -13.353552 281.84317
-31.124317 -13.035973 280.68954
-31.096718 -13.053968 281.25201
-31.029188 -14.631176 278.91931
-30.940887 -12.779073 281.50403
-30.918787 -15.178219 278.87888
-30.864275 -14.375249 279.7384
-30.843361 -12.487796 281.20123
-30.840012 -12.468172 280.63101
-28.523289 -30.304207 279.35107
-28.363081 -30.315229 279.88031
-28.300032 -30.845316 279.28235
-28.205854 -30.326408 280.41025
-28.13933 -30.856312 279.81146
-28.059988 -31.385542 279.20941
-28.056425 -30.337997 280.94217
-27.9813 -30.867449 280.34122
-27.902718 -31.396717 279.73938
-27.891819 -30.348787 281.47031
-27.820099 -30.878418 280.87018
-27.815094 -31.92551 279.13528
-27.746323 -31.407942 280.26953
-27.711628 -30.358759 281.99451
-27.663647 -31.936996 279.66669
-27.644615 -30.888636 281.39557
-27.598141 -30.372236 282.53543
-27.577293 -31.418499 280.79654
-27.567383 -32.465332 279.06042
-27.502796 -31.947981 280.19574
-27.475662 -30.899199 281.92258
-27.414047 -32.476715 279.59134
-27.403131 -31.428783 281.32227
-27.341801 -30.911606 282.4584
-27.327112 -31.958189 280.72107
-27.294434 -33.00383 278.97922
-27.246241 -32.487339 280.11865
-27.226639 -31.43895 281.84741
-27.155952 -31.968634 281.24753
-27.147545 -33.015549 279.51178
-29.993036 -26.75881 278.94839
-29.82427 -27.302784 278.89331
-29.703619 -27.049187 279.72351
-29.654591 -27.84671 278.83804
-29.55781 -27.060965 280.25635
-29.528215 -27.59281 279.66681
-29.450396 -26.541361 281.38095
-29.412737 -27.072783 280.78937
-29.385132 -27.604733 280.20032
-29.344019 -28.135973 279.60785
-29.330143 -26.554483 281.92017
-29.273064 -27.084885 281.32373
-29.262981 -26.5704 282.47272
-29.234333 -27.616249 280.73187
-29.205545 -28.148138 280.14252
-29.15461 -27.098103 281.8634
-29.148233 -28.678526 279.54602
-29.077768 -27.627462 281.26202
-29.066645 -27.112923 282.41074
-29.053873 -28.159609 280.67389
-29.004526 -28.690414 280.07938
-28.947578 -27.640064 281.79874
-28.946157 -29.220747 279.4826
-28.884785 -28.170164 281.20087
-28.883682 -27.656151 282.35211
-28.845875 -28.701519 280.60898
-28.799507 -29.232483 280.01523
-28.750614 -28.182554 281.7366
-28.743004 -29.762913 279.41891
-28.693138 -28.712934 281.14008
-28.656803 -28.197067 282.28247
-28.643789 -29.24374 280.54556
-28.586317 -29.77412 279.94904
-28.539047 -28.724277 281.67081
-28.479904 -29.254568 281.07385
-28.427843 -28.737877 282.21231
-28.426296 -29.785152 280.47827
-28.321867 -29.265705 281.60361
-28.275833 -29.796686 281.00995
-28.180874 -29.277737 282.13766
-28.155272 -26.681612 279.05701
-28.106598 -29.807234 281.5369
-28.011448 -27.226896 279.00818
-28.009792 -26.693407 279.5899
-27.953161 -29.818611 282.06781
-27.875969 -27.772621 278.96146
-27.868181 -27.23881 279.54166
-27.866396 -26.705315 280.12335
-27.852716 -29.832775 282.612
-27.729776 -27.250978 280.07632
-27.729717 -26.717573 280.65845
-27.720308 -27.783882 279.49182
-27.713158 -28.316908 278.9079
-27.591034 -27.263128 280.61093
-27.585005 -27.796213 280.02728
-27.575411 -26.728905 281.18915
-27.567739 -28.328709 279.44083
-27.538376 -28.860565 278.85132
-27.451185 -26.741819 281.72739
-27.450792 -27.808603 280.56302
-27.441704 -27.274723 281.14288
-27.424545 -28.340624 279.9743
-27.406687 -28.873087 279.3877
-27.312252 -27.287363 281.67981
-27.298788 -27.820057 281.0943
-27.294153 -28.353214 280.51099
-27.270868 -26.751783 282.25156
-27.264088 -28.885035 279.92133
-27.230633 -29.416677 279.33081
-27.153561 -27.831865 281.62726
-27.151983 -27.29838 282.20901
-27.13607 -28.364347 281.04074
-30.723177 -24.032963 279.19519
-30.717352 -23.232553 280.06696
-30.595526 -23.778996 280.02365
-30.589649 -24.578791 279.14899
-30.578779 -23.244713 280.60159
-30.468048 -24.325142 279.97894
-30.454069 -25.12451 279.10223
-30.446209 -23.257189 281.13773
-30.442043 -23.790371 280.55457
-30.373331 -23.272804 281.68884
-30.364191 -23.291769 282.25592
-30.32786 -24.337215 280.51318
-30.326614 -24.870552 279.93073
-30.319412 -23.80337 281.0932
-30.301008 -25.66931 279.05112
-30.222116 -23.817699 281.63818
-30.185635 -24.882586 280.46475
-30.181957 -25.415794 279.88171
-30.177559 -24.348759 281.04486
-30.150114 -26.214222 279.00052
-30.075977 -24.362864 281.58878
-30.05195 -25.428404 280.41849
-30.040644 -24.894407 280.9978
-30.020981 -25.960178 279.82858
-30.001547 -24.378397 282.1395
-29.921822 -24.907606 281.53738
-29.899706 -25.439844 280.94971
-29.886538 -25.972555 280.36426
-29.866648 -26.50491 279.77716
-29.866636 -24.92415 282.09293
-29.759115 -25.451899 281.48386
-29.745588 -25.984589 280.89832
-29.733389 -26.517349 280.31311
-29.660503 -25.46616 282.0285
-29.641157 -25.484589 282.59305
-29.593801 -25.996054 281.42966
-29.586893 -26.529093 280.84576
-29.507851 -26.010981 281.97748
-29.415913 -26.025593 282.5238
-28.878569 -23.402555 279.31485
-28.780325 -23.950237 279.27747
-28.732569 -23.414324 279.84763
-28.662149 -24.496872 279.23508
-28.626276 -23.961584 279.80823
-28.594141 -23.426491 280.38229
-28.53758 -25.043169 279.1911
-28.523691 -24.509037 279.76974
-28.482716 -23.97348 280.34161
-28.423332 -25.59001 279.14972
-28.399424 -25.055351 279.72586
-28.38096 -24.520979 280.30334
-28.34399 -23.985632 280.87622
-28.329395 -23.451462 281.45468
-28.278214 -26.135227 279.10059
-28.276657 -25.601744 279.68231
-28.263239 -25.067636 280.26108
-28.23336 -24.532663 280.83572
-28.22435 -23.998787 281.41562
-28.1525 -26.148064 279.63843
-28.140923 -25.614054 280.21768
-28.111479 -25.079103 280.79242
-28.103605 -24.545286 281.37259
-28.089626 -23.4583 281.96396
-28.009027 -22.901213 281.95651
-28.007761 -26.159899 280.17154
-27.994331 -25.625792 280.75031
-27.989841 -25.092154 281.3313
-27.916872 -24.554914 281.89514
-27.859108 -26.171528 280.70364
-27.851294 -25.637716 281.28381
-27.821949 -25.10277 281.85858
-27.720955 -26.18371 281.2384
-27.705622 -25.649502 281.81668
-27.612316 -23.676502 282.16937
-27.584358 -26.195974 281.77353
-27.534739 -25.107113 282.35596
-27.386873 -26.205036 282.2934
-27.264528 -23.13591 282.06158
-27.172796 -24.028685 282.24017
-30.703672 -22.431732 280.93671
-30.617037 -22.179922 281.77545
-30.508116 -22.74649 282.30478
-30.488214 -22.725996 281.73041
-29.744219 -19.558689 279.05176
-29.610327 -20.104496 279.00543
-29.566179 -19.568773 279.57651
-29.496052 -20.651337 278.96402
-29.451633 -20.115599 279.53503
-29.276011 -21.478762 279.17444
-29.271677 -19.592178 280.64142
-29.240705 -20.943502 279.74771
-29.181643 -20.406994 280.31503
-29.172859 -22.026186 279.1358
-29.082935 -22.574305 279.10052
-29.027456 -22.037987 279.66873
-28.983522 -21.502274 280.23987
-28.975363 -20.148891 281.12378
-28.941204 -20.966646 280.8114
-28.859602 -19.407463 281.30667
-28.830608 -22.866631 279.88495
-28.763943 -22.329723 280.45038
-28.694468 -21.792667 281.01511
-28.690376 -22.878704 280.41919
-28.536577 -22.890062 280.95001
-28.519236 -21.25005 281.55328
-28.435854 -22.351362 281.5069
-28.412701 -19.723669 281.41449
-28.327301 -20.647305 281.56137
-27.983231 -20.124821 281.43497
-27.888842 -21.004652 281.62686
-27.79777 -21.90065 281.80219
-27.649403 -19.652258 281.25723
-27.552599 -20.520319 281.46124
-27.457218 -21.395315 281.65814
-27.360138 -22.26203 281.86353
-27.219883 -20.053173 281.27795
-27.123241 -20.922026 281.48114
-30.609541 -15.734252 279.35797
-30.510054 -16.28187 279.32028
-30.432955 -15.744412 279.88309
-30.378712 -16.82781 279.2746
-30.330866 -16.291893 279.84473
-30.248304 -15.75415 280.40616
-30.242981 -17.373522 279.22781
-30.194729 -16.837582 279.79785
-30.166239 -16.302683 280.37283
-30.110901 -17.919426 279.18195
-30.067783 -17.383755 279.75327
-30.023039 -16.848 280.32419
-29.996017 -18.466232 279.14038
-29.923695 -17.929028 279.70438
-29.885992 -17.393642 280.27707
-29.866522 -19.012272 279.09518
-29.814959 -18.476158 279.66437
-29.761509 -17.939945 280.23312
-29.692999 -19.022593 279.62106
-29.629244 -18.485838 280.18719
-29.617928 -17.398993 280.77924
-29.567133 -16.341936 280.73602
-29.528049 -19.033365 280.14908
-29.351427 -18.776823 280.96524
-29.284664 -18.220463 280.96124
-29.226276 -15.835117 280.59351
-29.129421 -16.702932 280.79776
-29.041687 -17.615191 280.95636
-28.795536 -16.23008 280.62033
-28.698195 -17.095518 280.82706
-28.605232 -17.982306 281.01181
-28.509422 -18.855206 281.21088
-28.456327 -15.731292 280.46957
-28.362965 -16.616125 280.65634
-28.271427 -17.509846 280.83398
-28.177397 -18.391426 281.02411
-28.081388 -19.263357 281.22415
-27.840254 -17.9027 280.86301
-27.744593 -18.776335 281.06128
-27.641207 -16.077242 280.43146
-27.549847 -16.971834 280.60822
-30.754362 -15.189019 279.40701
-30.749102 -12.919356 279.95627
-30.651062 -12.213649 281.44119
-30.61816 -13.848773 280.27921
-30.591749 -15.199914 279.93564
-30.274956 -13.312092 280.1265
-30.185459 -14.181512 280.3313
-30.095747 -15.084133 280.49979
-29.992027 -12.383409 279.87164
-29.842493 -13.664404 280.19937
-29.750429 -14.555567 280.37964
-29.65452 -15.427983 280.57916
-29.552595 -12.736012 279.94205
-29.418688 -14.093171 280.19144
-29.322592 -14.964677 280.39194
-29.124985 -13.146233 279.95319
-28.985224 -14.474862 280.23193
-28.891104 -15.355999 280.42252
-28.828892 -12.187651 279.7269
-28.402781 -12.60517 279.73056
-28.3125 -13.505021 279.90189
-28.217264 -14.380729 280.09805
-27.7372 -15.205232 280.23151
-27.681446 -12.068352 279.50354
-27.591757 -12.971084 279.67194
-27.499363 -13.860635 279.85385
-30.572041 -11.901231 280.5766
-30.552479 -11.919649 281.14105
-30.429443 -11.62703 280.83191
-30.398365 -11.874987 279.96594
-30.314335 -11.334829 280.52472
-30.295599 -11.353291 281.08942
-30.213785 -11.310095 279.93011
-30.191023 -11.061644 280.78488
-30.102003 -10.751367 279.91486
-30.070921 -10.769179 280.47644
-30.015659 -10.788387 281.02905
-29.89752 -10.49336 280.72403
-29.773575 -10.436442 279.543
-29.719414 -10.197845 280.40106
-29.694038 -11.415591 279.65485
-29.564966 -9.9256887 280.65048
-29.508093 -9.8811369 279.50037
-29.4592 -9.6313114 280.34857
-29.36211 -10.952279 279.46762
-29.335358 -9.4820881 280.47327
-29.260038 -11.794664 279.69803
-29.258078 -9.3477983 280.40659
-29.207157 -9.3124619 279.43768
-29.13006 -9.0796509 280.25861
-29.027697 -10.476861 279.29282
-28.959793 -8.7266779 279.91949
-28.930525 -8.7450647 279.38107
-28.928938 -11.335386 279.50665
-28.79159 -9.1407003 278.90646
-28.761946 -8.4786692 279.89832
-28.69405 -10.005171 279.1142
-28.596071 -10.867509 279.3241
-28.495169 -11.715597 279.54865
-28.358025 -9.5219021 278.94748
-28.258539 -10.376894 279.16492
-28.159557 -11.234334 279.37985
-27.926464 -9.9128656 278.97842
-27.827793 -10.771828 279.1918
-27.494667 -10.302682 279.01056
-28.728996 -8.2774029 279.82935
-28.708607 -7.9357486 279.60535
-28.633312 -7.8517609 279.55383
-28.300446 -7.6062317 279.2486
-28.236822 -7.4670763 279.38086
-28.135595 -7.3250527 279.32828
-28.02957 -7.1091652 279.26154
-27.982285 -7.0366507 279.18158
-27.938425 -6.9937243 279.2149
-27.665819 -6.7416382 279.05164
-27.54085 -6.5879889 278.94461
-27.434278 -6.448153 278.85696
-26.573538 -34.091061 279.34238
-27.097086 -31.451586 282.38431
-27.064468 -32.497227 280.64246
-27.032089 -33.542881 278.9007
-26.982225 -31.978947 281.77338
-26.975231 -33.025936 280.03796
-26.890535 -32.507526 281.16824
-26.862059 -33.553387 279.42746
-26.855223 -30.502634 279.21118
-26.814035 -31.989548 282.3006
-26.793858 -33.035843 280.56186
-26.709215 -32.517437 281.69217
-26.705122 -30.514187 279.74292
-26.692909 -33.563938 279.95444
-26.650223 -31.044703 279.14703
-26.619555 -33.046124 281.08755
-26.550943 -32.528561 282.22186
-26.549776 -30.525465 280.27335
-26.510025 -33.573769 280.47797
-26.491707 -31.055813 279.67667
-26.443966 -33.056339 281.61292
-26.438234 -31.586401 279.08112
-26.400555 -30.537064 280.80533
-26.337866 -31.067169 280.20749
-26.336473 -33.584087 281.00381
-26.282774 -31.597673 279.61154
-26.26186 -33.066208 282.13663
-26.247808 -30.548479 281.33643
-26.20484 -32.126976 279.00986
-26.186647 -31.078663 280.73895
-26.160593 -33.594284 281.52911
-26.128611 -31.609015 280.14227
-26.083166 -30.559267 281.86453
-26.056938 -32.138645 279.54214
-26.034433 -31.090107 281.27017
-25.967842 -31.620007 280.67133
-25.966846 -32.667309 278.93744
-25.918732 -30.570066 282.39267
-25.90436 -32.15007 280.07327
-25.857714 -31.10026 281.79526
-25.819746 -32.67902 279.46994
-25.803289 -31.630798 281.19946
-25.737675 -32.160751 280.60089
-25.714565 -31.112179 282.32874
-25.703417 -33.206306 278.85864
-25.657194 -32.689919 279.99857
-25.631306 -31.641201 281.72574
-25.574795 -32.171631 281.12943
-25.542454 -33.217289 279.38766
-25.4944 -32.700806 280.52713
-25.472082 -31.652275 282.25519
-25.400387 -32.181908 281.65509
-25.388674 -33.228649 279.91849
-25.32983 -32.711597 281.05527
-25.266027 -33.7556 279.3056
-25.224447 -32.192101 282.18036
-25.222631 -33.239365 280.44623
-25.16675 -32.722469 281.58374
-25.110025 -33.766842 279.83588
-25.06488 -33.250515 280.97607
-24.975645 -32.731865 282.10522
-24.893585 -33.260952 281.5025
-24.807774 -32.742485 282.63251
-24.726036 -33.271587 282.02988
-27.106606 -28.8962 280.45123
-27.079206 -29.428162 279.86221
-27.041237 -29.959566 279.27057
-27.019909 -27.844284 282.16315
-26.977909 -28.375477 281.57047
-26.95668 -28.907763 280.983
-26.929924 -29.439758 280.39417
-26.89646 -29.971399 279.80365
-26.836298 -28.387478 282.10434
-26.800453 -28.918995 281.51321
-26.774776 -29.451046 280.92465
-26.75168 -29.983232 280.33673
-26.641558 -28.396683 282.62491
-26.63863 -28.929932 282.04205
-26.630505 -29.462906 281.45786
-26.598587 -29.994629 280.86774
-26.462234 -28.940102 282.5672
-26.460255 -29.4734 281.98456
-26.447008 -30.006105 281.39911
-26.308464 -29.484863 282.5159
-26.280874 -30.016815 281.92685
-26.139669 -30.028837 282.46082
-25.738388 -26.530375 282.61163
-24.915136 -26.836699 282.61426
-24.1033 -27.198654 282.55969
-27.030985 -25.347319 282.52921
-26.954723 -26.315489 282.63031
-26.836449 -23.54384 282.07507
-26.742855 -24.427547 282.26303
-26.598457 -25.73357 282.565
-26.496498 -23.04143 281.92804
-26.405115 -23.935915 282.10489
-26.308819 -24.806446 282.30637
-26.168638 -26.133022 282.58722
-25.879004 -25.205915 282.32858
-25.722853 -22.919588 281.82263
-25.631113 -23.812336 282.00128
-25.397669 -26.024225 282.46841
-25.151285 -24.637985 282.13358
-24.909266 -23.27301 281.77686
-24.670368 -25.458328 282.2713
-24.427971 -24.09152 281.91647
-24.191593 -26.289118 282.39832
-23.946501 -24.909166 282.05701
-23.706421 -23.55365 281.69055
-23.465418 -25.728704 282.19559
-27.026571 -21.790735 281.68451
-26.928967 -22.654888 281.89255
-26.496586 -19.506783 281.06079
-26.39925 -20.372248 281.26749
-26.303774 -21.246786 281.46484
-26.204622 -22.103405 281.68063
-25.674665 -19.819595 281.05676
-25.578321 -20.68989 281.25848
-25.479187 -21.546598 281.47418
-25.00066 -22.37859 281.59995
-24.954865 -19.290245 280.82208
-24.858852 -20.162167 281.02213
-24.763739 -21.038458 281.21768
-24.280228 -21.846163 281.36841
-24.182711 -22.710749 281.57602
-24.141073 -19.642672 280.77731
-24.044235 -20.510571 280.98151
-23.560955 -21.319397 281.13107
-23.462502 -22.179417 281.34338
-27.070004 -17.797409 280.74057
-26.973433 -18.666603 280.94342
-26.828127 -16.43313 280.38315
-26.352619 -17.279844 280.49377
-26.253918 -18.138653 280.70731
-26.108999 -15.90707 280.14508
-25.772963 -18.958811 280.84525
-25.630981 -16.741547 280.26831
-25.535763 -17.617327 280.46439
-25.050644 -18.417191 280.6232
-24.912045 -16.216402 280.0293
-24.814173 -17.079262 280.23868
-24.33143 -17.890715 280.38556
-24.240332 -18.786575 280.561
-24.190886 -15.680438 279.80142
-24.092064 -16.538668 280.01553
-23.61224 -17.364338 280.14783
-23.514172 -18.22624 280.35815
-27.018955 -14.683463 279.98904
-26.920687 -15.54439 280.20038
-26.871796 -12.440959 279.43805
-26.782181 -13.344053 279.60605
-26.30055 -14.160926 279.74734
-26.205383 -15.036965 279.94318
-26.059063 -12.798542 279.38797
-25.582403 -13.639637 279.50439
-25.486355 -14.511379 279.70462
-25.388424 -15.373943 279.91428
-24.912315 -12.682651 279.16113
-24.766249 -13.980543 279.47147
-24.669054 -14.846704 279.67743
-24.190123 -12.141651 278.93842
-24.093103 -13.008659 279.14352
-23.949377 -14.317958 279.44214
-23.468075 -15.136426 279.58182
-27.013214 -11.120412 279.15097
-26.297066 -10.60887 278.89798
-26.198755 -11.469585 279.10956
-25.481146 -10.950919 278.86389
-25.385948 -11.826806 279.05988
-23.369112 -26.599188 282.39709
-23.282396 -27.516417 282.55057
-22.55118 -26.931437 282.37308
-22.067785 -27.739704 282.52325
-21.342033 -27.18136 282.31839
-21.252539 -28.085039 282.48578
-20.627218 -26.676311 282.05872
-20.531797 -27.551107 282.2558
-20.436302 -28.425547 282.45328
-19.81942 -27.057938 281.98392
-23.223478 -24.364119 281.83847
-22.978462 -22.984547 281.49677
-22.743521 -25.189137 281.97141
-22.648031 -26.063602 282.16882
-22.503283 -23.832846 281.60577
-22.019234 -24.637928 281.75919
-21.919863 -25.493477 281.97607
-21.827423 -26.382812 282.15823
-21.777664 -23.275154 281.40021
-21.301739 -24.119823 281.51294
-21.195919 -24.943947 281.76215
-21.103668 -25.834194 281.94336
-20.580135 -23.581696 281.28729
-20.485859 -24.462072 281.47867
-20.390945 -25.33934 281.67322
-20.25094 -23.131706 281.08636
-20.154512 -24.001595 281.28851
-19.969904 -25.781576 281.65146
-19.818789 -23.519789 281.12027
-23.320646 -19.962763 280.76581
-22.836264 -20.766218 280.9209
-22.73564 -21.615654 281.14407
-22.599176 -19.425276 280.53949
-22.262888 -22.475796 281.24091
-22.116016 -20.234697 280.68845
-22.019016 -21.101795 280.89346
-21.540312 -21.932928 281.02011
-21.399269 -19.720228 280.43848
-21.301878 -20.58543 280.64545
-21.059952 -22.755983 281.15506
-20.82572 -21.428968 280.75934
-20.584293 -20.066879 280.39966
-20.487148 -20.933277 280.60538
-20.398561 -21.841385 280.76822
-20.243778 -19.561724 280.25543
-20.147869 -20.434147 280.45496
-20.052547 -21.309427 280.65155
-19.966333 -22.229099 280.80252
-19.819775 -19.989523 280.2485
-23.414152 -19.078625 280.57831
-23.372887 -16.012365 279.77774
-22.89081 -16.827057 279.9213
-22.79607 -17.705172 280.11496
-22.697346 -18.563875 280.32861
-22.170448 -16.294979 279.68942
-22.075415 -17.171665 279.88455
-21.980501 -18.048931 280.07913
-21.881321 -18.905415 280.29504
-21.358252 -16.655174 279.63666
-21.260359 -17.517927 279.84613
-21.158979 -18.363684 280.07309
-20.686487 -15.69002 279.30179
-20.683998 -19.212955 280.18109
-20.5404 -16.987808 279.61224
-20.440041 -17.838539 279.83408
-20.343563 -18.708191 280.03647
-20.253775 -16.075371 279.33853
-20.103693 -17.353695 279.66898
-20.008457 -18.229399 279.86514
-19.911516 -19.096785 280.06985
-19.812416 -16.418589 279.41855
-23.375559 -12.490314 278.89752
-23.27606 -13.345238 279.11505
-22.797464 -14.176896 279.24115
-22.650797 -15.471861 279.55453
-22.562185 -12.844774 278.85068
-22.083935 -13.678113 278.97507
-21.985487 -14.53816 279.18732
-21.500978 -15.341004 279.34305
-21.271097 -14.035186 278.92551
-20.785988 -14.835102 279.08426
-20.456425 -14.383317 278.88516
-20.354174 -15.224833 279.11649
-20.018772 -14.744592 278.94666
-19.914406 -15.575798 279.18857
-17.916216 -30.439053 282.43237
-17.477459 -30.79495 282.49936
-17.358423 -30.919991 279.3732
-17.238668 -30.666439 280.20361
-17.191236 -30.416691 281.05219
-17.081352 -31.72497 278.99991
-17.043711 -31.175249 282.54129
-16.945604 -30.956621 280.97784
-16.829926 -31.48394 280.3667
-16.724995 -30.697765 281.78296
-16.646332 -32.274387 279.44748
-16.615826 -31.584143 282.5538
-16.502056 -31.505592 281.42325
-16.378532 -32.032497 280.81015
-16.167198 -31.793575 282.18701
-19.721121 -27.918711 282.19543
-19.624779 -28.789026 282.39716
-19.52739 -29.65423 282.6041
-19.05891 -27.000124 281.81271
-18.964497 -27.879827 282.00476
-18.911734 -26.559439 279.29526
-18.870962 -28.763824 282.19238
-18.771814 -29.620453 282.40817
-18.656969 -27.385038 279.49695
-18.643839 -27.471449 281.76102
-18.574638 -26.866753 280.62784
-18.549856 -28.353254 281.95093
-18.486282 -28.462313 278.85928
-18.427776 -27.411879 280.57825
-18.369022 -28.208891 279.69031
-18.341455 -30.017279 282.43307
-18.275545 -27.956722 280.52734
-18.228615 -27.707001 281.37601
-18.162117 -29.284262 279.04355
-18.081757 -28.49938 280.466
-18.035919 -28.249716 281.31497
-18.023367 -29.029711 279.86923
-18.013548 -29.57357 282.22568
-17.816425 -28.791021 281.24716
-17.786861 -30.103525 279.21503
-17.739389 -29.320372 280.64572
-17.630159 -29.84803 280.03619
-17.573563 -29.923477 282.29886
-17.554586 -29.349548 281.73816
-17.420622 -29.875904 281.12244
-17.024467 -30.160666 281.87082
-19.733458 -24.443764 281.26682
-19.640381 -25.329987 281.45215
-19.541897 -26.189859 281.66458
-19.475847 -23.252563 278.94382
-19.309971 -24.874079 281.25729
-19.293756 -23.548582 279.74585
-19.263008 -24.366516 279.43433
-19.262768 -23.2997 280.59854
-19.133568 -24.112453 280.26233
-19.126091 -25.465014 279.37451
-19.118172 -24.131092 280.82785
-18.995985 -25.210917 280.20233
-18.995554 -24.677492 280.78436
-18.891773 -25.758286 280.16345
-18.860609 -25.776094 280.72504
-18.708246 -26.32093 280.67407
-18.648516 -26.337236 281.22849
-17.121284 -23.434334 279.20117
-17.065193 -22.897982 279.76923
-16.919874 -24.262739 279.41623
-16.867811 -23.726599 279.98532
-16.802063 -22.903591 280.27264
-16.791063 -25.075516 279.08011
-16.643064 -24.820478 279.90347
-16.597784 -23.731846 280.487
-16.489441 -25.898651 279.27005
-16.374405 -25.378645 280.39273
-16.19709 -25.922171 280.33554
-16.19677 -24.965893 280.78848
-16.184782 -26.454926 279.75031
-19.524967 -20.529797 280.15866
-19.501423 -20.489664 279.01398
-19.470795 -21.879898 279.25912
-19.460779 -19.934677 279.01654
-19.454685 -19.687103 279.87546
-19.449585 -19.381239 279.02649
-19.422441 -21.057806 279.55081
-19.411493 -21.915674 280.38303
-19.398623 -21.076 280.11423
-19.363724 -22.446564 279.78891
-17.62908 -19.571648 278.84836
-17.456158 -20.134851 279.36163
-17.448112 -21.506826 279.04306
-17.365444 -20.969078 279.60446
-17.29615 -22.337831 279.27051
-17.19956 -21.799351 279.82843
-17.143866 -19.718304 279.72
-16.713223 -22.346071 280.26312
-16.643827 -20.445461 279.95355
-16.551645 -21.33604 280.13443
-16.353313 -19.514067 279.69931
-16.204767 -20.799875 280.02209
-19.677711 -17.771852 279.67197
-19.590101 -18.684721 279.82993
-19.486233 -15.983276 279.20255
-19.411108 -18.826366 279.02957
-19.392963 -16.900164 279.35437
-19.387093 -18.272255 279.03632
-19.349209 -17.717413 279.03958
-17.584146 -17.910738 278.87534
-17.429792 -16.796923 278.86215
-17.421059 -19.027308 279.37833
-17.307663 -18.468494 279.36264
-16.990065 -17.44343 279.2023
-16.79324 -19.163872 279.62646
-16.64921 -16.936617 279.05978
-16.551157 -17.798592 279.27005
-16.450245 -18.646627 279.49466
-16.208191 -17.281488 279.13812
-19.583118 -15.115608 278.99811
-14.462572 -30.787148 279.21652
-14.183213 -30.544649 280.57629
-14.125496 -31.588972 278.82819
-14.07564 -31.072393 279.96719
-13.788006 -30.562759 281.61597
-13.734349 -31.09334 281.02039
-13.721857 -31.873339 279.57468
-13.614038 -31.620413 280.40808
-13.270332 -31.374533 281.75174
-13.17634 -30.570225 282.00998
-12.736989 -30.923227 282.07996
-15.993386 -27.26441 279.3985
-15.888265 -26.744926 280.52368
-15.802663 -28.073929 279.04688
-15.704777 -27.288126 280.4649
-15.526875 -27.831619 280.40756
-15.463666 -28.361696 279.80957
-15.215724 -29.168207 279.4436
-15.14881 -28.384033 280.86942
-15.090124 -28.914349 280.27255
-14.935685 -29.97303 279.06955
-14.859241 -29.455055 280.2019
-14.736166 -28.934628 281.32257
-14.722405 -27.272858 281.36011
-14.60998 -29.994797 280.12668
-14.515539 -29.475874 281.25452
-14.385255 -26.784101 281.19904
-14.287953 -27.649734 281.40555
-14.286019 -30.016653 281.1842
-14.190456 -28.514416 281.61304
-13.948367 -27.149105 281.25668
-13.853474 -28.026476 281.45111
-13.753958 -28.881315 281.66873
-13.664336 -29.784378 281.83676
-13.608758 -26.648363 281.10791
-13.510042 -27.507105 281.3215
-13.412562 -28.37187 281.52893
-13.319138 -29.256397 281.716
-12.974028 -28.728848 281.59482
-12.878941 -29.605276 281.79022
-12.779623 -26.92601 281.14005
-12.679355 -27.777185 281.36142
-15.928054 -23.470816 280.56552
-15.837394 -24.368813 280.73877
-15.700026 -25.709095 281.00552
-15.581753 -22.937458 280.45029
-15.492616 -23.842886 280.61591
-15.399275 -24.727819 280.80258
-15.256678 -26.042625 281.09552
-15.148177 -23.318605 280.49133
-15.058542 -24.221605 280.65942
-14.964978 -25.105455 280.84723
-14.823421 -26.425322 281.13498
-14.62536 -24.604666 280.69852
-14.531335 -25.486271 280.88861
-14.339794 -23.69739 280.41949
-14.095269 -25.855282 280.94214
-13.862194 -24.533892 280.54062
-13.597697 -23.7293 280.15601
-13.371417 -25.306189 280.72775
-13.090662 -24.422356 280.42462
-12.888574 -23.251989 279.86783
-12.880537 -26.07798 280.91541
-16.110476 -21.68018 280.21353
-16.01968 -22.577524 280.38745
-15.912951 -19.862141 279.77438
-15.767379 -21.162441 280.08224
-15.674129 -22.047821 280.26846
-15.431705 -20.680878 279.91376
-15.2429 -22.440401 280.29776
-15.145804 -19.771969 279.63641
-14.955209 -21.522768 280.02936
-14.431296 -22.803493 280.24203
-14.332997 -20.129189 279.58673
-14.232905 -20.981226 279.80722
-14.139528 -21.865986 279.99408
-13.687162 -22.825478 279.98874
-13.613899 -19.60327 279.34851
-13.519816 -20.484591 279.53891
-13.415189 -21.314524 279.78214
-13.001576 -22.417753 279.5921
-12.804845 -19.978779 279.28003
-12.70351 -20.82476 279.50674
-12.662288 -21.793741 279.46793
-16.108446 -18.135212 279.35687
-16.006334 -18.977407 279.58749
-15.925988 -16.3906 278.84222
-15.435906 -17.166277 279.02591
-15.341645 -18.046728 279.21719
-15.240462 -18.893448 279.44315
-14.619282 -17.504898 278.99533
-14.522745 -18.37426 279.19803
-14.424358 -19.234602 279.40997
-13.802144 -17.841013 278.96735
-13.706363 -18.714056 279.16623
-12.992815 -18.215183 278.90024
-12.892578 -19.066515 279.12146
-12.385258 -30.363409 281.99194
-11.896438 -31.145237 282.16928
-12.186752 -28.540583 281.55771
-12.089947 -29.408634 281.76175
-11.939736 -27.151258 281.22601
-11.840888 -28.009357 281.44028
-11.741796 -28.866261 281.65579
-11.591947 -30.145723 281.98508
-11.493894 -27.472624 281.32852
-11.180352 -29.358822 282.12643
-11.160677 -28.518789 281.85596
-11.088804 -27.96216 281.85068
-11.007569 -27.118893 281.56473
-10.972967 -27.136518 282.12546
-10.905933 -26.580145 282.1214
-12.354952 -23.815475 280.26965
-12.249538 -24.641579 280.51682
-12.146905 -25.481226 280.75003
-12.042571 -26.312592 280.99179
-11.624422 -23.233845 280.08871
-11.514835 -24.039608 280.35678
-11.409413 -24.865669 280.604
-11.302416 -25.684048 280.8591
-11.187547 -26.464069 281.15363
-10.83405 -23.030489 280.06711
-10.81286 -25.755701 282.40189
-10.807605 -26.002678 281.5401
-10.789228 -25.429415 280.97885
-10.723757 -23.832808 280.33875
-10.645955 -25.174627 281.80341
-10.528565 -24.615604 281.78671
-10.46729 -24.592936 281.20197
-10.392037 -24.055576 281.76523
-10.34336 -24.033569 281.18365
-10.280818 -23.516325 282.31949
-10.150308 -23.470568 281.14798
-10.044638 -22.931608 281.70361
-9.9700375 -22.908237 281.11554
-12.129465 -22.531078 279.83008
-12.08688 -19.45838 279.03613
-11.995179 -20.351311 279.2146
-11.928568 -21.366516 279.26733
-11.671989 -19.434122 278.93478
-11.641446 -20.274441 279.18948
-11.631761 -19.961756 279.13748
-11.628089 -19.807104 279.1048
-11.593354 -20.617901 279.21936
-11.568293 -20.690817 279.2377
-11.510042 -21.151091 279.37347
-11.405499 -21.981434 279.61627
-11.305946 -21.1413 279.32126
-11.281732 -22.718086 279.95541
-11.104484 -21.525726 279.30414
-11.068849 -21.661146 279.27148
-11.000314 -21.706142 279.28723
-10.942951 -22.221384 279.80249
-10.795806 -21.93339 279.31082
-10.732227 -21.968403 279.28464
-10.684052 -21.954401 279.28281
-10.482759 -22.472813 279.9769
-10.296339 -22.004923 279.21027
-10.155496 -22.03224 279.7663
-10.014144 -22.682751 282.55643
-9.9236288 -22.886351 280.53452
-9.8367348 -22.367826 281.66425
-9.698885 -22.321682 280.49094
-9.538435 -21.779842 281.03284
-9.5082817 -21.617966 279.21796
-9.4958897 -21.73871 279.88339
-9.4899635 -21.530039 281.88113
-9.3210001 -20.987751 282.4209
-9.2526846 -21.211966 280.97394
-9.1428165 -21.167294 279.80762
-9.0298576 -20.419592 282.36066
-9.0264978 -20.666668 281.49936
-8.9383163 -20.108246 282.59003
-8.8960772 -20.620916 280.32788
-8.8888111 -20.58164 279.18729
-12.17383 -18.542297 278.8815
-11.729074 -18.991842 278.84445
-11.704255 -18.919521 278.82797
-8.7342291 -19.851196 282.29929
-8.648694 -20.074505 280.84799
-8.6440945 -19.659323 282.4809
-8.5823212 -19.572355 282.43079
-8.4799032 -20.026733 279.6669
-8.4655752 -19.316332 282.20963
-8.1990099 -19.439665 279.03986
-8.1703787 -19.477055 280.17145
-8.2729053 -19.254639 281.62698
-8.1986523 -18.981007 281.89648
-7.8712311 -18.927919 280.67856
-7.8291688 -18.486746 281.7276
-7.761013 -18.399723 281.67926
-7.7319345 -18.862253 278.93549
-7.4960246 -18.117126 281.46649
-7.4860597 -18.60207 279.73428
-7.2776961 -18.062037 280.81888
-7.2043471 -17.856277 281.15457
-7.0737023 -17.650074 281.27475
-7.0401998 -18.025772 279.63525
-6.9728236 -17.541788 281.21872
-6.8415833 -17.378637 281.09332
-6.6683559 -17.499891 280.15048
-6.5077262 -17.107809 280.83801
-6.2041616 -16.852736 280.52936
-6.1322851 -17.143785 279.14667
-6.1173453 -16.637787 280.85342
-5.898469 -16.390778 280.9082
-5.7352171 -16.724426 279.21002
-5.7137957 -16.235342 280.93192
-5.5690751 -16.381784 279.94455
-5.3679428 -15.790691 280.87073
-5.3182087 -15.74385 280.84552
-5.0947375 -15.770556 280.35629
-4.9337311 -15.911745 279.36057
-5.0234714 -15.595776 280.67722
-4.7004261 -15.362701 280.40625
-4.4418278 -15.362735 279.82935
-4.3624649 -15.138521 280.1459
-4.2765441 -15.519073 278.84747
-4.0415001 -14.954922 279.90326
-4.0007477 -14.859995 280.08572
-3.7822959 -14.978369 279.32388
-3.6939647 -14.640796 279.99423
-3.6382658 -14.602996 279.97705
-3.5651608 -14.55041 279.96524
-3.2949283 -14.413292 279.77792
-3.2601581 -14.321036 279.93597
-3.1182461 -14.230358 279.90405
-3.1157897 -14.618708 278.84103
-2.8996093 -14.113195 279.8093
-2.6192837 -14.085999 279.32474
-2.6092737 -13.939852 279.64548
-2.5562699 -13.911131 279.61276
-2.5073204 -13.887957 279.58084
-2.2226501 -13.76628 279.36548
-2.1400776 -13.738139 279.30621
-33.879105 -34.077984 285.74188
-34.275501 -30.762287 285.34839
-34.216137 -31.598162 285.59906
-34.125393 -31.059988 286.15845
-34.1199 -30.506851 286.16983
-34.117596 -32.431976 285.83994
-34.07056 -30.740984 286.3877
-34.065262 -30.810602 286.41208
-34.064991 -30.389349 286.28113
-34.059895 -30.858788 286.43149
-34.05732 -31.342554 286.41971
-34.012074 -33.265427 286.07904
-33.936367 -33.234161 285.49921
-33.798595 -31.037399 284.90118
-33.704193 -31.917166 285.09317
-33.613297 -32.814018 285.26761
-33.521858 -33.708225 285.44473
-33.46389 -30.560574 284.72784
-33.370197 -31.443783 284.91629
-33.277641 -32.33255 285.09903
-33.188782 -33.239326 285.26324
-33.030731 -30.943747 284.76682
-32.935104 -31.81753 284.96494
-32.846561 -32.725849 285.12756
-32.753357 -33.611462 285.31354
-32.689831 -30.436701 284.62454
-32.598763 -31.332716 284.7998
-32.504086 -32.211151 284.99316
-32.412228 -33.103313 285.17239
-32.25996 -30.835915 284.647
-32.167625 -31.72575 284.82864
-31.980944 -33.495617 285.20197
-31.688564 -32.555138 284.95709
-31.535997 -30.286283 284.43317
-31.442978 -31.172781 284.61823
-30.967627 -32.020256 284.72809
-30.87484 -32.907887 284.91199
-34.329777 -29.373295 285.10916
-34.320854 -27.98098 284.85413
-34.2756 -28.550898 285.39941
-34.26115 -27.424992 284.8519
-34.244244 -29.941093 285.64435
-34.18998 -29.135109 285.91666
-34.182617 -29.236561 285.92999
-34.178318 -28.628622 285.87521
-34.174282 -28.076059 285.88641
-34.173286 -27.941357 285.88705
-34.172516 -29.67062 285.91745
-34.171844 -28.562475 285.87225
-34.164215 -27.17264 285.68805
-34.159763 -27.400213 284.25711
-34.156521 -26.599939 285.12949
-34.155857 -28.496117 285.87271
-34.153011 -29.571348 286.01978
-34.132977 -27.070147 285.79028
-34.119492 -27.347136 285.84885
-34.108162 -27.53261 285.86853
-34.079941 -29.910009 286.13181
-34.071598 -29.96698 286.15353
-34.071171 -28.3463 284.37848
-34.064987 -26.698818 285.67398
-34.056194 -26.64275 285.64246
-33.979866 -29.241169 284.55496
-33.891197 -30.148872 284.7182
-33.831764 -26.994057 284.0087
-33.742203 -27.897415 284.17642
-33.648781 -28.781965 284.36349
-33.555546 -29.667412 284.54962
-33.401115 -27.389481 284.03506
-33.308758 -28.279202 284.2168
-33.213287 -29.153755 284.41415
-33.12122 -30.04491 284.59442
-33.062988 -26.895958 283.87888
-32.971176 -27.78834 284.05789
-32.874821 -28.65859 284.25967
-32.781029 -29.541334 284.44858
-32.631882 -27.289141 283.90756
-32.537865 -28.170773 284.09763
-32.443577 -29.051092 284.28903
-32.350224 -29.935976 284.47577
-31.862047 -27.185856 283.78308
-31.720505 -28.505808 284.07074
-31.627296 -29.391399 284.25674
-31.151226 -26.700285 283.50339
-31.061359 -27.602152 283.67264
-30.911585 -28.881973 284.00156
-30.813175 -29.74221 284.21362
-34.247398 -26.299124 284.30457
-34.19669 -25.476906 284.59567
-34.150295 -25.455019 284.01465
-34.11171 -25.487425 285.01306
-34.108131 -25.582443 285.04382
-34.095898 -24.34646 284.02652
-34.093456 -25.209204 284.85602
-34.092098 -24.918558 284.58221
-34.073311 -26.338352 285.38934
-34.072712 -26.046429 285.11713
-34.038719 -24.092083 284.75208
-34.032581 -24.179457 284.77988
-34.029087 -24.672171 284.8317
-34.021965 -24.622002 284.83023
-33.977341 -23.501228 283.73123
-33.921051 -26.089373 283.84232
-33.897972 -22.944206 283.72409
-33.856941 -23.804232 284.54465
-33.82056 -23.284641 284.50989
-33.802666 -23.200853 284.50516
-33.723831 -24.272812 283.40164
-33.633141 -25.170668 283.57504
-33.494434 -26.504421 283.84851
-33.488037 -22.938169 283.01376
-33.391769 -23.808853 283.21506
-33.299622 -24.699594 283.39578
-33.202862 -25.567873 283.59958
-33.053226 -23.313314 283.06097
-32.96125 -24.204899 283.24081
-32.86676 -25.084229 283.43323
-32.771736 -25.960958 283.62836
-32.62331 -23.712288 283.08368
-32.531155 -24.602997 283.2644
-32.435177 -25.475077 283.46429
-32.341022 -26.35605 283.65506
-32.288895 -23.236849 282.90891
-32.194275 -24.115562 283.10199
-31.861696 -23.649092 282.918
-31.717089 -24.954082 283.22104
-31.621464 -25.827888 283.41916
-31.139769 -23.109367 282.69397
-31.045839 -23.991436 282.88358
-30.958921 -24.907679 283.03809
-33.823906 -22.387463 283.71826
-33.758198 -22.364559 283.13239
-33.741272 -22.116415 283.98862
-33.737 -21.830042 283.70923
-33.722286 -22.720015 284.50522
-33.722202 -22.40156 284.26215
-33.714081 -22.655237 284.50726
-33.657734 -21.253578 283.13272
-33.642944 -21.844543 284.255
-33.632378 -21.55784 283.97406
-33.607998 -21.270411 283.68964
-33.577766 -21.369293 284.16299
-33.526993 -20.693853 283.11267
-33.484447 -21.121721 283.94684
-33.476784 -21.053394 283.88605
-33.4669 -20.992546 283.83572
-33.435497 -20.716095 283.65082
-33.431805 -20.136 283.10156
-33.352955 -20.192154 283.6066
-33.340782 -19.864511 283.36981
-33.337391 -20.108316 283.60626
-33.294376 -19.575922 283.07986
-33.274815 -19.610191 283.62704
-33.239136 -21.539661 282.6915
-33.194881 -19.303989 283.34598
-33.149117 -22.440798 282.86151
-32.812714 -21.955685 282.69669
-32.719273 -22.840118 282.88388
-32.382915 -22.355238 282.71881
-31.956974 -22.773588 282.72162
-33.115192 -19.013651 283.04767
-33.01857 -18.751995 283.30347
-32.987007 -18.456942 283.02515
-32.841042 -17.943579 282.94983
-32.805023 -17.832762 282.93814
-32.739357 -17.602039 282.70062
-32.593964 -17.389769 282.88751
-32.563747 -17.323801 282.88028
-32.546051 -17.246256 282.86649
-32.536045 -17.038498 282.66241
-32.46936 -16.918867 282.77243
-30.71821 -30.619234 284.40845
-30.245918 -31.481609 284.50296
-30.150911 -32.358433 284.69797
-30.058928 -33.249981 284.87784
-29.520712 -30.925917 284.29538
-29.429014 -31.818863 284.47382
-29.336199 -32.706364 284.65784
-28.705601 -31.271912 284.25723
-28.614477 -32.167656 284.43277
-28.520201 -33.048035 284.62415
-28.414917 -30.339697 284.00381
-27.994608 -30.785498 283.97839
-27.896795 -31.64864 284.18747
-27.804655 -32.539429 284.36813
-27.672819 -30.371605 283.74036
-27.558849 -31.156006 284.03036
-27.507219 -30.386902 283.08203
-27.464809 -32.037533 284.22055
-27.262009 -30.926857 283.00778
-27.159412 -30.940908 283.55145
-27.141764 -31.617516 283.9888
-30.334066 -27.036287 283.47549
-30.243299 -27.933769 283.64926
-30.097975 -29.235281 283.9559
-30.003099 -30.112747 284.15024
-29.907906 -27.453575 283.4794
-29.570686 -26.964483 283.31866
-29.466179 -27.794998 283.56128
-29.366646 -28.649759 283.77896
-29.27594 -29.547535 283.95245
-29.1458 -27.387974 283.31616
-28.940348 -29.066368 283.78357
-28.851572 -29.97356 283.94736
-28.774155 -27.669838 282.89404
-28.666914 -28.218216 283.44373
-28.567493 -28.211819 282.82947
-28.519413 -29.509127 283.76126
-28.331753 -28.75227 282.75763
-28.31846 -28.771017 283.32367
-28.110586 -29.293488 282.68942
-28.093597 -29.928085 283.76343
-28.060633 -29.310308 283.24628
-27.78017 -29.848408 283.16321
-30.714296 -23.530008 282.6944
-30.619139 -24.40609 282.8902
-30.531643 -25.319517 283.04758
-30.42337 -26.131681 283.30905
-30.29496 -23.980551 282.66412
-30.19714 -24.843657 282.87323
-30.093943 -25.680561 283.10928
-29.993076 -26.528822 283.33365
-27.046398 -32.49258 284.18561
-26.995268 -31.465675 282.92816
-26.890928 -31.479639 283.47137
-26.720524 -32.004078 282.84653
-26.717253 -32.042835 283.98444
-26.609629 -32.858166 284.24268
-26.592903 -32.016815 283.38391
-26.434217 -32.54187 282.76199
-26.333616 -32.556026 283.30615
-26.121984 -33.0783 282.67096
-26.005714 -33.091633 283.21118
-25.888651 -33.104923 283.75122
-25.778467 -30.582138 282.92688
-25.557869 -31.123384 282.85883
-25.325794 -31.664028 282.7879
-25.297253 -31.129126 283.36288
-25.105001 -31.671867 283.30191
-25.076044 -32.203743 282.71252
-24.935026 -30.468706 283.38141
-24.905397 -32.214218 283.23914
-24.632025 -32.752689 283.15784
-24.501743 -30.851282 283.42099
-24.420296 -31.794176 283.54807
-24.37652 -32.758701 283.66315
-24.159689 -30.338615 283.28448
-24.071985 -31.251036 283.4429
-23.97731 -32.129463 283.63626
-23.730076 -30.739082 283.30566
-23.638186 -31.631083 283.48508
-23.547104 -32.527027 283.66043
-26.867695 -27.302877 282.70709
-26.801956 -27.85227 282.67789
-26.509914 -26.64189 282.72763
-26.112255 -28.941143 283.04883
-26.0732 -27.007746 282.78439
-25.976694 -27.877254 282.98694
-25.941664 -30.03787 282.98056
-25.639309 -27.387346 282.82703
-25.546396 -28.274374 283.01157
-25.458063 -29.183716 283.17313
-25.373901 -30.113384 283.31381
-25.207674 -27.777952 282.85837
-25.118309 -28.682268 283.02512
-25.02813 -29.582609 283.19592
-24.780098 -28.188335 282.86935
-24.692469 -29.101109 283.0274
-24.596411 -29.97282 283.22766
-24.255524 -29.465834 283.08533
-24.01054 -28.08642 282.74347
-23.52742 -28.896025 282.89224
-23.299124 -31.133007 283.33359
-23.205873 -32.018391 283.51981
-22.775051 -32.412956 283.54703
-22.477121 -31.445417 283.32996
-21.792885 -30.419481 283.05759
-21.65731 -31.768513 283.31537
-20.973019 -30.742296 283.04327
-20.830994 -32.059895 283.33337
-20.246048 -30.178015 282.84451
-20.151628 -31.057693 283.03659
-23.435539 -29.788078 283.07159
-22.798779 -28.323595 282.70184
-22.705418 -29.208439 282.88861
-22.611795 -30.092003 283.07669
-21.973515 -28.62011 282.71457
-21.882399 -29.51589 282.89011
-21.159325 -28.970594 282.67181
-21.063923 -29.845486 282.8688
-20.337914 -29.285889 282.66522
-19.430187 -30.520353 282.81012
-19.335201 -31.397272 283.00504
-18.621773 -30.898985 282.7384
-18.525425 -31.76926 282.94016
