# .PCD v0.7 - Point Cloud Data file format
VERSION 0.7
FIELDS x y z
SIZE 4 4 4
TYPE F F F
COUNT 1 1 1
WIDTH 1560
HEIGHT 1
VIEWPOINT 0 0 0 1 0 0 0
POINTS 1560
DATA ascii
29.553204 -31.731152 266.396
29.654112 -32.259247 265.78854
29.750834 -31.740204 266.9158
29.756954 -30.753771 265.03745
29.789778 -32.271557 266.32391
29.850286 -31.638752 265.22406
29.949894 -32.796539 265.70163
30.016157 -32.279099 266.83655
30.038748 -32.811314 266.24875
30.099045 -30.240934 264.90112
30.185123 -31.161268 265.05139
30.215296 -32.288074 267.35599
30.233473 -32.820518 266.76932
30.234362 -33.353874 266.18695
30.278017 -32.048389 265.23581
30.423859 -33.347378 265.54504
30.448038 -33.362087 266.70276
30.450037 -32.828579 267.28439
30.613699 -31.566788 265.06738
30.633844 -30.263027 265.30283
30.649155 -33.370956 267.22171
30.706455 -32.454567 265.25113
30.792694 -30.27412 265.8324
30.812313 -30.80649 265.24533
30.84761 -33.776402 265.53687
30.95269 -30.285152 266.36166
31.023312 -30.81484 265.76181
31.058374 -31.899248 265.15814
31.123241 -30.295631 266.88828
31.136763 -32.851646 265.27579
31.180094 -30.826042 266.2919
31.233923 -31.356613 265.69626
27.690554 -29.292667 265.49692
27.746124 -28.509089 266.92557
27.858891 -27.347612 264.61478
27.898523 -29.301176 266.01416
27.955923 -28.214554 264.81995
28.046766 -29.111666 264.99408
28.08506 -29.824768 265.38525
28.090988 -29.0438 266.82635
28.287088 -29.052937 267.34656
28.28747 -27.753107 264.63077
28.307993 -26.743204 264.54541
28.383148 -28.626654 264.82916
28.432446 -29.578693 266.728
28.472984 -29.528667 264.99826
28.506083 -30.108223 266.12738
28.636482 -29.58741 267.24622
28.71369 -30.116753 266.64471
28.714012 -28.168531 264.63657
28.80904 -29.045244 264.8317
28.902973 -29.927298 265.02133
28.903214 -27.017498 265.24387
28.925632 -27.549721 264.65613
28.939671 -30.124315 267.15744
29.099617 -27.026617 265.76401
29.150208 -28.536905 264.69077
29.23601 -29.458591 264.83963
29.246902 -27.552273 265.14496
29.291777 -27.035957 266.28522
29.396648 -27.563845 265.67679
29.463799 -27.046358 266.81146
29.478031 -28.092966 265.07425
29.565512 -27.574411 266.20383
29.614555 -28.905336 264.73621
29.659115 -27.055534 267.33188
29.660145 -29.885742 264.8334
29.671455 -28.102242 265.59512
29.743467 -27.584499 266.72861
29.834089 -28.113136 266.12375
29.913773 -28.642347 265.52164
29.932755 -27.593992 267.25052
30.015829 -28.123026 266.64755
30.092505 -28.652395 266.0462
30.191582 -28.13323 267.17288
30.192938 -29.447216 265.14783
30.267962 -28.662615 266.57159
30.331331 -29.192684 265.97357
30.438614 -28.673088 267.09821
30.497618 -29.203386 266.50125
30.56184 -29.733412 265.90302
30.683142 -29.213078 267.02414
30.727777 -29.744131 266.43082
30.91033 -29.753979 266.95441
27.716251 -25.668627 264.71927
27.771061 -26.435814 264.45572
27.880173 -25.412752 265.53864
28.023003 -25.157986 266.36325
28.141701 -24.90449 267.19394
28.249434 -25.946182 265.43329
28.444063 -25.955393 265.95389
28.576553 -25.701172 266.7811
28.602547 -26.480461 265.332
28.779179 -26.49062 265.85712
29.150537 -26.509983 266.90277
29.391937 -15.876473 263.66818
29.902969 -16.171829 263.85349
30.104826 -15.955687 264.70389
30.253546 -16.518913 263.57062
30.306652 -15.739433 265.55423
30.631969 -16.403006 264.48331
30.656443 -16.08374 265.26883
30.676523 -15.639454 266.4841
30.858543 -16.924492 263.84436
31.217621 -16.245665 265.86478
31.28199 -16.975674 264.36011
27.64406 -12.607566 265.24133
27.670174 -13.20209 263.61249
27.707905 -13.728363 266.86917
27.761179 -14.921109 263.6149
27.836447 -14.220121 265.67041
27.861876 -12.447948 266.14355
27.881319 -13.018847 264.49307
27.969381 -14.727444 264.48593
28.045868 -14.030773 266.54538
28.170944 -14.51026 265.33539
28.194351 -12.730931 265.80197
28.214323 -13.303695 264.1532
28.315048 -15.057141 264.18713
28.381376 -14.324493 266.21365
28.40061 -12.530378 266.66669
28.414597 -13.081943 264.99847
28.515879 -14.837363 265.03424
28.592373 -14.140726 267.09375
28.643496 -15.32585 263.83246
28.717871 -14.621702 265.8851
28.733253 -12.81395 266.32562
28.753803 -13.388758 264.67871
28.854782 -15.143107 264.7135
28.92738 -14.432662 266.76035
28.934542 -12.595791 267.17419
28.958746 -13.183549 265.53915
28.985239 -13.779414 263.91156
29.064352 -14.954288 265.58896
29.19215 -15.443412 264.38779
29.266935 -14.74072 266.44174
29.270067 -12.889568 266.8425
29.296881 -13.486567 265.21594
29.325649 -14.09049 263.5957
29.399368 -15.246263 265.25562
29.487192 -14.589752 267.3519
29.505095 -13.29294 266.08701
29.532495 -13.892019 264.46234
29.609192 -15.05834 266.1319
29.74921 -15.590749 264.9704
29.821507 -14.879234 267.01627
29.842407 -13.593048 265.76111
29.874317 -14.208103 264.15109
29.952723 -15.380476 265.8262
30.04952 -13.395528 266.6286
30.078447 -14.000009 265.00888
30.159504 -15.181774 266.6926
30.394064 -13.721249 266.32617
30.420992 -14.31865 264.69998
30.595627 -13.504067 267.17563
30.626577 -14.115719 265.5625
30.664831 -14.753237 263.97305
30.803921 -15.3855 267.31259
30.941345 -13.833947 266.87701
30.968428 -14.431899 265.25134
31.014206 -15.096068 263.68631
31.180815 -14.25305 266.13593
31.217005 -14.88326 264.53979
30.337719 -8.6092749 267.17368
31.140825 -9.0137711 267.07538
31.240887 -9.8659515 267.29572
30.996567 -7.7070632 266.77408
32.739025 -41.859383 267.35419
32.93272 -42.485737 267.20154
33.16048 -41.190262 266.77335
33.256222 -42.063499 266.97205
33.350224 -42.945206 267.16205
33.441055 -43.842369 267.33615
33.593147 -41.575829 266.80988
33.685852 -42.463871 266.99335
33.778427 -43.352539 267.17618
34.080482 -41.235985 267.03058
34.10434 -41.787582 267.01187
34.202618 -42.62141 267.25278
34.233292 -43.629929 267.32388
31.905338 -37.727688 266.80475
32.056988 -38.27256 266.754
32.070854 -37.73843 267.33264
32.160141 -38.286583 267.29752
32.172699 -38.819324 266.71222
32.253578 -38.834518 267.26132
32.314415 -39.384167 267.23334
32.390976 -39.360695 266.64474
32.404072 -37.693024 266.0983
32.428696 -39.931007 267.19193
32.473934 -40.481476 267.16782
32.498436 -38.57296 266.29013
32.63773 -39.903866 266.56653
32.735802 -40.765755 266.77689
32.830463 -38.109177 266.10336
32.925659 -38.985069 266.29935
33.068291 -40.299706 266.59247
33.294685 -38.57349 266.24921
33.366848 -39.329109 266.37854
33.496956 -37.930134 266.68402
33.498917 -40.695221 266.61874
33.642555 -37.941921 267.21689
33.66581 -40.132648 266.59067
33.707153 -38.758076 266.89688
33.793621 -39.306377 266.86246
33.9935 -40.134865 267.07791
34.048996 -40.684795 267.05124
31.334114 -36.079731 266.41684
31.355299 -35.545216 266.99365
31.415091 -35.514717 265.82733
31.518255 -36.089497 266.94006
31.578768 -36.619717 266.34274
31.649433 -36.635445 266.89441
31.695812 -34.631035 265.52402
31.768553 -37.18203 266.85181
31.842291 -35.926929 265.83643
31.987167 -37.230618 266.14081
32.078743 -34.193684 265.53473
32.134613 -34.986725 265.59125
32.269638 -36.338432 265.84625
32.437801 -34.629845 265.8873
32.45974 -34.095287 266.46393
32.590729 -33.841145 267.29153
32.617996 -34.639816 266.4115
32.659534 -35.723881 265.80621
32.701874 -36.726109 265.88058
32.753494 -34.385437 267.23798
32.775639 -35.184376 266.35922
32.894108 -35.730991 266.31677
32.905312 -35.197002 266.89612
33.036716 -36.27634 266.26828
33.042686 -35.742626 266.84891
33.166695 -36.822357 266.22293
33.172718 -36.288635 266.80356
33.257584 -37.370426 266.18741
33.305412 -36.301105 267.33966
33.308941 -36.834324 266.75665
33.411942 -37.381756 266.71808
33.418781 -36.847992 267.29849
33.540825 -37.394424 267.25516
31.348463 -30.836636 266.81906
31.399231 -31.367365 266.22421
31.437986 -31.898729 265.63235
31.560768 -31.378321 266.75308
31.566191 -33.272877 265.2919
31.595512 -31.909895 266.16223
31.623468 -32.441826 265.57309
31.755705 -31.920918 266.69147
31.798601 -32.452065 266.09857
31.941296 -32.464005 266.63217
31.968151 -32.995995 266.0433
32.116447 -33.007645 266.5755
32.161354 -33.538685 265.98212
32.29607 -33.551048 266.51773
32.429268 -33.296787 267.34479
33.860966 -19.550289 263.5972
34.023262 -19.2945 264.41696
34.266258 -19.301168 264.92542
34.468929 -19.823914 264.29248
34.689693 -19.831751 264.80652
34.811451 -19.578093 265.63644
34.913525 -20.35338 264.16824
31.340115 -15.910152 267.16541
31.369471 -16.669817 265.14609
31.540945 -17.463816 263.68225
31.655855 -16.674202 265.64368
31.776596 -16.420599 266.47385
31.837854 -17.118778 264.93881
31.839102 -17.445221 264.15515
32.011524 -16.427691 266.98431
32.22987 -17.196865 265.487
32.264385 -15.909121 263.67715
32.340488 -16.943794 266.3197
32.367668 -17.970274 264.00986
32.469978 -15.706219 264.5397
32.515377 -17.715252 264.83328
32.576508 -16.950829 266.82993
32.759811 -17.721844 265.34137
32.888016 -17.467848 266.16968
32.910923 -18.494555 263.8609
33.04393 -18.240305 264.68802
33.045567 -16.028824 264.73859
33.114094 -16.539173 263.56989
33.132362 -17.474445 266.6778
33.186859 -15.774138 265.56363
33.282185 -18.247223 265.19766
33.385971 -16.544323 264.07111
33.408443 -19.021238 263.72342
33.418217 -17.992815 266.02399
33.455349 -15.779466 266.0657
33.544102 -18.76685 264.54987
33.658741 -17.999613 266.53308
33.742512 -16.598455 264.60309
33.779408 -16.295826 265.40231
33.800594 -15.8366 266.60281
33.809662 -18.772331 265.05264
33.895802 -18.520548 265.89151
33.968418 -17.066542 263.91232
34.061848 -16.300419 265.90088
34.125916 -18.527893 266.4032
34.214725 -18.275969 267.24139
34.230392 -17.072212 264.41605
34.317234 -16.306437 266.40622
34.35915 -16.818188 265.2442
34.367161 -16.017605 267.21628
34.383129 -19.04777 265.75656
34.525448 -17.590097 263.75992
34.587543 -19.056465 266.27469
34.63036 -16.823372 265.74557
34.70713 -18.802923 267.10516
34.792065 -17.595524 264.26245
34.897385 -16.828775 266.24802
34.907791 -17.342184 265.0939
31.528238 -14.588965 265.84283
31.561922 -15.210312 264.23859
31.738325 -14.40199 266.72
31.765972 -15.00193 265.09613
31.913933 -15.562469 263.96039
32.084404 -14.733145 266.42255
32.117554 -15.352577 264.81653
32.289818 -14.529598 267.28452
32.32616 -15.160351 265.68887
32.635681 -14.859996 266.98639
32.672821 -15.493567 265.39331
32.87878 -15.291961 266.25708
33.550091 -15.378414 267.30811
34.551373 -12.345891 267.11282
34.644943 -13.229708 267.30066
31.948656 -9.3952503 267.00073
32.045635 -10.262454 267.20563
32.608746 -8.486989 266.60736
32.754604 -9.7858982 266.91669
32.849743 -10.662064 267.11237
32.940945 -11.557429 267.2883
33.415092 -8.8756981 266.5253
33.558926 -10.18447 266.82446
33.651466 -11.073306 267.00714
33.745644 -11.954169 267.198
34.123158 -8.4035339 266.23184
34.218964 -9.2764559 266.43085
34.361935 -10.589436 266.72568
34.455647 -11.472579 266.91422
34.924805 -8.8151503 266.12622
31.706549 -7.2255731 266.4902
31.801895 -8.100728 266.68692
32.414932 -6.7518606 266.1983
32.512344 -7.6169577 266.40536
33.220634 -7.143714 266.11301
33.317745 -8.0102701 266.31857
33.50053 -6.2640619 265.80557
34.026516 -7.534688 266.02863
34.157295 -5.3720131 265.39554
34.304298 -6.6653357 265.7106
34.483334 -4.9374056 265.1788
34.585228 -5.7806597 265.40833
34.827648 -7.9488101 265.92044
34.914379 -5.3308864 265.20715
34.863796 -4.3622684 265.68924
36.950966 -23.010479 263.59366
37.170044 -23.018404 264.10812
37.554707 -23.551025 263.99893
37.706074 -23.295811 264.82141
37.910542 -23.304504 265.33954
37.921543 -24.084581 263.8942
38.07235 -23.048742 266.15942
38.086811 -23.828636 264.71323
38.26783 -24.619221 263.79462
38.271389 -23.05772 266.67889
38.283016 -23.837765 265.2334
38.432926 -23.582628 266.05627
38.442734 -24.362768 264.61124
38.45063 -23.067741 267.20334
35.03183 -19.585951 266.15057
35.142765 -20.360773 264.68015
35.154053 -19.33227 266.98038
35.278793 -20.106365 265.5065
35.333656 -20.884136 264.05017
35.494228 -20.114483 266.02188
35.559021 -20.891731 264.56305
35.610443 -19.861116 266.85318
35.72747 -20.635618 265.38126
35.757233 -21.414709 263.93121
35.943901 -20.643684 265.89639
35.987099 -21.422068 264.44296
36.037018 -20.391533 266.73349
36.118938 -21.167881 265.27036
36.152912 -21.946749 263.81924
36.260769 -20.399212 267.24677
36.37645 -21.173784 265.77518
36.388828 -21.953791 264.3295
36.475021 -20.921347 266.6109
36.532116 -21.699001 265.15402
36.569534 -22.47769 263.70206
36.672112 -20.930429 267.13089
36.780533 -21.705383 265.6611
36.792664 -22.485401 264.21548
36.823036 -19.700113 263.70224
36.896233 -21.452045 266.49255
36.927052 -22.231081 265.04224
36.939457 -19.446735 264.53351
37.083454 -21.461647 267.01498
37.168396 -22.237835 265.55112
37.176739 -19.453705 265.0434
37.271599 -20.229372 263.57703
37.313953 -21.982927 266.37506
37.330456 -22.762714 264.92834
37.3936 -19.975702 264.40689
37.423237 -19.460188 265.55096
37.506866 -21.992229 266.89609
37.56144 -22.770014 265.43982
37.642448 -19.982061 264.91388
37.696148 -22.515676 266.26651
37.890995 -20.502394 264.26944
37.894016 -19.988279 265.4202
37.903023 -22.524244 266.78403
38.041397 -19.733274 266.24368
38.063122 -22.535271 267.31326
38.137157 -20.508894 264.7771
38.151855 -19.480211 267.07645
38.331257 -21.032089 264.1463
38.37719 -20.515718 265.28629
38.526375 -20.26062 266.10934
38.560608 -21.039474 264.65817
34.992283 -16.57653 267.08469
35.072723 -18.114166 263.60995
35.172382 -17.347715 265.59692
35.343231 -18.119387 264.11151
35.428802 -17.353678 266.10202
35.444653 -17.866798 264.94653
35.541965 -17.100473 266.93411
35.704689 -17.872572 265.45071
35.868084 -18.644634 263.96716
35.955715 -17.878817 265.95718
35.987549 -18.391098 264.79767
36.066006 -17.625763 266.78998
36.225578 -18.398027 265.30737
36.350933 -19.172091 263.83334
36.474842 -18.91832 264.66275
36.483196 -18.403927 265.81216
36.495544 -17.686396 267.31369
36.608852 -18.150064 266.64111
36.715664 -18.925102 265.17175
36.852924 -18.156675 267.14929
36.968811 -18.931238 265.67767
37.105957 -18.676771 266.50372
37.1987 -15.749032 267.30795
37.349167 -18.455063 267.34048
37.585903 -19.20438 266.37064
37.725952 -18.94976 267.19598
38.002995 -16.147745 267.21558
38.472412 -17.024122 267.29572
35.355152 -12.747101 267.01791
35.449936 -13.625005 267.21182
35.921528 -14.490802 267.30283
36.067142 -12.255827 266.74408
36.162975 -13.128616 266.94324
36.635185 -13.991397 267.03735
36.727547 -14.881102 267.21912
36.871021 -12.656549 266.64966
37.344624 -13.51254 266.75076
37.438984 -14.392518 266.94254
37.57798 -12.189787 266.35065
37.910408 -15.259131 267.03268
38.053478 -13.036558 266.46121
38.149254 -13.909617 266.6601
35.022453 -9.6790991 266.33447
35.165657 -10.990947 266.63046
35.260689 -11.867639 266.82562
35.727913 -9.2196417 266.02792
35.82357 -10.09329 266.2262
35.971306 -11.383042 266.54492
36.436378 -8.7455339 265.73645
36.532188 -9.6184406 265.93549
36.630939 -10.477018 266.14926
36.775944 -11.780082 266.45428
37.240582 -9.14468 265.64365
37.33672 -10.015996 265.84433
37.433773 -10.882832 266.04962
37.573208 -8.6779718 265.4599
37.665646 -9.567318 265.64203
38.005741 -9.0642071 265.49573
38.093845 -9.974659 265.65616
38.189671 -10.847491 265.85526
38.245914 -8.6460924 265.87802
38.257317 -8.3925276 266.56833
38.284657 -11.724405 266.0502
38.356461 -8.5323286 266.55875
38.413639 -8.6567183 266.40536
38.519352 -10.395127 265.65677
38.562042 -9.1823168 265.78601
35.011929 -6.1953092 265.41492
35.10955 -7.0593796 265.62305
35.325825 -4.89082 265.56067
35.342545 -5.73839 265.2211
35.438236 -6.6118703 265.41956
35.533936 -7.4853244 265.61804
35.585285 -4.7543483 266.22025
35.590023 -4.8963728 266.06381
35.62989 -8.3575249 265.81778
35.77293 -6.1350832 265.24615
35.791161 -5.075983 266.19836
35.86145 -5.1657505 266.20105
35.86245 -7.0386577 265.41367
35.900177 -5.2136331 266.21259
35.93502 -5.4310789 265.96454
36.02248 -5.4388676 266.30533
36.133457 -5.5589075 266.35449
36.289772 -7.450274 265.4234
36.318516 -5.9637604 265.85565
36.413628 -5.7969971 266.44623
36.527271 -5.8788629 266.47458
36.60112 -5.9732265 266.4971
36.658894 -6.4987092 265.75757
36.717735 -7.8587785 265.43631
36.771481 -6.1898446 266.53561
36.820877 -6.2790818 266.53793
36.943928 -7.3032694 265.38226
37.103683 -6.7574458 266.47092
37.145924 -8.2661762 265.45038
37.218357 -7.041584 266.17392
37.322884 -7.0510197 266.58502
37.390625 -7.1243191 266.62115
37.530319 -7.322752 266.70865
37.570049 -7.5759373 266.073
37.674553 -7.4727225 266.74405
37.764198 -7.5851741 266.59369
37.925499 -8.1100941 265.97113
37.950542 -7.7845588 266.75043
38.000175 -7.8564229 266.73996
38.042881 -7.9377918 266.71359
38.097282 -8.1205063 266.49744
38.187988 -8.2477226 266.60306
34.96851 -4.2209287 266.40866
35.114082 -4.3767018 266.2038
35.156719 -4.4045963 266.36801
35.337875 -4.4759874 266.30234
40.097023 -27.020569 263.56332
40.32925 -27.027803 264.07446
40.56815 -27.034687 264.58395
40.705605 -26.780205 265.40994
40.738251 -27.559143 263.95917
40.941452 -26.787249 265.9202
40.991901 -27.56525 264.46497
41.131134 -27.310675 265.2905
41.17255 -28.089153 263.83752
41.180325 -26.794132 266.42969
41.366833 -27.317726 265.80078
41.411636 -28.096027 264.34698
41.428543 -26.800526 266.93683
41.556927 -27.841131 265.17099
41.596966 -27.325071 266.31247
41.613464 -28.618814 263.71423
41.778412 -27.84893 265.68484
41.840374 -27.331718 266.82083
41.86459 -28.625055 264.22067
42.002377 -28.370556 265.04657
42.027416 -27.855284 266.1918
42.076561 -27.338743 267.33099
42.151657 -29.276073 263.69562
42.185959 -28.329073 265.62589
38.623741 -23.592041 266.57782
38.632832 -25.152874 263.69037
38.650974 -24.371264 265.12839
38.774906 -24.117493 265.95776
38.792793 -24.897207 264.51071
38.832138 -23.600529 267.09494
38.99012 -24.125622 266.47321
39.008774 -25.685953 263.58334
39.012581 -24.905096 265.02499
39.133801 -25.432123 264.41245
39.153797 -24.650415 265.85004
39.195377 -24.134275 266.99112
39.367531 -25.43928 264.92325
39.37579 -24.65819 266.36374
39.517021 -25.964819 264.30362
39.525772 -25.183702 265.74402
39.591331 -24.6663 266.87909
39.741325 -25.972471 264.81677
39.756348 -25.191025 266.25558
39.911861 -26.496904 264.19186
39.918026 -25.715923 265.6329
39.960911 -23.157784 263.68671
39.985611 -25.198416 266.76749
40.147633 -26.503952 264.70215
40.150421 -25.72315 266.14404
40.18129 -25.207571 267.28781
40.186081 -23.165388 264.19962
40.31118 -26.248096 265.52158
40.340549 -23.690668 263.57877
40.388531 -25.730074 266.65372
40.395351 -23.17383 264.71652
40.544025 -23.699413 264.09714
40.545837 -26.255203 266.03214
40.545868 -22.918661 265.53925
40.606876 -25.738039 267.16837
40.74852 -23.708107 264.61523
40.783215 -26.262167 266.54199
40.898758 -23.452951 265.43802
40.909157 -24.233061 263.99283
41.012722 -26.269545 267.05383
41.077965 -23.196274 266.25354
41.106018 -24.242155 264.51285
41.24575 -24.768209 263.89569
41.246761 -23.987499 265.33801
41.26017 -23.206139 266.77725
41.415688 -23.731361 266.15613
41.442062 -24.777332 264.41586
41.473801 -23.214352 267.29306
41.578831 -25.303541 263.79941
41.586731 -24.52247 265.24002
41.619747 -23.740078 266.67435
41.726288 -24.267878 266.06549
41.765308 -25.313183 264.32205
41.817822 -23.749109 267.19406
41.885849 -25.840244 263.70969
41.915668 -25.058022 265.14481
41.937481 -24.276218 266.58191
42.054649 -24.803457 265.9704
42.082191 -25.849367 264.22986
42.146751 -24.28466 267.09885
42.219913 -25.59487 265.05579
38.611713 -20.008877 266.94839
38.767723 -21.561985 264.02411
38.821201 -21.045218 265.16223
38.942905 -20.791563 265.99216
38.989586 -21.569765 264.53787
39.055279 -20.538401 266.82443
39.183132 -22.092989 263.9072
39.23315 -21.576403 265.04617
39.317097 -20.544079 267.32816
39.365486 -21.322189 265.87344
39.406303 -22.100698 264.42062
39.506638 -21.067513 266.69852
39.571667 -22.625404 263.79703
39.631744 -22.10829 264.9335
39.734375 -21.074984 267.21078
39.785187 -21.852966 265.75546
39.794476 -22.633135 264.31055
39.911854 -21.599052 266.58417
40.014591 -22.641006 264.82477
40.138172 -21.606596 267.0968
40.167336 -22.385719 265.64691
40.310715 -22.130924 266.47141
40.517242 -22.139511 266.98901
40.69791 -22.663412 266.36157
40.9133 -22.671532 266.87695
41.023491 -19.556515 267.28958
41.825577 -19.965971 267.18619
38.714352 -15.659543 266.9386
39.187614 -16.517199 267.03799
39.278 -17.416538 267.20984
39.749279 -18.283846 267.29932
39.897404 -16.036629 266.75314
39.991486 -16.917967 266.94351
40.461163 -17.793089 267.02493
40.552723 -18.686695 267.2027
40.699966 -16.44379 266.65213
41.125336 -16.864927 266.65204
41.263805 -18.199844 266.92432
41.405453 -15.984197 266.3457
41.549709 -17.290915 266.647
41.733524 -19.074757 267.00598
41.83503 -16.384838 266.36673
41.975685 -17.709108 266.64993
42.065819 -18.609665 266.82056
38.620575 -14.776731 266.74976
38.710804 -12.141761 266.05402
38.855076 -13.4484 266.35535
39.137543 -12.556221 266.06079
39.327667 -14.309326 266.45139
39.421612 -15.191317 266.64108
39.466652 -12.106647 265.85944
39.561108 -12.986152 266.0517
39.895489 -12.510897 265.87674
39.987801 -13.400838 266.05826
40.13092 -14.713101 266.35382
40.414867 -13.813708 266.06668
40.555336 -15.138883 266.34897
40.565536 -12.699643 266.0549
40.627899 -12.176126 267.00671
40.699867 -13.245428 266.00845
40.72044 -12.304559 267.02896
40.795261 -12.440309 266.85776
40.826241 -12.70538 266.5589
40.844612 -14.213534 266.08853
40.960133 -12.697035 267.07455
40.980568 -15.560694 266.34821
41.060116 -13.24593 266.48752
41.158417 -12.987176 267.13797
41.236744 -13.118269 267.16302
41.260239 -13.254853 267.00674
41.27734 -14.612945 266.12238
41.309361 -13.785671 266.41229
41.4198 -13.517853 267.23068
41.690403 -14.071228 267.16443
41.707996 -14.603704 266.57791
41.767891 -15.455829 266.29382
42.021297 -14.892823 267.34705
42.088131 -15.422711 266.74817
38.614689 -11.270345 265.85342
38.643036 -8.9061842 266.6022
38.781723 -9.7236128 265.7182
38.849796 -9.2012434 266.71118
38.915977 -9.3022299 266.72733
38.9487 -10.796885 265.67664
38.990467 -9.4653807 266.52631
39.041199 -11.685926 265.85907
39.193359 -9.7034283 266.71735
39.321838 -10.000804 266.43048
39.424328 -10.007582 266.76102
39.52594 -11.076321 265.78442
39.579433 -10.16387 266.76373
39.628727 -10.537514 266.34076
39.644806 -10.269967 266.62781
39.865505 -10.416644 266.72644
39.87072 -11.077637 266.26736
39.968769 -10.608719 266.72571
40.049343 -11.887793 265.91876
40.104774 -11.077028 266.77051
40.295868 -11.49387 266.86331
40.301479 -11.627279 266.71597
40.367683 -11.890498 266.40833
40.478081 -11.895986 266.94208
44.72496 -30.192831 266.88287
44.746628 -30.194386 266.93542
42.26548 -27.862211 266.70151
42.39341 -28.90284 264.93576
42.402172 -29.402496 263.79715
42.48222 -27.87026 267.21655
42.521416 -28.857214 263.76492
42.541454 -28.30331 263.77264
42.567341 -27.749104 263.7789
42.568142 -27.196209 263.79144
42.625023 -28.912773 265.44418
42.65498 -29.136337 264.00974
42.665211 -28.394037 266.58853
42.772308 -29.413649 264.26154
42.795567 -29.431873 264.8251
42.839661 -26.667976 264.87488
42.870232 -27.19977 264.2851
42.881813 -28.857708 264.24393
42.896572 -28.401318 267.09991
42.905323 -28.303623 264.25079
42.929695 -27.749493 264.25742
42.990871 -29.653278 264.52328
43.019318 -29.442221 265.33548
43.074493 -28.911142 266.48868
43.106087 -27.206814 264.79535
43.122593 -29.690832 265.03232
43.182671 -29.414183 264.72513
43.247936 -28.857901 264.72153
43.276756 -26.950584 265.61301
43.276802 -27.750685 264.73978
43.286186 -28.303041 264.72467
43.292015 -29.754759 265.24713
43.295277 -29.691101 264.97882
43.303593 -28.932762 266.98511
43.323257 -29.680925 265.50699
43.459206 -26.960436 266.13663
43.536751 -27.489761 265.53506
43.563683 -29.413593 265.19897
43.616001 -28.857992 265.19861
43.634018 -28.304195 265.20685
43.637825 -26.97049 266.66122
43.719742 -27.499584 266.05856
43.728325 -29.682484 265.4454
43.838913 -26.979362 267.18021
43.911892 -27.508926 266.57977
43.946049 -29.412931 265.67252
43.94627 -28.307222 265.69794
43.973244 -28.858652 265.67844
44.095364 -27.518724 267.10315
44.103226 -29.688147 265.91431
44.16526 -28.04845 266.50348
44.246513 -29.950682 266.17426
44.319706 -28.859879 266.16095
44.368877 -28.05719 267.02182
44.44384 -29.692348 266.39539
44.567101 -29.969347 266.64572
44.578518 -28.865715 266.66544
44.646038 -29.415014 266.63577
44.764263 -28.875395 267.18826
44.848679 -30.042179 267.20532
44.853138 -29.976418 267.14047
42.266232 -24.811777 266.48676
42.388546 -25.338747 265.87393
42.39328 -26.385855 264.1391
42.465073 -24.820768 267.00629
42.527691 -26.131533 264.96585
42.586655 -25.347776 266.39365
42.667637 -25.876919 265.79123
42.795982 -25.356215 266.91055
42.884899 -25.884941 266.30612
42.977692 -26.413464 265.70071
43.07719 -25.894276 266.8273
43.177818 -26.422386 266.21994
43.291496 -25.902452 267.34296
43.37262 -26.431589 266.74048
43.571312 -26.440586 267.26004
42.295605 -20.839399 267.26935
42.921055 -19.430021 266.84296
43.008537 -20.343517 267.00024
43.101009 -21.232689 267.18259
43.358471 -19.80238 266.90115
43.438412 -20.742706 267.02277
43.523998 -21.665438 267.17056
43.869263 -20.343578 267.32559
44.007591 -22.472731 267.32172
44.029827 -21.440832 267.25983
42.282814 -15.965322 266.68658
42.307579 -17.24597 266.46252
42.398354 -18.14341 266.63635
42.454868 -16.509123 266.63071
42.487965 -19.046515 266.80432
42.824482 -17.328682 266.80359
42.9352 -17.875708 266.76309
43.291977 -18.695942 266.93921
19.796684 -30.904285 267.44852
20.025255 -31.907175 267.3678
20.163692 -30.914808 267.92563
20.224163 -31.916161 267.8873
17.80838 -20.082066 267.86859
18.4468 -20.052023 268.8129
18.520752 -19.346376 270.86417
18.645208 -19.823662 269.65213
18.686359 -20.471445 268.07211
19.285543 -19.800398 270.60266
19.31918 -20.421566 268.99823
19.449478 -20.919548 267.80518
19.517984 -20.194613 269.83875
20.098946 -20.928633 268.78534
20.163673 -20.190315 270.80664
20.305822 -20.73027 269.65204
20.328321 -21.311983 268.01147
19.732183 -18.232878 267.88794
22.426357 -43.240711 270.20538
22.446474 -41.561661 269.66922
22.447594 -42.4006 269.93451
22.517508 -41.577374 270.22079
22.564693 -42.700035 270.75284
22.634457 -42.749382 269.49628
22.678013 -41.874527 271.02826
22.721519 -43.664909 269.65149
22.859974 -41.464832 269.05688
22.951504 -42.358589 269.23447
23.048914 -43.223694 269.44153
23.289539 -41.865517 269.07785
23.383667 -42.74662 269.26843
23.47908 -43.62146 269.46548
23.623396 -41.392811 268.90027
23.718254 -42.270359 269.09451
23.811071 -43.157845 269.27856
23.904099 -44.044304 269.46368
22.067122 -37.95892 268.99313
22.154175 -38.507191 268.95856
22.237488 -39.05566 268.92493
22.247526 -37.702179 269.80835
22.294834 -39.07209 269.47992
22.348619 -39.888813 269.16263
22.358068 -40.727314 269.42581
22.38814 -38.533783 270.03867
22.389122 -39.906132 269.72186
22.483923 -37.938175 268.29675
22.494192 -37.994804 270.59421
22.500763 -39.366856 270.276
22.520166 -40.471535 270.24564
22.579165 -38.813847 268.49292
22.604445 -38.828003 270.83212
22.647964 -39.931412 270.79572
22.648661 -41.037071 270.77005
22.671329 -39.704517 268.67371
22.764526 -40.590157 268.85965
22.818691 -37.461025 268.12372
22.915333 -38.329884 268.32693
23.009268 -39.211922 268.51657
23.102295 -40.098385 268.70169
23.19614 -40.980869 268.89087
23.245691 -37.874218 268.13184
23.342024 -38.744576 268.3335
23.436884 -39.622112 268.52777
23.530756 -40.504459 268.7171
23.569633 -37.449833 267.90457
23.669609 -38.302437 268.12448
23.766779 -39.168709 268.33032
23.863304 -40.038128 268.53296
23.955065 -40.930767 268.7117
21.157427 -34.097923 268.17169
21.290318 -34.643784 268.12564
21.306396 -33.999081 267.64307
21.44438 -34.388428 268.94745
21.460501 -35.187683 268.07022
21.514824 -35.204273 268.62598
21.636059 -35.750748 268.58282
21.636898 -34.13105 269.75964
21.688715 -35.214577 269.15176
21.724554 -34.455364 267.60687
21.732246 -36.298538 268.54596
21.751547 -34.677872 269.71814
21.853268 -36.845024 268.50287
21.873543 -35.739021 267.93185
21.907892 -36.042046 269.36237
21.917383 -36.861099 269.05618
21.918856 -34.421818 270.53665
21.980398 -35.504833 269.92633
21.997786 -37.409718 269.02325
22.009298 -37.389668 268.45099
22.059425 -33.977715 267.43436
22.100573 -36.870911 269.57962
22.145622 -35.24889 270.74536
22.149796 -34.877129 267.60614
22.184357 -36.333103 270.14075
22.293428 -36.186882 267.9043
22.349108 -37.163437 270.36502
22.351347 -36.077068 270.95935
22.387753 -37.067032 268.09589
22.491785 -34.364788 267.4693
22.522528 -36.907063 271.18198
22.581539 -35.267208 267.638
22.721083 -36.596886 267.91568
22.916533 -34.788956 267.46613
23.009621 -35.675129 267.65152
23.145491 -37.022717 267.9108
23.338684 -35.225777 267.44992
23.425518 -33.978649 267.60303
23.433567 -36.103203 267.64432
23.709444 -34.002609 268.67062
23.746519 -34.534061 268.07919
23.875637 -35.346821 267.74298
23.901363 -36.987492 267.71631
20.391325 -32.46022 267.83264
20.467316 -31.369972 268.40848
20.506239 -31.920776 268.38596
20.58477 -30.810946 268.39178
20.630045 -31.380861 268.93707
20.667089 -32.465164 268.33289
20.70685 -30.823973 268.93054
20.708481 -31.929586 268.90463
20.765144 -32.993408 267.72617
20.787256 -31.392042 269.46704
20.823324 -30.837294 269.47073
20.856777 -33.008038 268.27258
20.876116 -32.473618 268.84985
20.884663 -31.939768 269.42987
20.917139 -30.380987 268.45773
20.947016 -31.403088 269.99637
20.950691 -30.850044 270.00818
21.006126 -33.553032 268.22238
21.038324 -33.017937 268.79645
21.055069 -32.483654 269.37439
21.060852 -31.949949 269.95508
21.121674 -31.413347 270.52194
21.129429 -30.86009 270.53275
21.161861 -30.316671 269.44727
21.162271 -33.564266 268.75262
21.199644 -33.179504 267.38919
21.216591 -33.028008 269.32114
21.229883 -32.493908 269.89993
21.234566 -31.96026 270.4809
21.273514 -30.87196 271.06601
21.296436 -31.423603 271.04752
21.326374 -30.316332 271.06552
21.346708 -33.574017 269.27576
21.378197 -33.038956 269.85001
21.391273 -30.242125 270.4299
21.396885 -30.187687 270.75961
21.407078 -32.504036 270.4249
21.408514 -31.970556 271.00665
21.542923 -33.04974 270.37808
21.554251 -32.515743 270.95737
21.633591 -33.558842 267.4321
21.671797 -30.635593 267.85812
21.671934 -33.595806 270.33298
21.701263 -33.06086 270.90778
21.724586 -30.507627 268.41974
21.869545 -30.416489 269.01703
22.217199 -31.011246 268.2608
22.303644 -31.540104 267.65698
22.307554 -30.573374 269.46829
22.374105 -31.022442 268.79086
22.473455 -31.550619 268.18381
22.573448 -30.605547 269.99698
22.614002 -32.07663 267.56644
22.629757 -31.561844 268.71399
22.717119 -32.090652 268.10995
22.732399 -30.628635 270.53818
22.747311 -31.308409 269.54498
22.881792 -32.10144 268.63806
22.91449 -31.319067 270.07245
22.993086 -32.62899 268.02802
23.00585 -31.847664 269.46741
23.02223 -30.815586 271.17932
23.082357 -31.329683 270.59973
23.117378 -32.641899 268.56625
23.173 -31.858318 269.99487
23.179817 -33.17202 267.96844
23.233562 -32.388535 269.39755
23.260756 -31.33975 271.12439
23.336462 -31.869169 270.52328
23.449688 -32.930019 269.33063
23.500265 -31.880003 271.05161
23.512484 -33.460117 268.73276
23.533777 -32.411644 270.46106
23.733568 -32.953983 270.39822
23.775877 -33.485161 269.80548
23.926897 -32.963264 270.91913
21.363173 -30.14683 268.69144
22.723051 -22.958609 268.03415
23.308947 -22.966692 269.02603
23.579178 -23.485882 268.37613
23.853556 -24.004854 267.72522
23.983479 -23.236813 269.70462
20.949398 -20.718483 270.61307
20.986452 -21.351755 269.01974
21.021849 -21.979149 267.42102
21.198347 -21.171165 269.90274
21.222918 -21.76022 268.26889
21.799046 -21.92095 268.86072
21.844353 -22.432524 267.69785
21.854212 -21.202909 270.90366
21.991575 -21.725918 269.73355
22.14443 -19.5469 267.58365
22.446945 -22.439728 268.68552
22.640856 -21.935022 270.35782
22.799568 -19.576065 268.58221
22.981216 -22.450525 269.69034
22.993052 -19.330261 269.40546
23.035166 -19.981455 267.82855
23.342747 -22.203705 271.02954
23.664062 -22.720209 270.36682
23.694244 -20.024584 268.8399
23.759815 -19.289246 270.86395
23.839321 -20.574907 267.69479
23.899818 -19.821604 269.70239
20.367956 -18.193453 268.82367
20.573799 -17.991426 269.68701
20.589439 -18.548849 268.0242
20.774094 -17.769753 270.53238
21.231804 -18.532776 268.98129
21.320026 -17.877672 271.07886
21.361216 -19.027618 267.78537
21.43618 -18.325556 269.8399
21.976496 -18.41358 270.36813
22.005676 -19.018967 268.74927
22.213728 -18.824764 269.61978
22.730093 -18.632683 270.98132
22.853157 -16.340143 271.08295
23.202221 -19.140022 270.2796
23.325512 -17.202217 271.1778
23.56671 -15.841244 270.81699
23.655693 -16.747419 270.98181
22.765059 -15.42966 270.92255
23.471546 -14.965189 270.62115
24.049166 -41.811996 268.90219
24.140671 -42.705887 269.07965
24.229948 -43.610622 269.24597
24.332294 -44.451675 269.47775
24.38847 -41.31274 268.75189
24.487417 -42.170357 268.96667
24.587635 -43.021778 269.18781
24.762896 -44.509682 269.87238
24.825329 -43.6674 269.59116
24.861219 -41.434673 269.06378
24.912857 -44.540691 270.97354
24.932384 -43.967369 270.41202
24.945818 -42.555367 269.58646
24.9988 -43.124878 270.12979
25.046381 -41.73053 269.86505
25.071659 -43.42664 270.95923
25.101479 -42.299927 270.40787
25.148422 -41.191761 270.4216
25.219498 -41.760319 270.96042
24.004847 -37.822998 267.95383
24.098869 -38.704613 268.14389
24.196987 -39.566269 268.35449
24.293177 -40.437325 268.55545
24.554075 -37.828136 268.3696
24.587425 -38.932079 268.33572
24.700226 -39.765144 268.573
24.752472 -38.389996 268.87646
24.798689 -37.854164 269.44702
24.811357 -40.598297 268.8107
24.860388 -39.22332 269.11499
24.935186 -38.685982 269.67838
24.958252 -40.057171 269.35602
24.983606 -38.150036 270.24835
25.008432 -40.893528 269.60901
25.036215 -39.519669 269.91861
25.099262 -40.35535 270.16837
25.104383 -38.982681 270.48364
25.176077 -39.817909 270.73123
25.250973 -40.652966 270.97803
24.006863 -34.292564 269.44376
24.04211 -35.090813 268.56171
24.125116 -36.172699 267.94601
24.178253 -35.636501 268.51483
24.286789 -35.383541 269.34805
24.291126 -34.58321 270.22018
24.364292 -36.999119 268.15161
24.400482 -36.463814 268.72467
24.533253 -36.209576 269.55182
24.548912 -35.408649 270.42111
24.609251 -37.291832 268.9379
24.727951 -37.038334 269.76859
24.772589 -36.235886 270.63058
24.943243 -37.332607 270.56229
24.094175 -33.774017 270.57336
26.810583 -27.185888 267.47668
27.245199 -26.935226 268.79758
27.341393 -27.46357 268.19131
27.609789 -26.688246 270.13599
27.625458 -27.468077 268.68948
24.290316 -23.75408 269.04553
24.379147 -22.988199 271.03525
24.525389 -24.27512 268.40448
24.632223 -23.508291 270.38965
24.91329 -24.026913 269.73706
25.085291 -25.065224 267.96027
25.155899 -24.547556 269.09409
25.433578 -24.038445 270.74536
25.640219 -24.56098 270.11142
25.707098 -25.33812 268.65207
25.860407 -25.082802 269.47409
25.919634 -25.860344 268.01666
26.177402 -24.571625 271.11551
26.374523 -25.09466 270.48395
26.408817 -25.873512 269.03278
26.56591 -25.617996 269.85382
26.588076 -26.397488 268.4057
27.023296 -25.632837 270.87793
27.065771 -26.411261 269.42468
27.145483 -23.31778 268.05136
27.205385 -26.156664 270.25012
27.344652 -23.840708 267.41928
27.597075 -23.332926 269.0769
24.446856 -19.933437 270.25244
24.60124 -20.516737 269.13757
24.616262 -21.2005 267.59775
24.656181 -19.743752 271.12711
24.765818 -20.945381 268.42068
25.009193 -20.438074 270.08057
25.033459 -20.185413 270.93094
25.285152 -20.956963 269.42926
25.452137 -19.308996 271.17633
25.455612 -21.728655 267.94394
25.581739 -21.474768 268.77277
25.686823 -20.708033 270.75836
25.875671 -19.73908 271.16705
25.970947 -21.226494 270.10501
26.197371 -19.325615 270.92856
26.225164 -22.260481 268.30762
26.24258 -21.231655 270.60629
26.2484 -21.745304 269.45331
26.301901 -20.156021 271.1713
26.465263 -22.781256 267.66528
26.60812 -21.231878 271.08401
26.625647 -19.732592 270.94305
26.710052 -22.273876 269.3248
26.727015 -20.578405 271.16995
26.731815 -21.758776 270.47086
26.93047 -22.795687 268.68741
27.052446 -20.146763 270.95016
27.150118 -21.010595 271.15851
27.153872 -21.825975 271.00247
27.211369 -22.286406 270.33789
27.400249 -22.809875 269.7084
27.475 -20.581623 270.93597
27.492388 -22.291075 270.83682
27.569202 -21.462358 271.12695
24.173571 -18.057556 271.16422
24.371313 -16.238453 270.72617
24.458139 -17.15514 270.88019
24.600744 -18.469904 271.17319
24.929295 -18.023058 270.96902
25.072849 -15.798114 270.39996
25.171116 -16.659046 270.61133
25.258051 -17.575207 270.7659
25.352741 -18.453568 270.95932
25.775728 -18.886311 270.94733
25.87599 -16.202454 270.30185
25.974201 -17.063648 270.51291
26.063532 -17.968128 270.6795
26.529978 -18.859001 270.74472
26.579014 -15.754871 269.98309
26.678967 -16.607582 270.20288
26.776867 -17.470293 270.41241
27.250326 -18.326986 270.51279
27.341194 -19.223972 270.68707
27.387878 -16.131306 269.91364
27.485828 -16.99378 270.12341
24.171488 -14.532629 270.28699
24.272577 -15.379807 270.51248
24.874226 -14.086446 269.9668
24.975157 -14.934387 270.1915
25.153587 -13.209395 269.65668
25.57509 -13.649384 269.63724
25.676971 -14.492696 269.8667
25.779434 -15.333176 270.09906
25.846529 -12.810952 269.28741
26.194929 -12.879134 267.44608
26.279039 -13.197288 269.32312
26.379663 -14.046729 269.54626
26.415976 -12.730968 268.3588
26.485401 -14.871253 269.79507
26.737823 -12.976297 267.9827
26.932953 -12.989047 268.7583
27.050091 -13.187695 267.57553
27.08342 -13.595576 269.2312
27.187811 -14.426666 269.47324
27.28491 -15.29328 269.67874
27.414368 -13.352358 268.21344
26.972654 -11.51673 267.61716
27.492374 -11.531809 268.07858
31.018528 -33.923828 267.68573
31.198076 -34.467232 267.62796
29.42915 -30.67087 267.59137
29.585842 -30.682077 268.12146
29.688881 -31.21006 267.51349
29.699759 -30.428831 268.95334
29.860605 -31.220476 268.03983
29.889599 -30.438295 269.47513
29.967241 -31.748268 267.43094
29.982843 -30.966793 268.86963
30.045885 -30.449524 270.00534
30.135685 -31.75886 267.9581
30.158619 -30.976997 269.39493
30.208387 -30.460424 270.53397
30.214098 -31.507481 268.79889
30.328911 -30.987488 269.9216
30.400404 -32.297787 267.87897
30.41416 -31.516407 269.31812
30.485107 -30.998722 270.45184
30.490162 -32.045811 268.71692
30.586203 -31.526808 269.84436
30.628466 -32.838642 267.80905
30.647314 -31.009638 270.98056
30.657881 -32.056438 269.24426
30.728384 -32.586132 268.64444
30.770107 -31.536583 270.36761
30.829731 -32.066849 269.77054
30.831131 -33.380833 267.74548
30.877523 -32.597736 269.17642
30.915306 -31.548391 270.9006
30.957169 -33.126949 268.57431
31.006386 -32.077007 270.29562
31.035013 -32.608902 269.70633
31.092709 -33.139271 269.10974
31.12719 -32.090099 270.83475
31.162489 -33.669003 268.5101
31.178839 -32.620785 270.23965
31.24649 -33.150631 269.64056
27.662785 -27.999516 268.09799
27.761473 -27.213671 269.51581
27.817486 -26.69677 270.65329
27.930975 -28.518814 267.44861
27.946899 -28.004023 268.59613
27.958578 -27.222752 270.0358
28.041338 -26.704445 271.16656
28.099529 -27.748741 269.4183
28.145794 -27.232353 270.55823
28.32593 -27.242327 271.08246
28.326597 -28.536903 268.48819
28.326878 -27.756233 269.93069
28.469093 -28.282156 269.3129
28.482323 -29.062115 267.867
28.661757 -28.29147 269.83398
28.688845 -29.070702 268.38461
28.697054 -27.77566 270.97665
28.796753 -28.817774 269.21799
28.827127 -29.596832 267.76779
28.973251 -28.827938 269.74313
29.00897 -29.606716 268.2916
29.026257 -28.311195 270.88135
29.137085 -29.352724 269.1199
29.139162 -30.13327 267.67682
29.170586 -28.837008 270.26303
29.260719 -29.365669 269.65829
29.313873 -30.14353 268.20239
29.332319 -28.84795 270.79187
29.431353 -29.890099 269.03339
29.485415 -29.373301 270.17136
29.592066 -29.901093 269.56247
29.610939 -29.386147 270.70926
29.78294 -29.910501 270.08401
29.792084 -26.801287 268.159
29.945553 -29.921398 270.61261
30.074209 -30.038975 271.18237
30.079678 -27.339012 268.07413
30.143785 -26.554985 269.50064
30.231205 -27.08379 268.89661
30.338594 -27.878244 267.99646
30.432989 -27.092625 269.41537
30.480818 -27.623512 268.82126
30.529295 -26.573605 270.54276
30.586485 -28.418058 267.92157
30.619614 -27.102257 269.93799
30.678019 -27.632587 269.34122
30.715382 -26.583265 271.06549
30.733002 -28.163099 268.74527
30.797562 -27.112347 270.46274
30.821234 -28.958561 267.84995
30.868221 -27.642033 269.86288
30.924631 -28.172468 269.26663
30.973789 -28.703285 268.67215
31.062487 -29.498722 267.77673
31.063152 -27.651228 270.38339
31.113503 -28.181982 269.78864
31.159822 -28.712948 269.19492
31.203543 -29.244051 268.60181
31.283476 -30.039951 267.70856
27.774811 -23.856981 268.4502
27.958918 -24.380701 267.82193
28.097637 -23.345495 270.09018
28.258753 -23.870424 269.46765
28.410658 -24.395838 268.84741
28.568335 -24.920948 268.22574
28.656097 -23.621721 270.79785
28.714867 -25.446644 267.60687
28.784176 -24.148388 270.18359
28.927832 -24.674236 269.56546
29.038046 -25.982498 267.51309
29.054684 -25.200966 268.95151
29.186028 -25.727461 268.33646
29.259161 -23.203056 271.06894
29.300182 -24.426847 270.90192
29.348196 -26.519035 267.42258
29.390079 -25.736177 268.85468
29.441748 -24.952805 270.2843
29.494543 -26.264086 268.24634
29.553278 -25.480341 269.67419
29.649717 -24.961315 270.80154
29.692883 -26.273102 268.76599
29.693111 -23.582378 271.11188
29.757574 -25.489044 270.19235
29.848616 -26.017658 269.5874
30.009356 -25.495251 270.69861
30.022902 -23.129486 270.91391
30.121031 -23.991087 271.12457
30.242847 -26.03582 270.62732
30.358982 -25.496311 271.18036
30.450499 -23.53977 270.92502
30.545542 -24.41641 271.12021
30.87719 -23.954473 270.93155
30.969826 -24.842844 271.11469
31.170897 -23.007519 270.6933
27.807806 -20.114035 270.75311
27.898869 -21.010073 270.92838
27.977934 -22.818388 270.70233
27.991837 -21.896833 271.11319
28.320446 -21.449694 270.9093
28.403265 -22.38591 271.04324
28.525936 -19.592831 270.51007
28.615808 -20.494671 270.67935
28.743683 -21.881226 270.89856
28.824722 -22.826115 271.02359
29.079002 -21.40139 270.7283
29.16626 -22.315975 270.88449
29.331501 -19.985352 270.42407
29.420397 -20.891954 270.58847
29.592556 -22.732605 270.88904
29.892221 -21.756603 270.68066
30.038059 -19.520544 270.12305
30.134617 -20.389801 270.32584
30.360922 -22.636492 270.7572
30.60762 -21.248716 270.42392
30.833984 -19.960037 269.98877
31.07914 -22.114855 270.51459
27.958656 -17.853548 270.22061
28.05349 -18.731203 270.41476
28.18589 -16.560631 269.78983
28.664301 -17.393185 269.91501
28.760424 -18.264568 270.1156
28.893419 -16.091093 269.49365
29.236082 -19.110538 270.22702
29.367582 -16.944347 269.59756
29.464972 -17.809555 269.8045
29.650427 -16.050335 269.30487
29.940212 -18.657564 269.91382
30.168098 -17.361477 269.48627
30.340466 -15.666036 268.92105
30.448109 -16.481266 269.17941
30.645296 -18.199944 269.60538
30.743507 -19.06115 269.81644
30.86727 -16.932665 269.14822
31.140442 -16.085783 268.8071
27.813713 -13.68502 268.90857
27.911911 -13.69088 267.6907
27.934059 -14.438345 269.23056
28.03894 -15.267033 269.47507
28.050644 -13.68468 268.24533
28.175093 -12.16069 267.45303
28.255713 -14.025105 268.99182
28.604609 -13.89943 268.09845
28.688507 -14.410067 269.02896
28.7087 -12.224957 267.95953
28.796099 -15.225544 269.28705
29.147303 -14.28517 267.66846
29.35314 -14.506343 268.89014
29.486357 -12.72455 267.73978
29.548044 -15.209466 269.07291
29.673639 -14.485544 268.11737
29.811972 -12.983226 267.37592
29.966747 -12.60032 268.07355
30.186319 -14.90491 268.70627
30.327051 -14.877176 268.01431
30.338381 -12.14112 268.04379
30.347622 -13.054729 267.88904
30.761221 -12.57459 268.03104
30.946541 -15.397447 267.84622
31.004303 -15.409429 268.40598
31.095928 -12.097734 267.85773
31.146322 -13.628857 267.73758
27.845903 -11.889357 267.8053
27.873844 -10.526809 268.20255
28.289724 -10.99419 268.15491
28.347832 -11.841413 268.20898
28.714312 -11.419146 268.15094
28.918129 -9.5704327 267.74332
29.013893 -10.443565 267.94211
29.144863 -11.815027 268.17682
29.48863 -11.294023 268.04889
29.63043 -9.0776424 267.47104
29.727684 -9.9435024 267.67734
29.82023 -10.832317 267.86002
29.914862 -11.710963 268.05313
30.434862 -9.4756727 267.37939
30.529089 -10.356293 267.5705
30.622959 -11.238657 267.75983
32.654285 -49.128662 269.48721
32.662769 -49.108772 268.91571
32.681152 -48.554955 268.92383
32.740589 -48.571278 269.47833
32.747654 -49.1432 270.03317
32.842857 -48.585346 270.02206
32.900433 -49.713245 268.77338
32.960644 -48.884747 270.84024
33.24464 -49.190079 268.64767
33.336472 -50.082382 268.82678
33.579113 -48.714378 268.47318
33.672108 -49.601009 268.65811
33.765144 -50.487419 268.84326
34.006393 -49.126202 268.48267
34.101257 -50.003716 268.67697
34.307716 -50.700256 269.03439
34.442444 -48.46233 268.48224
34.550064 -49.581814 268.99915
34.569576 -50.153084 269.55087
34.619572 -48.472462 269.0072
34.65654 -49.042812 269.55457
34.707108 -49.898598 270.37686
34.81744 -48.787098 270.37469
34.865643 -49.356861 270.91922
32.719048 -48.000114 268.92709
32.783459 -47.443878 268.92368
32.837917 -46.602016 268.64447
32.855824 -44.92308 268.10886
32.888725 -45.474197 268.08786
32.893406 -47.74369 269.74384
32.925842 -45.491695 268.64792
32.931252 -46.044258 268.63382
32.964912 -46.53384 268.08914
32.967838 -44.936634 268.65015
32.976028 -46.900349 269.45755
33.012733 -46.059422 269.18277
33.034649 -48.041855 270.55612
33.058571 -47.417229 268.2774
33.066498 -45.503742 269.18204
33.069672 -46.914871 270.00345
33.0882 -44.949753 269.18936
33.133255 -46.072529 269.72192
33.148567 -48.318462 268.4473
33.151005 -44.771515 267.59271
33.184528 -45.516983 269.72183
33.212948 -47.212929 270.81522
33.225468 -44.961983 269.7243
33.248264 -46.085926 270.26248
33.284798 -46.129215 267.84155
33.312988 -45.529675 270.259
33.337418 -44.97554 270.26562
33.37006 -46.098969 270.80133
33.381348 -46.998512 268.04431
33.431004 -45.542915 270.7988
33.476696 -44.987663 270.80011
33.482357 -47.846081 268.26941
33.583492 -45.157963 267.6283
33.722004 -46.492672 267.90079
33.813183 -47.388145 268.07663
33.907051 -48.270519 268.26593
34.014465 -45.551792 267.65631
34.155979 -46.871864 267.94385
34.405731 -47.625263 268.22589
34.422337 -44.840698 267.71609
34.448723 -46.231155 267.96228
34.511936 -45.674984 267.95917
34.585289 -44.851574 268.2446
34.637585 -46.793522 268.47156
34.639271 -47.632427 268.73669
34.6521 -46.239906 268.48068
34.654579 -45.686928 268.4928
34.705292 -44.864712 268.78391
34.726238 -46.808304 269.01871
34.734554 -46.25502 269.02939
34.745819 -45.701576 269.03931
34.746101 -47.646259 269.2793
34.772896 -48.217144 269.82922
34.802761 -44.879032 269.32886
34.816818 -46.82299 269.5654
34.832268 -46.269329 269.57428
34.849499 -45.715572 269.5827
34.891258 -47.391369 270.10336
34.910107 -44.892834 269.87131
34.934456 -47.961395 270.64917
34.9394 -46.283142 270.11679
32.645527 -41.311451 267.39038
32.75732 -41.325016 267.93173
32.79258 -41.876011 267.91013
32.816895 -42.427582 267.8913
32.836609 -42.979397 267.8736
32.844566 -43.531826 267.85886
32.889099 -44.082333 267.83493
32.904701 -41.336716 268.46417
32.928291 -41.888321 268.4455
32.943497 -44.098919 268.39069
32.950047 -42.440029 268.42728
32.951023 -43.545673 268.40155
32.951611 -42.992794 268.41415
33.038208 -41.34914 269.00006
33.065639 -41.900547 268.98044
33.072208 -44.111599 268.9278
33.085972 -43.558025 268.9371
33.088749 -42.452179 268.96188
33.095005 -43.0047 268.94757
33.186852 -41.360771 269.5322
33.19846 -44.124405 269.46552
33.211742 -41.912312 269.51318
33.220131 -43.570415 269.47284
33.221916 -43.017475 269.48514
33.230698 -42.464161 269.4957
33.328461 -41.372768 270.06607
33.332684 -44.136795 270.00125
33.350475 -43.583008 270.00955
33.351505 -43.030106 270.02203
33.356224 -41.92416 270.04636
33.360497 -42.476784 270.03253
33.447018 -41.385983 270.60571
33.463074 -44.149384 270.53793
33.46822 -41.937717 270.58765
33.474712 -42.490223 270.57327
33.477802 -43.59576 270.547
33.477993 -43.0429 270.55969
33.554405 -41.39978 271.14819
33.573864 -41.951607 271.13055
33.575352 -44.162926 271.07919
33.583534 -42.503948 271.11539
33.59388 -43.056252 271.10004
33.604755 -43.608532 271.08456
33.874321 -44.225037 267.37564
34.239697 -41.247063 267.56006
34.292553 -41.797131 267.53406
34.3354 -41.261475 268.10544
34.397503 -41.811058 268.07712
