# .PCD v0.7 - Point Cloud Data file format
VERSION 0.7
FIELDS x y z
SIZE 4 4 4
TYPE F F F
COUNT 1 1 1
WIDTH 1587
HEIGHT 1
VIEWPOINT 0 0 0 1 0 0 0
POINTS 1587
DATA ascii
4.6324282 22.284773 72.221512
4.8348551 9.7034454 60.568321
4.8618779 20.006247 70.254906
5.1539831 11.173355 62.005722
5.1773319 12.974606 63.712269
5.1918859 14.75701 65.428741
5.9406538 18.131016 68.591133
6.299798 21.347609 71.432915
6.4411602 8.5267162 59.489075
6.5787339 15.962646 66.62571
6.8151922 10.259555 61.219856
6.818285 12.0012 62.939884
6.8534942 13.831904 64.643005
6.9759641 19.394276 69.768005
7.6234531 17.248087 67.792366
7.7288151 22.658283 72.62236
8.1242867 7.677887 58.688263
8.2804699 15.136641 65.8144
8.3927193 20.669546 70.961143
8.4411812 9.1300249 60.127106
8.517045 11.180996 62.129532
8.523345 12.929165 63.851879
9.0144377 18.45322 68.997032
9.6557074 16.298061 67.02475
9.8209352 21.969021 72.152725
9.9297886 14.172518 65.036858
10.065919 19.748203 70.168877
10.103389 8.2209435 59.340508
10.123107 9.9933672 61.049507
10.217055 12.088554 63.045425
11.07001 17.556629 68.215408
11.319501 15.365726 66.238045
11.491461 21.032835 71.362465
11.624715 13.32813 64.230103
11.802121 9.1218119 60.252296
11.816754 10.878943 61.969006
11.850167 22.605803 72.808441
12.115637 18.827942 69.391739
12.739367 16.631355 67.425552
13.006513 14.494537 65.436646
13.22164 12.104965 63.154778
13.47098 21.408684 71.715134
13.496333 8.2895584 59.44508
13.508268 10.03383 61.163944
13.785236 17.897032 68.601952
13.841422 19.778124 70.315781
14.400906 15.687089 66.640488
14.610429 13.282945 64.356354
14.907556 11.238654 62.353756
15.201267 9.1917953 60.358089
15.423187 21.704508 72.087502
15.458046 16.975779 67.810013
15.523164 18.872952 69.518486
16.025661 14.523623 65.546349
16.299591 12.418576 63.5536
16.445944 8.0388584 59.255047
16.558344 20.101221 70.710709
16.569649 10.310841 61.568085
17.069416 15.771567 66.723709
17.188297 17.9249 68.731644
17.403551 22.064764 72.445534
17.68655 13.579348 64.761871
17.850418 9.2453213 60.440926
17.982103 11.536417 62.755264
18.242794 19.196985 69.912117
18.632685 20.828636 71.34391
18.753183 14.879801 65.92511
18.805353 16.729673 67.641228
19.237904 10.402395 61.643002
19.404631 12.781535 63.941471
19.408508 22.479694 72.791664
19.552942 8.4220266 59.629299
19.868132 18.016581 68.816109
20.250633 19.622145 70.251915
20.491177 15.836573 66.841652
20.61689 21.18803 71.701538
20.626831 11.557449 62.84927
20.802114 13.956893 65.14875
20.917742 9.5155315 60.846264
21.547213 17.100691 68.020737
21.928797 18.697329 69.457321
22.05439 12.804445 64.036575
22.189802 8.4264622 59.723888
22.305075 20.28228 70.901192
22.346584 10.76495 62.027748
22.397318 22.237961 72.61113
22.579124 15.004995 66.041962
23.535992 17.467833 68.372017
23.605896 9.6386118 60.91246
23.749828 11.943698 63.230732
23.805681 13.782924 64.944618
23.904131 19.025864 69.820045
24.069359 21.284218 71.820633
24.320353 15.953217 66.962524
24.334276 7.8833523 59.21701
24.990725 10.766799 62.125935
25.515312 12.9508 64.130455
25.537067 14.702885 65.869873
25.538399 17.861067 68.717842
25.698656 20.098595 70.720627
25.759727 9.1103907 60.401585
26.078981 21.685072 72.170204
26.313751 16.323933 67.31179
26.757191 11.772001 63.023888
27.005659 7.9533596 59.294624
27.175846 10.308111 61.597565
27.251266 13.875647 65.053337
27.308676 18.866356 69.632408
27.68243 20.429966 71.085213
28.030888 15.497059 66.493881
28.074932 22.042042 72.530914
28.089836 17.341822 68.220123
28.435555 9.1804676 60.480846
28.501282 12.713096 63.940666
28.9216 11.252968 62.510265
29.243526 7.7510142 59.064053
29.275005 14.314212 65.383659
29.30582 19.228077 69.988426
29.711391 20.866203 71.425835
29.783058 16.448618 67.417
30.163418 10.076944 61.403675
30.502689 13.09356 64.283699
30.541147 18.01063 68.880768
30.775888 22.119511 72.624413
30.907345 11.595775 62.86055
30.970522 8.6434946 59.984985
31.030203 15.2692 66.30378
31.295408 19.562374 70.351753
31.785049 16.817837 67.768234
32.142937 10.402278 61.756931
32.296478 14.139368 65.179413
32.421391 20.962074 71.513718
32.544765 18.377331 69.234947
32.685387 12.602545 63.762493
32.700878 7.8642917 59.158104
33.034706 15.64155 66.652824
33.445908 9.3759079 60.612274
33.498211 22.236685 72.708977
33.623665 19.655899 70.423172
33.786106 17.175703 68.123146
33.912579 11.384388 62.662766
34.265656 14.422826 65.548744
34.680077 12.950382 64.114067
34.68404 8.1935396 59.507645
34.733986 21.008081 71.597733
34.886135 18.501333 69.297806
35.050568 16.033571 66.998032
35.17551 10.256055 61.541668
35.884548 22.455391 72.754036
35.937878 11.804265 62.994965
36.011318 19.88476 70.4627
36.129517 17.302635 68.184021
36.315174 14.893982 65.8731
36.451744 9.1621208 60.412701
36.709465 13.373413 64.447975
37.085266 21.139555 71.661903
37.213146 10.702502 61.865711
37.216896 18.589235 69.369568
37.742714 16.076429 67.093018
37.94379 12.167952 63.342072
38.06496 17.358599 68.24691
38.080627 14.294325 65.362633
38.092072 20.539339 71.118477
39.217991 21.913326 72.292435
39.856323 12.049382 63.078022
40.072887 14.486545 65.389565
40.086754 17.740995 68.597725
40.095783 16.213175 67.150497
40.144638 19.433418 70.009529
40.92218 21.01178 71.484283
41.311562 13.285829 64.279373
41.826458 15.392601 66.326431
41.843559 18.525841 69.204254
42.060867 22.40641 72.656059
42.223396 16.968943 67.776268
42.672333 20.220869 70.649979
43.104855 14.282452 65.191933
43.78791 21.553074 71.835243
43.866543 15.807752 66.66703
43.911133 19.000858 69.535141
44.25602 17.36154 68.124763
45.002228 20.269945 70.732979
45.60556 15.000467 65.838669
45.842003 21.981356 72.181976
45.999054 16.558405 67.294319
46.013176 18.130932 68.735313
47.008884 20.45767 70.767563
47.751076 17.309542 67.908226
47.777454 18.909199 69.345642
48.147686 21.829679 71.946312
49.298649 20.268505 70.539635
49.900272 18.079006 68.534988
50.150574 21.993198 71.988213
51.060928 19.490841 69.699646
13.851479 23.033756 73.151222
24.86676 22.970587 73.265045
-50.245548 26.408888 70.707748
-49.927921 24.19116 68.763397
-49.535995 28.304138 72.423363
-48.655312 25.2985 69.973671
-48.359116 26.895254 71.384148
-48.336258 23.095659 68.028008
-47.044289 24.259813 69.223236
-46.748402 27.783443 72.310608
-46.738544 25.879459 70.62674
-45.15612 24.743519 69.898094
-45.152145 26.683336 71.571503
-43.436176 26.221212 71.398605
-43.432537 24.313641 69.717567
-41.834866 23.230682 68.976906
-41.829792 27.072742 72.334694
-41.825024 25.172195 70.648071
-40.239441 25.95224 71.599541
-40.22345 24.095942 69.904449
-38.613564 24.946842 70.837997
-38.58923 26.926786 72.508026
-37.000858 23.90312 70.085876
-36.996567 25.811203 71.770836
-35.394951 24.727335 71.026863
-35.082642 26.325365 72.444801
-33.775612 23.700666 70.269897
-33.485535 25.222885 71.704041
-31.870026 24.179966 70.949814
-31.850353 26.118437 72.632767
-30.255661 25.006222 71.893425
-30.250082 23.153303 70.192322
-28.62488 24.006815 71.12822
-28.310524 25.586321 72.553314
-26.691595 24.545752 71.796593
-25.143929 23.170193 70.760109
-24.756935 25.078577 72.468018
-23.214418 23.684361 71.43425
-21.276182 24.214415 72.106178
-19.643215 23.212805 71.339409
-19.305599 24.828945 72.760117
-17.680777 23.798288 71.998932
-15.716143 24.379606 72.66114
-14.105886 23.303949 71.909752
-12.140994 23.870726 72.575813
-8.5196075 23.475807 72.463722
-5.5141082 23.674549 72.903847
-1.469056 23.379829 72.78421
-50.916275 34.438255 77.346863
-50.657177 30.030457 73.748528
-50.519093 36.522163 79.029175
-49.76812 38.569565 80.743439
-49.74699 32.976162 76.310127
-49.041058 30.941948 74.67482
-49.003986 34.987888 78.021217
-48.603249 37.074982 79.706268
-47.923531 29.201237 73.349991
-47.826813 33.550396 76.977097
-47.608814 38.45219 80.870483
-47.413467 31.880566 75.597626
-47.069637 35.598701 78.683578
-46.332611 30.018137 74.297646
-46.026993 37.253799 80.14241
-45.913818 34.089737 77.653519
-45.526672 32.338039 76.290062
-45.146172 28.634537 73.24823
-45.032825 38.617691 81.311577
-45.00518 35.048046 78.547058
-44.994736 31.31521 75.480309
-43.428089 28.171497 73.075569
-43.406502 30.170425 74.747269
-43.393925 33.959862 77.797287
-43.08147 31.848404 76.155685
-43.080078 37.429577 80.597061
-43.067593 35.648651 79.213402
-41.803856 29.076283 74.003265
-41.488796 34.451271 78.486763
-41.475746 30.75561 75.409576
-41.452034 32.760933 77.089355
-41.157242 37.965767 81.282112
-41.140591 36.203278 79.891586
-40.206177 27.96936 73.262825
-39.890388 29.601477 74.678146
-39.864197 31.605303 76.356033
-39.547489 35.047478 79.154465
-39.529305 33.303047 77.766357
-39.208233 38.574142 81.952972
-39.194443 36.808292 80.560326
-38.2873 28.50757 73.93354
-38.266586 30.484592 75.615479
-37.944237 32.134499 77.034737
-37.602715 35.64352 79.823906
-37.597397 33.863396 78.440903
-37.251396 37.391563 81.235535
-36.684967 27.414515 73.189308
-36.649361 29.429253 74.860626
-36.332859 31.052685 76.284164
-35.990486 32.759174 77.69355
-35.654942 36.237267 80.495544
-35.651459 34.456532 79.10981
-35.29126 38.017063 81.903229
-35.054092 28.308268 74.121391
-34.712479 30.002224 75.527069
-34.404289 31.593765 76.960663
-34.047279 33.338993 78.364227
-33.704742 35.04084 79.78241
-33.694927 36.857952 81.16301
-33.457668 27.195124 73.380989
-33.337582 38.610966 82.579575
-33.120415 28.867134 74.789841
-32.766659 30.591866 76.191368
-32.456566 32.183559 77.627808
-32.096416 33.931774 79.033646
-31.739664 35.670902 80.446533
-31.731152 37.478397 81.83226
-31.528864 27.734272 74.052773
-31.181669 29.430922 75.458801
-30.846704 31.090956 76.877914
-30.501671 32.78397 78.294258
-30.155497 34.482502 79.714172
-29.918232 26.663155 73.302094
-29.792643 36.234154 81.12719
-29.791843 38.012142 82.522171
-29.596361 28.274294 74.725967
-29.246283 29.973042 76.134338
-28.88872 31.696327 77.542015
-28.528559 33.42886 78.952515
-28.187929 35.103817 80.380707
-27.987846 27.192225 73.976692
-27.823786 36.852352 81.797424
-27.635664 28.889381 75.383659
-27.284882 30.583952 76.795944
-26.944611 32.248013 78.21991
-26.788548 38.259712 82.967239
-26.572802 34.009769 79.626793
-26.377068 26.120205 73.225639
-26.207943 35.751781 81.043137
-26.013212 27.844238 74.624588
-25.680798 29.475657 76.049591
-25.325661 31.176786 77.463326
-25.181461 37.124699 82.218719
-24.967348 32.889194 78.879433
-24.620611 34.568375 80.307716
-24.415251 26.728638 73.882309
-24.085646 28.343906 75.309212
-23.739092 30.011415 76.728668
-23.574503 35.992863 81.470146
-23.36916 31.750589 78.136787
-23.201666 37.751354 82.890358
-22.983326 33.538834 79.53894
-22.811655 25.633223 73.136002
-22.469515 27.278004 74.554337
-22.110046 28.976271 75.965065
-21.988558 34.802013 80.73526
-21.777742 30.595156 77.39859
-21.605032 36.583836 82.14827
-21.392059 32.374737 78.800575
-20.867777 26.173027 73.809067
-20.510183 27.857231 75.221176
-20.374939 33.698368 79.981827
-20.156275 29.532619 76.640045
-19.992876 35.46674 81.395897
-19.903524 37.601429 83.079277
-19.791409 31.242344 78.055901
-18.892124 26.795563 74.464668
-18.764854 32.586697 79.230797
-18.54822 28.433617 75.890327
-18.39115 34.322529 80.650108
-18.30241 36.445347 82.333839
-18.199669 30.087294 77.317017
-17.889215 38.303291 83.737404
-17.348944 25.392006 73.427727
-17.169172 31.436338 78.489052
-16.925121 27.38158 75.13044
-16.782696 33.201553 79.899826
-16.699022 35.299683 81.586746
-16.575283 29.031214 76.556366
-16.290806 37.134155 82.993401
-15.537067 30.395657 77.723282
-15.387574 25.958157 74.096291
-15.242274 38.528374 84.173615
-15.155337 32.13863 79.137253
-15.082375 34.197067 80.830917
-14.95922 27.953869 75.801033
-14.683182 35.995838 82.24337
-13.932962 29.276291 76.975861
-13.761774 24.920713 73.334381
-13.632404 37.3894 83.421898
-13.544257 31.031445 78.385178
-13.478 33.061195 80.083061
-13.403066 26.580599 74.753563
-13.077564 34.855175 81.494514
-12.325533 28.17012 76.226021
-12.019773 36.261909 82.668411
-11.942443 29.900698 77.638939
-11.914953 38.412498 84.357353
-11.843967 32.014446 79.315948
-11.785021 25.515867 73.996742
-11.463638 33.742371 80.740204
-10.76233 26.814814 75.172905
-10.412262 35.122986 81.91803
-10.318257 28.837584 76.878036
-10.290239 37.313591 83.595993
-10.237131 30.892178 78.566246
-10.151372 24.497528 73.229591
-9.8463964 32.642071 79.983757
-9.1275616 25.7931 74.405067
-8.7913074 34.026329 81.15905
-8.7640629 27.452374 75.829903
-8.6764622 36.186291 82.841454
-8.6028576 29.851097 77.798882
-8.272501 37.977989 84.26535
-8.2296524 31.543285 79.227486
-7.503232 24.743853 73.644005
-7.1725049 32.926319 80.401375
-7.1499972 26.367096 75.075455
-7.0612679 35.066292 82.085983
-7.057323 28.435986 76.755272
-6.6362162 36.909508 83.496689
-6.6064448 30.465658 78.467072
-5.5428009 31.859934 79.636742
-5.519238 25.331142 74.310158
-5.4428101 33.958656 81.328377
-5.4384789 27.35767 75.997665
-5.0538731 29.066629 77.417976
-5.0366688 35.739929 82.750557
-4.9255471 37.879932 84.445793
-3.9938312 30.443628 78.588966
-3.8236041 32.856499 80.570129
-3.801532 26.333101 75.228287
-3.500468 24.33778 73.551239
-3.499547 37.529255 84.229332
-3.4975748 29.357574 77.780365
-3.487253 34.30722 81.700294
-3.1204679 27.690952 76.381233
-2.4246759 32.442532 80.367592
-2.4142179 35.714737 82.878281
-1.5350488 29.729452 78.141838
-1.483778 26.660912 75.612099
-1.330202 33.905285 81.529488
-1.327511 37.156353 84.052895
-1.126907 24.95048 74.228218
-0.77474999 31.429037 79.590134
-0.448342 27.954584 76.798073
-0.25839299 35.300583 82.710388
0.31042001 32.858025 80.757866
0.51979101 23.956202 73.452576
0.59843302 25.952749 75.147499
0.629013 37.481274 84.434753
0.63285297 29.370337 77.960243
1.378984 34.236973 81.940704
1.389757 31.050974 79.413254
1.662055 27.315229 76.317352
1.801512 36.038593 83.363876
2.2219119 24.888659 74.386589
2.489166 32.50985 80.574585
2.61165 37.869377 84.803871
2.7100241 28.631325 77.501564
3.311553 26.315237 75.540039
3.349376 34.596809 82.312004
3.5021009 30.398691 78.934532
3.7946081 36.454304 83.72541
3.8910289 23.950663 73.596878
4.3473153 27.590918 76.732033
4.4518452 32.848541 80.948692
4.5927968 38.243668 85.176819
4.9433951 25.268684 74.773842
5.1372638 29.344307 78.166245
5.3328099 34.98325 82.678429
5.5432682 31.078672 79.593285
5.7726622 36.818909 84.0989
5.9893241 26.565563 75.959457
6.0644612 23.610403 73.408966
6.4210391 33.196167 81.321655
6.7823439 28.319277 77.391739
7.109756 24.901407 74.592545
7.1945052 30.062408 78.81514
7.3104768 35.344437 83.051247
7.5548429 37.927097 85.024048
7.580194 31.735897 80.25901
8.0248823 27.10113 76.282021
8.4008417 33.56332 81.691116
8.7575026 23.897879 73.816444
8.7703781 28.719641 77.747581
9.0946875 36.451981 83.973907
9.1669998 30.414724 79.184105
9.1932878 25.689339 75.217926
9.5480242 38.313404 85.395493
9.5809584 32.158451 80.614716
9.9808741 27.413584 76.65638
10.169479 34.625835 82.620193
10.71958 29.007153 78.129784
10.73592 24.275299 74.172173
11.115573 36.909958 84.328407
11.138101 30.754543 79.556747
11.37225 33.277664 81.528709
11.508426 25.95199 75.618576
11.54833 38.709064 85.765846
12.176121 35.045628 82.980812
12.295796 27.666771 77.061615
12.707263 29.388105 78.49176
12.718041 24.653471 74.528542
12.942501 31.902592 80.461914
13.091337 37.237358 84.712021
13.362232 33.651337 81.897903
13.475143 26.282158 75.988289
14.18521 35.462372 83.342987
14.286046 28.051577 77.421265
14.471224 30.423101 79.419731
14.696457 25.01269 74.890144
14.836474 38.083183 85.332336
14.915984 32.22971 80.839928
15.367032 34.054905 82.261337
15.492734 26.736919 76.330475
15.812293 23.346411 73.521805
15.993738 36.600327 84.262482
16.059454 29.10578 78.342659
16.486353 30.857193 79.772484
16.680975 25.378836 75.251022
16.914856 32.614822 81.205933
17.150885 38.151306 85.42614
17.152039 35.126724 83.192558
17.253044 27.752396 77.258194
17.810524 23.747599 73.872604
18.05405 29.482269 78.706795
18.309196 36.671539 84.354431
18.334175 33.721531 82.10955
18.463322 26.44776 76.164124
18.500366 31.278782 80.128891
19.183285 38.600235 85.786423
19.268188 28.181038 77.608994
19.505276 35.296932 83.261757
19.579813 24.778999 74.791031
19.996975 32.707134 81.324524
20.07258 29.912344 79.059807
20.341269 37.118332 84.713448
20.456871 26.818598 76.526512
21.13872 34.198311 82.493324
21.168358 23.481037 73.714966
21.182869 31.321005 80.239868
21.249294 28.512468 77.982719
21.591883 25.196869 75.140701
21.769442 38.231079 85.626579
21.902166 35.696125 83.647308
22.306387 32.759235 81.417473
22.376873 29.960114 79.151222
22.471142 27.233595 76.879768
23.167652 23.862719 74.071465
23.346525 36.844749 84.550392
23.462242 34.276886 82.581917
23.503494 31.401005 80.325462
23.579096 28.625458 78.058205
23.606934 25.613089 75.491592
24.642534 32.870178 81.497688
24.699165 26.959627 76.676895
24.70433 30.057428 79.231705
24.806911 38.027802 85.449188
24.917706 35.448257 83.477692
25.24758 24.565536 74.719604
25.808504 28.346025 77.857033
25.857908 31.557821 80.394211
26.087835 34.010902 82.397606
26.365288 36.5928 84.382416
26.383215 26.015602 75.879593
26.84833 23.293537 73.63517
26.932535 29.765976 79.03373
27.4914 27.392021 77.060539
27.523188 35.119724 83.307579
27.642895 32.583355 81.334702
27.834215 37.784645 85.280045
27.965815 24.69092 74.80484
28.37545 30.893085 79.930977
28.60957 28.790211 78.240616
29.002741 36.33474 84.197472
29.082598 26.082766 75.979843
29.110226 33.768139 82.225662
29.185909 23.418312 73.702934
29.822105 32.02253 80.830719
30.058825 29.926607 79.134361
30.204466 27.483364 77.156937
30.294481 24.784239 74.881378
30.485432 37.550354 85.09053
30.589003 34.974407 83.115059
31.27372 33.158028 81.732109
31.421844 26.193405 76.053909
31.488087 31.006271 80.043785
31.64329 28.587315 78.055786
31.886269 23.483551 73.800941
32.055878 36.143562 84.015816
32.760975 34.376545 82.618401
32.963169 32.193909 80.932182
33.000408 24.85331 74.980125
33.11771 29.77379 78.939125
33.240414 27.283978 76.970192
33.524658 37.310871 84.920036
34.191116 35.445152 83.540565
34.403137 33.287285 81.844505
34.448853 25.971109 75.871231
34.55888 30.871056 79.84549
34.648834 23.689636 73.86657
34.68103 28.380169 77.871613
35.007122 38.506012 85.821449
35.722614 36.760456 84.412231
35.890072 34.491722 82.735451
35.890457 27.065592 76.770752
35.997482 31.955399 80.757629
36.149178 29.538252 78.762047
36.171139 25.10877 75.052727
37.352997 28.205814 77.662758
37.363098 23.762232 73.963486
37.40118 35.748676 83.618195
37.484924 33.154156 81.647484
37.603718 30.656351 79.664536
38.001396 26.206978 75.966705
38.088745 36.87569 84.496124
38.882618 38.393021 85.661018
39.185329 24.836794 74.880325
39.26458 32.528301 81.138306
39.269844 35.460949 83.402672
39.301689 29.711857 78.860138
40.089344 37.035255 84.552483
40.135429 26.970451 76.609818
40.349979 23.298481 73.467865
40.447796 31.134136 80.046783
40.458603 34.069439 82.305878
40.897896 38.581367 85.712624
40.912357 28.428846 77.764847
41.180264 25.008242 74.923157
41.274223 35.628834 83.456093
41.660789 32.715939 81.202324
42.060547 29.849545 78.949432
42.346939 26.471134 76.089653
42.480835 37.193455 84.627571
42.834248 31.29645 80.114975
42.843948 34.220581 82.379585
42.9067 24.146381 74.102859
43.19738 28.225769 77.545097
43.658218 35.767788 83.533974
44.047329 25.538834 75.284103
44.068104 32.918667 81.263306
44.334873 29.611729 78.738129
44.490364 37.35759 84.68338
44.578728 23.153683 73.312988
44.860771 34.408081 82.427689
44.893833 27.276945 76.741684
45.175556 31.212744 79.869896
45.678642 35.957634 83.583015
45.749382 24.611393 74.477615
46.000774 38.574299 85.584572
46.058483 28.721537 77.920021
46.066105 33.059742 81.32045
46.615673 26.389429 75.924416
46.837742 30.167732 79.085007
46.875313 34.582603 82.478874
46.99469 23.39127 73.355209
47.195618 37.185284 84.479164
47.645187 31.680717 80.238983
47.779167 27.824055 77.103615
47.856304 25.151937 74.8032
48.404488 35.835159 83.367004
48.49493 33.293674 81.375
48.554886 29.255754 78.270531
48.755592 38.509972 85.357857
48.99231 26.515625 75.995956
49.015495 23.598047 73.388565
49.361328 30.759417 79.425194
49.783527 27.978821 77.153275
49.9123 37.029659 84.271027
49.976677 34.426342 82.287048
50.176174 25.015675 74.565659
50.196468 32.330322 80.569008
50.58939 29.475708 78.3069
51.0453 26.784397 76.018456
51.16478 38.668774 85.434555
51.317772 23.421186 73.159325
51.397915 30.977816 79.463394
51.521973 35.704048 83.170547
51.711334 33.535187 81.463722
-51.167263 44.508442 85.078949
-50.342091 41.208706 82.62693
-50.146835 45.985435 86.238174
-49.6464 42.9487 84.063606
-49.426342 47.812729 87.669968
-48.762764 39.988991 81.901306
-48.649147 44.340363 85.23806
-48.08065 41.674767 83.347481
-47.936279 46.132812 86.673721
-47.058887 43.140354 84.504074
-46.623158 39.795948 82.045876
-46.345627 44.924118 85.939278
-45.969936 46.808384 87.341011
-45.907475 41.581738 83.471504
-45.04966 44.089481 85.468124
-45.04607 40.41127 82.698883
-45.030334 42.305408 84.069252
-45.026085 46.018818 86.840965
-43.105328 41.005646 83.375214
-43.098949 44.703873 86.146111
-43.088982 39.227539 81.981621
-43.084854 42.908813 84.746658
-43.082054 46.605827 87.527756
-41.146381 39.821571 82.656898
-41.138985 41.670769 84.038063
-41.138905 43.501957 85.42794
-41.12373 45.386566 86.811394
-40.10556 46.804585 87.991318
-39.189812 42.26862 84.717194
-39.189198 40.450424 83.32634
-39.170818 44.154732 86.098366
-38.170509 45.505539 87.29071
-37.244747 39.217182 82.618088
-37.243412 41.031418 84.007889
-37.237255 42.865372 85.398239
-36.205109 44.308422 86.569267
-36.18961 46.177475 87.961555
-35.281914 39.846134 83.288071
-35.28175 41.651012 84.682831
-34.246784 43.09333 85.852249
-34.222721 44.978527 87.239273
-33.323284 40.449772 83.965225
-32.285992 41.889774 85.133362
-32.261051 43.767239 86.520187
-31.370691 39.23436 83.251259
-30.574076 44.783154 87.461143
-30.334829 40.660465 84.420654
-30.302124 42.551128 85.802696
-28.736471 39.490791 83.678238
-28.617706 43.551147 86.745499
-28.355066 41.302727 85.092789
-26.769905 40.087627 84.358841
-26.665747 42.310123 86.032455
-26.260015 44.193142 87.441238
-25.059166 41.154312 85.284081
-24.793356 38.937584 83.629074
-24.663059 42.998745 86.698936
-23.605862 44.458546 87.874329
-23.097336 39.951244 84.56427
-23.068964 41.800343 85.958229
-22.013834 43.245487 87.134827
-21.517883 38.721947 83.833145
-21.102062 40.606133 85.235275
-20.295523 44.304565 88.070831
-20.061255 41.999462 86.421097
-19.521875 39.374649 84.503242
-18.436098 40.894657 85.660072
-18.349371 43.031075 87.361313
-16.855358 39.661659 84.927116
-16.733423 41.89249 86.60582
-15.121713 40.744946 85.852974
-14.703506 42.612564 87.268753
-13.529623 39.543674 85.112343
-13.107751 41.413094 86.525482
-11.50256 40.245583 85.776222
-11.369825 42.48658 87.458984
-9.8971386 39.082249 85.026817
-9.7730513 41.288067 86.714615
-8.1678886 40.118103 85.964897
-8.0026112 42.438065 87.633423
-6.5362248 39.027225 85.199013
-6.4064212 41.23534 86.888893
-4.782608 40.115219 86.127525
-4.6602311 42.2985 87.827454
-3.4755621 40.869534 86.748207
-2.7818618 38.998535 85.383934
-1.522223 41.183487 87.136253
-0.82889301 39.314289 85.769669
0.45576301 41.557671 87.512405
1.1663491 39.738724 86.13298
2.6429739 41.19693 87.33432
3.412287 39.671974 86.255753
5.1978936 40.797756 87.182396
6.3796339 39.368259 86.101067
7.2089248 41.235275 87.546173
8.3606844 39.722733 86.480865
9.227026 41.681519 87.909065
10.383188 40.179817 86.83976
12.115997 41.000469 87.469711
13.282951 39.531715 86.393196
14.417609 41.035652 87.572807
15.962517 39.55698 86.515579
16.439793 41.46207 87.941116
17.989239 39.992615 86.88031
19.464514 41.237442 87.770569
20.623697 39.748524 86.694557
22.075193 40.919415 87.600945
23.247465 39.466118 86.516655
24.72156 40.683784 87.413681
26.259953 39.185524 86.356514
27.747244 40.42374 87.249901
29.316364 39.003342 86.175079
30.792894 40.200924 87.077896
31.96419 38.74881 85.990471
32.291088 41.446129 87.973801
33.444313 39.943901 86.894363
35.558292 40.524815 87.232056
37.025631 38.717232 85.868073
38.122982 39.902981 86.757309
39.914242 40.752506 87.388969
42.120583 40.18914 86.882416
43.289249 38.731201 85.791039
43.643147 41.444599 87.780632
44.832172 40.032089 86.67691
46.357285 41.281933 87.577034
47.544113 39.863766 86.473465
48.38633 41.468391 87.631752
49.57568 40.055183 86.525917
50.411472 41.637486 87.690353
-50.575962 49.411449 88.70359
-50.201229 51.322239 90.109192
-49.520218 52.893616 91.24765
-48.604446 50.108097 89.370857
-47.942528 51.606308 90.522308
-47.572609 53.492504 91.94088
-47.482479 48.416134 88.354469
-46.455349 49.896118 89.524872
-45.985531 52.232887 91.208527
-45.299374 48.320698 88.483498
-45.051357 51.394188 90.714424
-45.026237 53.350311 92.101418
-44.345165 49.419468 89.373245
-43.091976 52.013763 91.402878
-43.045258 54.034367 92.779953
-42.388828 50.032066 90.060249
-42.06395 48.032864 88.707527
-41.11235 52.687531 92.082077
-40.421154 54.250252 93.231026
-40.417068 50.682945 90.741219
-40.070808 48.757671 89.370071
-38.999947 52.186859 91.935509
-38.387592 49.794361 90.313042
-38.307079 53.745102 93.085381
-38.127445 47.473804 88.664146
-36.984039 51.243225 91.51754
-36.432388 48.539989 89.599335
-36.283085 52.817066 92.663307
-35.392445 50.004528 90.780006
-34.698849 51.546043 91.930389
-34.483158 47.271973 88.889206
-33.442425 48.728909 90.069595
-33.261059 53.081345 93.124191
-32.746178 50.268658 91.218468
-32.534195 46.007454 88.179016
-31.8482 47.508556 89.330009
-31.688303 51.77137 92.397858
-31.25893 53.771568 93.805626
-31.165955 48.996597 90.487595
-30.101484 50.511589 91.662323
-29.888184 46.274517 88.612434
-29.674847 52.492477 93.071579
-29.125746 48.130657 90.054039
-28.102491 51.183163 92.34465
-27.949057 53.599667 94.013268
-27.848541 45.41835 88.177902
-27.410635 49.209358 90.992653
-27.098892 47.223679 89.629074
-26.371469 52.299984 93.282494
-25.694471 50.280235 91.936035
-25.568762 45.682129 88.594185
-25.364573 48.352192 90.556564
-24.630796 53.434704 94.220009
-24.327143 51.418728 92.849701
-23.860765 46.724335 89.537003
-23.644978 49.423862 91.499031
-22.579967 52.56395 93.784264
-22.208933 50.891533 92.708107
-22.14839 47.768936 90.482422
-21.906399 45.466858 88.822647
-21.881397 54.066845 94.955887
-21.443769 49.284645 91.640678
-20.453897 52.049534 93.640068
-20.173285 46.565632 89.755234
-19.729504 53.62154 94.797958
-19.683268 50.4575 92.566521
-19.398296 48.411732 91.206848
-18.568224 45.379593 89.006584
-18.241976 51.91856 93.78196
-17.788935 47.229347 90.455215
-17.637386 49.575832 92.133636
-17.515501 53.486843 94.941689
-16.97296 44.168575 88.263962
-16.255487 50.720631 93.048553
-16.19817 45.995785 89.71492
-16.064701 48.277218 91.403992
-15.546485 52.227127 94.21891
-15.034322 44.486561 88.651863
-14.788063 53.879551 95.364166
-14.45746 47.086365 90.653221
-14.313439 49.394745 92.341713
-13.586089 50.946251 93.501122
-13.299849 45.555046 89.592049
-13.00008 43.59161 88.223816
-12.840025 52.551823 94.65377
-12.713743 48.174694 91.595055
-12.100335 54.136578 95.814865
-12.003268 49.669094 92.764137
-11.568078 46.604816 90.539185
-11.254232 44.683689 89.158257
-11.249955 51.287537 93.912148
-10.49971 52.895287 95.066536
-10.481717 48.089752 91.726128
-9.7477837 49.643414 92.884331
-9.6528797 43.488453 88.410713
-9.5069113 45.769791 90.097076
-9.075592 54.126842 95.974403
-8.9901047 51.264702 94.03289
-8.4081316 47.281071 91.277885
-7.8792582 44.644043 89.333321
-7.6870441 48.787922 92.444839
-7.5838475 52.438213 94.949699
-6.9191189 50.429058 93.588547
-6.8056068 46.074799 90.528862
-6.2768531 43.449165 88.584679
-6.1496119 53.684799 95.855026
-6.0777092 47.593826 91.691429
-5.5153093 51.586506 94.507805
-5.322948 49.188545 92.842567
-5.1773419 44.946629 89.764442
-4.4560099 46.439083 90.930656
-4.1574526 54.083008 96.240173
-3.8913331 50.419315 93.745285
-3.791775 52.435371 95.146149
-3.7085869 48.004898 92.085854
-3.5482309 43.823734 88.999519
-3.497797 45.680576 90.415321
-3.4411688 42.672802 88.167488
-3.4338441 49.173943 92.941612
-2.7608099 47.211735 91.576279
-1.995187 50.415386 93.843033
-1.50573 52.451744 95.260742
-1.33269 48.421246 92.480316
-1.231967 45.665356 90.531265
-1.1085449 54.097954 96.395935
-1.10295 43.000641 88.573227
0.0037229999 50.823952 94.223175
0.166131 46.78434 91.451324
0.32306701 44.199356 89.471275
0.48185799 52.819939 95.651459
0.65747201 48.807987 92.862701
1.793034 45.641178 90.687035
1.9148808 42.970074 88.727676
2.0165119 51.261715 94.598412
2.2274909 53.700348 96.287651
2.2668021 47.606525 92.108109
2.6601241 49.220127 93.240791
3.352947 44.188347 89.623009
3.7445509 52.0882 95.243195
3.803607 46.079288 91.056236
4.0519261 42.331829 88.243523
4.0993028 50.433678 94.150696
4.261446 47.992832 92.490395
5.3658376 44.629791 89.989899
5.4998999 52.98164 95.876648
5.7329812 49.289505 93.381607
5.8131199 46.504395 91.429016
5.8620529 51.348778 94.777069
6.02634 42.669292 88.629951
7.2213278 53.771118 96.532661
7.253377 47.708092 92.336617
7.3698139 45.036327 90.365051
7.4619031 50.105206 94.02655
7.8719425 51.751091 95.16124
8.0499649 43.132462 88.990967
8.8053074 46.220436 91.274185
8.9895258 48.53952 92.976212
9.3367996 53.008911 96.069969
9.4945307 44.339436 89.891708
9.4948025 50.566708 94.397751
10.537821 47.03738 91.914688
10.813502 54.291649 96.977043
10.970593 51.847599 95.300026
11.016224 42.784786 88.847488
11.018661 48.988625 93.348289
11.304212 45.493168 90.825508
12.460423 53.15897 96.199646
12.467342 43.996197 89.747841
12.491746 50.255356 94.250702
12.575398 47.506504 92.281075
13.250828 42.510517 88.651115
13.351051 45.987904 91.184792
13.991935 51.588242 95.143204
14.03579 48.732391 93.189194
14.486438 44.415051 90.12104
14.796693 47.171841 92.098557
15.273295 42.939148 89.020538
15.458581 52.821819 96.059029
15.527591 50.035572 94.084969
15.959298 45.667336 91.01796
16.304031 48.513638 92.983368
16.746862 44.190514 89.914703
16.963093 54.150032 96.959358
17.018333 51.327667 94.98642
17.427292 46.8993 91.922363
17.764641 49.722683 93.89856
17.885241 42.634148 88.849136
18.192295 45.359329 90.829292
18.510225 52.615505 95.89209
18.924856 48.202106 92.81562
19.252888 50.997425 94.803734
19.338238 54.313068 97.048241
19.364874 43.889725 89.74292
19.683771 46.64349 91.723244
20.401148 49.440933 93.72522
20.762417 52.321537 95.702484
20.83345 45.108055 90.647705
20.906252 42.386517 88.684204
21.161243 47.882427 92.62989
21.594305 54.019623 96.85894
21.921129 50.787434 94.616508
22.313856 46.350689 91.550758
22.36043 43.561119 89.595573
22.663427 49.179466 93.52803
23.150368 52.507366 95.785408
23.567707 42.189545 88.489632
23.830177 47.6796 92.439491
23.87435 44.885086 90.479149
24.170162 50.480103 94.428833
24.673216 53.846512 96.686066
25.02475 43.359951 89.402565
25.328035 48.952686 93.343094
25.360085 46.127312 91.382996
25.404491 52.202267 95.597672
26.187397 41.873486 88.319855
26.499678 44.570217 90.310211
26.561934 50.666782 94.510117
26.866516 47.416386 92.280624
26.929592 53.536392 96.499557
27.681723 43.128922 89.215431
27.692072 49.066719 93.437691
28.02677 45.9076 91.194977
28.080822 51.979916 95.413269
29.161076 44.338417 90.123878
29.200445 50.348122 94.344208
29.240902 41.671085 88.1446
29.242964 47.561096 92.367722
29.909706 52.953438 96.038048
30.384434 46.004627 91.290581
30.714783 42.860989 89.054672
30.757412 48.852135 93.269684
31.035547 51.334969 94.963791
31.157619 44.501694 90.185387
31.716722 53.860615 96.678268
31.911909 47.323704 92.183884
32.582211 49.806557 93.893471
32.640911 45.705715 91.099304
32.823792 43.435085 89.397507
32.871914 52.314339 95.587135
33.725685 48.247097 92.811584
34.312 44.644524 90.308746
34.379482 41.964031 88.326729
34.408985 50.756329 94.520447
34.420712 53.673603 96.487328
34.466438 46.657597 91.718536
35.564774 49.225071 93.430367
35.892544 43.230335 89.223511
35.962528 52.120937 95.416718
36.148994 45.619144 90.921791
36.299465 47.618786 92.33812
37.047871 41.727036 88.139603
37.110607 50.565239 94.328537
37.522362 53.493809 96.314926
37.664486 44.036243 89.869484
37.851688 48.971928 93.230438
37.970982 46.546261 91.546898
39.241962 45.447418 90.742294
39.64344 51.175735 94.695869
39.650486 48.338673 92.717796
39.767639 43.082695 89.075279
40.09037 52.812077 95.851067
40.779289 46.750256 91.641205
41.184788 49.631104 93.625275
41.284298 54.229733 96.723236
41.326077 44.436531 89.958572
41.457375 42.068192 88.275002
41.673111 51.363262 94.758492
42.333057 48.086559 92.536728
42.860928 45.724262 90.859085
42.920059 53.034561 95.948662
42.993973 43.360706 89.169411
43.23526 49.868279 93.676613
43.686459 51.502316 94.830971
44.358421 48.262047 92.599319
44.557674 44.712307 90.054947
44.990906 53.306862 95.996094
45.01844 46.356785 91.195946
45.208179 42.796967 88.661964
45.33482 50.347218 94.050392
46.398716 48.465328 92.656532
46.519878 51.720028 94.928268
46.561722 44.835762 90.125595
47.01577 46.457687 91.272507
47.310822 43.29071 89.023788
47.703812 50.256176 93.817474
47.725239 53.138397 95.800331
48.428387 48.634907 92.720764
48.586914 45.003132 90.187347
49.065872 46.679672 91.324387
49.272758 51.596832 94.722481
49.352638 43.499729 89.0756
49.601963 54.137596 96.427605
50.003349 49.987423 93.620071
50.613468 45.165981 90.250259
50.636475 48.019249 92.222221
51.169956 52.640656 95.338402
51.391064 43.692001 89.131149
51.80785 46.53862 91.11895
-51.536926 66.751389 100.19437
-51.17067 68.542824 101.30568
-50.861073 59.072582 95.28804
-50.666264 54.529747 92.282745
-50.621147 56.587616 93.65387
-50.396496 63.23473 98.071297
-50.166485 60.700119 96.433189
-49.699039 64.873802 99.224281
-49.355152 66.575233 100.34946
-48.984116 68.371628 101.46077
-48.939156 57.663418 94.599358
-48.823597 61.87455 97.348267
-48.693165 55.21492 92.960686
-48.249607 59.263336 95.747833
-48.144253 63.442028 98.512901
-47.612679 69.62632 102.37642
-47.424229 65.146545 99.655296
-47.070885 66.870316 100.77824
-47.012768 56.277512 93.907097
-46.904305 60.436668 96.661324
-46.67799 57.920597 95.025566
-46.554096 62.138588 97.77784
-45.877235 54.601963 92.874924
-45.856152 63.758919 98.934265
-45.684029 68.168236 101.68374
-45.328419 59.101433 95.935677
-45.31403 69.945923 102.80444
-45.14534 65.419815 100.08718
-45.011833 62.449482 98.159378
-45.003819 60.708103 97.068695
-44.980625 55.379711 93.479012
-44.290806 56.958889 94.628654
-43.073727 61.068233 97.459503
-43.042286 68.379593 102.15163
-43.042133 64.832512 99.957848
-43.027447 66.652908 101.04388
-43.01899 63.142838 98.850632
-42.848038 58.566818 95.815651
-42.360935 55.585037 93.933289
-41.295193 57.164738 95.104263
-41.153503 59.635536 96.770676
-41.105289 65.190758 100.35398
-41.090961 68.772896 102.54504
-41.083897 63.500874 99.245018
-41.076763 61.769032 98.147827
-40.743202 66.914093 101.48088
-39.712242 55.868889 94.372871
-39.572262 58.320629 96.040047
-39.16954 65.534523 100.75384
-39.148521 69.125412 102.94686
-39.142197 60.377502 97.449432
-39.060001 62.521652 98.828056
-38.792839 67.298416 101.87493
-38.000595 56.981209 95.315399
-37.684559 63.741573 99.743629
-37.617523 55.290039 94.242073
-37.563511 59.049877 96.719841
-37.228493 65.885773 101.15308
-37.123497 61.130257 98.128166
-36.84848 67.651947 102.2757
-35.995117 57.695385 95.996574
-35.759968 62.302753 99.051079
-35.667305 64.470428 100.43298
-35.616009 55.994644 94.922577
-35.560722 59.746109 97.408012
-35.293816 66.205666 101.55909
-34.906017 67.989311 102.68036
-34.84536 54.361176 93.857582
-34.17625 60.979565 98.317169
-33.973309 58.448792 96.671974
-33.819672 62.647438 99.449005
-33.720245 64.828766 100.83061
-33.596397 56.744133 95.5961
-33.344986 66.561386 101.95921
-32.97121 68.291115 103.09252
-32.829281 55.099609 94.530922
-32.610107 59.606785 97.593987
-32.242817 61.300018 98.718758
-31.865768 57.880543 96.538872
-31.79118 63.394188 100.13472
-31.768209 65.192383 101.2282
-31.377941 66.965675 102.35101
-31.123589 56.155651 95.486526
-30.496344 59.048683 97.45887
-30.306385 61.620316 99.12117
-29.849386 63.721874 100.53808
-29.818573 65.538475 101.62988
-29.746721 57.345787 96.399124
-29.523836 54.914162 94.742119
-29.428755 67.302269 102.75648
-28.734407 60.261738 98.393135
-28.361952 58.551788 97.311684
-28.279249 62.346397 99.810608
-27.887964 64.101799 100.93233
-27.866262 65.883018 102.03273
-27.795813 56.022812 95.688652
-27.468447 67.663826 103.15813
-26.790098 60.594944 98.792831
-26.425177 58.865665 97.713425
-26.287586 62.818924 100.18592
-26.21999 54.705292 94.958519
-25.928514 64.465149 101.33059
-25.912853 66.221107 102.43771
-25.853067 56.361702 96.082924
-24.842493 60.928326 99.193436
-24.402126 57.882931 97.297394
-24.09487 62.600693 100.35011
-23.951693 64.872543 101.72137
-23.948956 66.581833 102.83929
-23.9011 55.043579 95.371368
-23.269964 59.574203 98.463554
-22.813684 56.593536 96.55835
-22.519651 61.245655 99.618149
-22.119968 62.999928 100.74086
-21.995596 65.204391 102.12739
-21.690563 58.247543 97.729454
-20.961594 59.844749 98.896217
-20.761127 55.706444 96.124077
-20.588276 66.432823 103.05534
-20.216019 61.491524 100.05769
-20.171003 63.309097 101.14973
-19.65905 57.285446 97.308922
-19.025824 65.018196 102.32881
-18.906847 58.9431 98.462875
-18.618891 55.220364 95.97438
-18.230236 61.910011 100.44451
-17.522989 56.769417 97.165161
-17.488237 60.196129 99.375015
-17.453505 63.640358 101.59658
-17.301268 65.910393 102.97591
-16.761839 58.443745 98.315987
-16.414442 55.045639 96.12709
-16.071997 61.433327 100.29346
-15.731124 64.520813 102.24425
-15.337289 59.703846 99.226822
-15.279214 56.701385 97.297935
-14.637802 62.71603 101.20639
-13.928279 60.909 100.15141
-13.878078 57.885464 98.220711
-13.746422 64.905319 102.64202
-13.69187 55.41013 96.557663
-12.642273 63.133934 101.59612
-12.44377 59.160492 99.128906
-12.27427 56.636543 97.470238
-11.947462 61.285648 100.54716
-11.752033 65.308022 103.03734
-10.844973 57.889126 98.380966
-10.69189 55.329231 96.732239
-10.641315 63.557556 101.98568
-10.44875 59.578186 99.515137
-9.9350758 61.745892 100.92786
-9.2596292 56.583755 97.640594
-8.8529329 58.29472 98.76841
-8.6482811 63.947029 102.38268
-8.4463387 60.007278 99.900101
-7.9265432 62.183632 101.31384
-7.6540298 55.342991 96.88855
-7.2507601 57.03545 98.017975
-6.8627429 58.684818 99.159828
-6.4509988 63.54546 102.21727
-6.4435682 60.42704 100.28788
-5.6796989 55.691185 97.285126
-5.262392 57.417065 98.409935
-4.9805388 61.745354 101.19656
-4.8417401 59.154465 99.536797
-4.1713848 63.507751 102.34982
-3.6513481 56.184956 97.653969
-3.4916911 60.009525 100.16606
-3.448029 61.759621 101.2767
-2.003444 58.2817 99.136314
-1.970063 63.104481 102.18461
-1.48141 55.724136 97.498955
-1.461886 60.484653 100.54427
-0.50182402 64.413147 103.10272
-0.0073850001 61.752979 101.46494
-0.0063009998 57.055046 98.397507
0.038440999 58.789551 99.506462
0.61752999 54.928616 97.043533
1.1173871 63.16737 102.34022
1.5056562 60.087807 100.41853
2.015851 57.501099 98.77861
2.365195 55.81081 97.682884
2.7183311 61.873833 101.5877
3.1400039 63.591354 102.73291
3.4727013 58.761276 99.696236
3.9647779 54.547939 96.932358
4.1039162 56.65733 98.331329
4.319941 60.588005 100.83459
4.772213 62.382862 101.96307
5.5945411 58.002705 99.231659
5.6043248 64.164825 103.11959
5.7194052 55.433887 97.571526
6.3653693 61.069252 101.21409
7.1006479 59.38266 100.12887
7.1798739 62.792942 102.37931
7.2072959 56.764175 98.472839
8.6012993 60.738853 101.03423
8.6783199 58.038734 99.388512
8.7101183 55.097092 97.431961
9.4148998 62.449326 102.20232
10.195274 56.404457 98.338356
10.210578 59.475208 100.2763
10.947994 63.881786 103.10101
11.037542 61.214329 101.43678
11.701798 57.762939 99.238266
12.307028 55.612278 97.880035
12.522545 59.476425 100.40035
12.562362 62.616028 102.33923
13.836105 57.02142 98.769333
13.942813 54.441746 97.108353
14.068768 60.929565 101.28989
14.667846 58.75481 99.926903
15.443146 55.765213 98.012497
15.5845 62.290783 102.20071
16.172222 60.083347 100.83955
16.271112 57.479912 99.17144
16.72576 63.679413 103.08865
17.72739 61.540985 101.7311
17.81398 58.904877 100.06355
17.815407 55.921566 98.103966
18.874647 62.936367 102.6171
19.332314 57.269562 99.008125
19.342813 60.283627 100.96824
20.479053 58.65583 99.887772
20.493404 61.680733 101.85203
20.845448 55.628571 97.955902
22.01413 57.066353 98.822655
22.022409 60.059788 100.78819
22.319424 62.669182 102.48884
23.124969 55.38633 97.756897
23.52916 58.387878 99.736145
23.858856 61.071377 101.41821
24.179733 63.738743 103.11269
24.664515 56.768063 98.655472
25.352482 59.359894 100.37128
25.690111 62.058014 102.05527
26.188629 55.157993 97.595612
26.4972 57.761646 99.283936
26.872 63.510254 102.93474
27.216257 60.427174 100.99043
28.011503 56.120659 98.227661
28.33004 58.7444 99.916725
28.397379 61.870213 101.86881
28.769941 54.542904 97.120384
29.558167 63.254757 102.76173
29.874086 57.175888 98.843994
29.912109 60.210396 100.80867
30.600824 55.515053 97.750198
31.076387 61.597076 101.69839
31.4347 58.578896 99.745094
32.143204 56.867352 98.657806
32.28149 63.085609 102.57214
32.601456 59.965252 100.6321
33.271477 55.240089 97.577431
33.736385 58.342236 99.545265
33.796005 61.418926 101.50961
34.845192 56.659866 98.472328
34.905037 59.724262 100.43352
34.963238 62.797295 102.40486
35.959221 54.999008 97.397736
36.010853 58.029289 99.360016
36.070213 61.092148 101.32771
36.992634 62.96991 102.47924
37.147339 56.419891 98.272354
37.19796 59.448269 100.24145
38.09824 61.262028 101.40147
38.176422 54.417435 96.893745
38.186951 58.713348 99.703262
39.709587 62.75174 102.29842
39.740582 55.789322 97.798111
39.758629 60.102722 100.61368
40.246967 57.58358 98.933067
41.342445 61.51498 101.52339
41.77932 55.986702 97.862511
41.820621 58.968285 99.842705
41.87373 63.376503 102.66013
42.957561 57.358799 98.750877
43.037788 60.43856 100.71846
43.446743 54.862747 97.071884
43.524193 62.179382 101.8762
44.15152 58.765636 99.635803
44.776279 63.730473 102.74419
45.018078 56.227341 97.980721
45.064163 60.579521 100.79744
46.170441 54.668236 96.882217
46.199528 58.961002 99.703102
46.301567 62.086681 101.67083
46.928726 57.319378 98.594757
47.425732 60.43478 100.57977
48.061886 55.709175 97.503647
48.322208 62.196678 101.75706
48.557709 58.809143 99.486046
49.259914 57.104725 98.389175
49.472008 60.608383 100.65266
50.243427 63.291237 102.38261
50.60107 58.976128 99.559044
50.817135 55.567932 97.303566
51.331734 57.343067 98.446953
51.377983 61.661808 101.28338
51.791698 64.434631 102.97971
-37.202682 69.478317 103.34966
-35.252373 69.835831 103.75232
-31.26993 69.17627 103.74088
-29.306147 69.550758 104.14162
-27.343962 69.909767 104.54612
-25.521666 67.972275 103.57058
-24.089245 69.29525 104.48473
-22.529669 67.856171 103.76037
-20.822359 68.707008 104.4184
-18.865761 67.323769 103.70434
-18.825274 69.138298 104.81082
-16.898643 67.659409 104.11345
-16.835558 69.536316 105.2103
-15.32048 66.285072 103.37668
-14.881914 68.135605 104.49738
-14.849479 69.912956 105.61469
-13.319494 66.710678 103.76878
-12.900246 68.494904 104.9039
-11.295126 67.195679 104.15078
-10.505178 68.93782 105.31736
-9.7536516 65.713066 103.43304
-8.9381971 67.522118 104.58459
-8.1098843 69.366959 105.73445
-7.4527311 65.742378 103.55413
-6.637084 67.540222 104.70911
-5.8106198 69.368034 105.86349
-5.278245 65.261604 103.4038
-4.4305029 67.141846 104.54356
-3.6113887 68.936768 105.70425
-3.455301 64.867462 103.21606
-1.974016 66.2202 104.12892
-1.39078 68.561981 105.53444
-0.268747 69.97551 106.42309
0.073937997 66.720993 104.51015
1.3061742 68.574608 105.68307
1.5496891 64.923019 103.48045
2.39621 66.764709 104.63036
2.431509 69.984772 106.57363
3.5263059 68.183266 105.5162
3.9935489 65.443283 103.87849
4.6511989 69.581871 106.40901
5.1269021 66.863541 104.76199
6.6362209 68.249306 105.67691
7.1071229 65.53183 104.03246
7.7811561 69.689735 106.56363
8.6282806 66.941795 104.94097
8.7150793 64.242912 103.27451
9.7829103 68.39949 105.82263
10.226911 65.618904 104.18725
10.947804 69.881096 106.70345
11.367279 67.029991 105.0755
12.461583 65.25148 104.01517
12.528479 68.493599 105.95744
13.606816 66.665604 104.90305
14.086258 64.006172 103.24753
14.377873 69.575668 106.58631
15.44365 67.710381 105.53593
15.608274 65.38282 104.16203
17.300255 68.798271 106.16322
17.463871 66.470673 104.78527
18.566174 64.722603 103.71748
19.315104 67.534889 105.41539
20.411556 65.768425 104.34823
20.48807 68.993813 106.30241
20.708185 63.951454 103.25063
21.571913 67.187752 105.23943
22.540787 64.952942 103.88893
23.420336 68.222153 105.87752
23.736046 66.455864 104.76386
25.373627 65.229645 103.98788
25.462816 68.459 105.94345
26.563887 66.706268 104.86928
26.648174 69.922989 106.83387
27.741436 68.144257 105.76136
28.040339 64.921921 103.82535
28.947998 69.653358 106.64386
29.229424 66.382713 104.71017
30.462111 67.953514 105.57816
30.762875 64.749649 103.63725
30.987322 69.855034 106.71755
31.947519 66.187195 104.52701
32.59182 68.520348 105.95574
33.461517 64.503777 103.46272
33.970737 66.344902 104.60653
34.898991 68.254387 105.76434
35.467152 64.615845 103.54961
35.990501 66.486092 104.68929
36.945484 68.454697 105.83762
37.497772 64.78447 103.62611
38.036583 66.686264 104.76131
38.144829 68.498085 105.89587
39.681831 69.663979 106.49477
39.806122 67.309906 105.10617
40.202122 64.523735 103.45412
41.46648 66.122673 104.31703
41.706997 68.389038 105.74148
43.095726 64.86039 103.54269
43.356812 67.168594 104.95686
44.32901 69.147148 106.1087
45.017487 65.979187 104.16712
45.973656 67.907639 105.32597
46.673813 64.781792 103.37961
47.608116 66.64695 104.54793
47.912441 69.050461 105.95232
48.737537 64.989975 103.44928
49.566837 67.832726 105.16448
50.669315 66.105225 104.07615
50.801178 69.31501 106.05952
-50.827961 70.253906 102.43645
-51.643669 75.359978 105.3879
-51.27079 84.453438 110.60861
-50.888966 79.055664 107.63432
-50.666306 81.945732 109.28812
-50.270382 72.9739 104.11189
-50.25058 76.696556 106.30112
-49.58337 85.352097 111.2725
-49.541107 74.730995 105.26584
-49.487526 80.411858 108.55193
-49.261646 83.308563 110.21047
-49.101715 71.452225 103.38622
-48.866493 77.992256 107.22519
-48.146442 76.061081 106.18013
-48.066319 81.826759 109.46261
-47.975731 73.277725 104.54579
-47.547966 84.290497 110.85884
-47.46151 79.349953 108.14143
-46.88118 71.37307 103.52598
-46.75082 77.384544 107.099
-46.591511 74.564812 105.46577
-46.38435 82.695702 110.12897
-46.035706 80.768723 109.05026
-45.590046 84.66494 111.27103
-45.511806 72.605179 104.45288
-45.342194 78.742607 108.01508
-45.20787 75.839935 106.39127
-45.042843 71.258453 103.65167
-44.995438 82.149475 109.9474
-43.885441 85.590141 111.93282
-43.858284 78.666359 108.11553
-43.344398 81.076981 109.51497
-43.304325 83.031967 110.61305
-43.09734 73.421349 105.1582
-43.086018 75.255127 106.26098
-43.017738 70.244019 103.23745
-42.693012 77.111496 107.38533
-42.226292 84.525383 111.49628
-42.158535 79.580208 108.77073
-41.902554 71.993355 104.41189
-41.632362 82.024361 110.16819
-41.158497 73.753448 105.56816
-41.14069 75.601501 106.67027
-40.992985 78.024414 108.03878
-40.72744 70.507843 103.67786
-40.259872 84.902138 111.90965
-40.198803 79.953766 109.17967
-39.966702 72.315674 104.82252
-39.938412 82.898293 110.83642
-39.449154 76.481064 107.32791
-39.189861 74.174454 105.96275
-39.036728 78.386787 108.44849
-38.782238 81.296211 110.10705
-38.777771 70.876213 104.07872
-38.23378 83.795944 111.50253
-38.006458 72.70787 105.22115
-37.593048 79.814514 109.35813
-37.487606 76.85994 107.73348
-37.246769 74.499222 106.37583
-37.133034 85.337082 112.38144
-37.065483 82.232712 110.76437
-36.824821 71.244324 104.48061
-36.415604 78.301781 108.61646
-36.055462 73.059494 105.62811
-35.975952 83.729645 111.64844
-35.868286 80.774361 110.00941
-35.549854 75.37822 107.03339
-34.880108 85.241142 112.53352
-34.872871 71.599014 104.88577
-34.689098 79.264244 109.26532
-34.427284 82.171074 110.93107
-34.382599 77.254318 108.20248
-34.364243 73.916901 106.28783
-33.340702 83.643211 111.82066
-33.300529 70.187981 104.15692
-33.235878 80.695946 110.17822
-33.190159 75.806725 107.45145
-33.170567 72.489685 105.53757
-32.660366 78.194176 108.85452
-32.23436 85.174522 112.70338
