# .PCD v0.7 - Point Cloud Data file format
VERSION 0.7
FIELDS x y z
SIZE 4 4 4
TYPE F F F
COUNT 1 1 1
WIDTH 1565
HEIGHT 1
VIEWPOINT 0 0 0 1 0 0 0
POINTS 1565
DATA ascii
33.284401 -32.452087 8.4317513
33.288689 -35.736874 2.233747
33.769302 -34.76004 4.1002302
34.24976 -37.925648 -2.4914219
34.298256 -33.30669 6.905591
34.377048 -36.417557 0.64977598
34.683643 -30.348261 12.13625
34.853485 -31.793165 9.6955719
35.340916 -34.09552 5.3572431
35.423149 -37.19632 -0.90134501
35.575554 -35.387814 2.872535
35.914227 -32.542622 8.1332235
36.476032 -31.015539 10.922978
36.531075 -37.835388 -2.501477
36.623039 -36.408943 0.67107999
36.936264 -33.381367 6.6001072
37.18174 -34.649921 4.1042929
37.49184 -31.871288 9.3942051
37.720917 -37.073738 -0.92085099
37.859409 -35.542175 2.2188821
38.060612 -37.761234 -2.5130489
38.195129 -32.46389 8.1384754
38.294277 -34.918095 3.4763689
39.873642 -34.249191 4.7339439
39.929161 -30.712727 11.240612
40.017666 -37.45108 -2.235734
40.018269 -33.190552 6.5762839
40.063858 -36.494209 0.003155
40.140472 -32.060455 8.7629623
40.157959 -35.429306 2.206239
41.730431 -34.781555 3.4706891
41.76759 -31.290445 9.9947701
41.83569 -33.691502 5.6695619
41.914692 -30.225719 11.842072
41.944725 -37.093697 -1.6066571
41.972881 -32.650715 7.5204539
41.999561 -36.1175 0.62786698
43.246559 -35.24033 2.176429
43.588928 -31.910866 8.7616816
43.708336 -34.072903 4.7216525
43.709084 -30.909185 10.629916
43.844387 -33.036243 6.5747929
43.880669 -36.601082 -0.65537697
44.612648 -29.960691 12.162986
45.124409 -35.735989 0.89730901
45.212772 -34.807453 2.7855849
45.404526 -37.291992 -2.6082437
45.458447 -32.307194 7.8195214
45.568966 -31.32774 9.6960573
45.689877 -33.729786 4.9969592
46.246342 -36.364197 -0.71372402
46.459484 -30.412289 11.240169
46.943836 -32.845589 6.5513344
47.105087 -35.155724 1.8231488
47.167675 -34.284702 3.7333479
47.416 -36.889187 -2.36182
47.451591 -31.70117 8.7460079
48.224209 -35.794346 0.21426301
48.349274 -30.774017 10.286659
48.452358 -33.33699 5.2660489
48.487503 -29.733789 12.148328
48.898991 -32.451954 7.1800618
49.101223 -34.793541 2.089324
49.369957 -36.499016 -1.74152
49.814381 -31.488449 8.7080097
49.986 -33.776901 3.96191
50.238773 -35.518417 0.139806
50.321842 -30.469973 10.582384
50.467903 -32.815784 5.8511772
51.10408 -34.424465 2.353847
51.252918 -29.474537 12.105491
51.355465 -36.168968 -1.468001
51.733437 -31.918428 7.4064231
51.808178 -31.020737 9.3158979
51.962982 -33.345718 4.5762811
52.23835 -35.161278 0.40639701
52.719582 -30.071886 10.853866
53.116077 -34.166264 2.2881241
53.251438 -32.402794 6.1159458
53.35471 -35.939438 -1.528317
53.754284 -31.398804 7.9963031
53.932201 -33.306461 4.2182894
54.201244 -34.891674 0.70369399
54.618874 -30.434048 9.8974342
55.098862 -33.856865 2.5741229
55.211205 -29.235668 11.719392
55.240524 -32.080463 6.4019399
55.410004 -35.351807 -0.97286099
55.756947 -31.049168 8.2755222
55.951675 -32.92033 4.4807291
56.221848 -34.504448 0.96155298
56.667873 -30.109997 9.8191204
57.105415 -35.341114 -2.070642
57.117374 -33.600502 2.5095119
57.212845 -28.895048 12.006369
57.271881 -31.919441 6.0046248
57.769756 -30.930464 7.8943243
57.993301 -34.333244 -0.189574
58.0648 -32.586399 4.0228901
58.726307 -29.896866 9.4084368
58.92054 -33.364899 1.3379329
59.269775 -28.810823 11.271529
59.34132 -34.506321 -1.9697552
59.496151 -31.47518 5.1423039
59.943996 -32.191647 2.799031
60.050407 -30.36776 6.9956889
60.256783 -33.565994 -0.43230301
60.585209 -29.056526 9.5238733
61.279503 -27.771349 10.956189
61.285614 -31.280201 3.986475
61.505428 -32.73159 1.14828
61.618904 -29.092394 7.698339
61.743599 -34.265572 -2.0298669
61.895267 -30.056404 5.8030758
62.605419 -28.003553 9.2006683
62.649494 -33.3508 -0.48159
62.857456 -31.679955 2.6581149
63.209885 -26.79084 11.030233
63.361912 -30.683453 4.5511613
63.565083 -29.266951 7.0425782
63.767464 -34.026997 -2.093065
63.895599 -32.52739 1.1048253
64.565285 -28.153584 8.5375938
64.801109 -31.370663 3.3185389
65.028824 -33.174015 -0.51761401
65.029175 -30.026428 5.463254
65.133644 -27.021505 10.394619
65.937225 -32.136703 1.364942
65.944466 -29.096786 7.0180402
66.109993 -25.961897 11.914004
66.129875 -33.890862 -2.1169641
66.507378 -30.636076 4.2034812
66.52916 -27.809525 9.1936874
67.019287 -32.89576 -0.220779
67.389191 -29.779776 5.7823882
67.513069 -26.737267 10.70793
67.599365 -31.499195 2.2808149
67.980103 -28.605286 7.6239681
68.203293 -33.442657 -1.880317
68.691391 -32.240559 0.68762797
68.84803 -30.68148 3.876538
68.927299 -27.613724 9.1635323
69.186386 -26.0821 11.631327
69.389282 -29.614046 5.7527838
69.979752 -31.342394 2.2551341
70.183189 -33.197475 -1.5727659
70.306572 -28.688343 7.3127189
70.607727 -26.947811 10.081933
70.677391 -32.230774 0.33375201
70.883934 -30.322382 4.1518168
71.521889 -26.030344 11.651119
71.766785 -29.348207 6.066781
71.982674 -31.178949 2.2227581
71.98571 -28.028965 8.2311935
72.297585 -32.680496 -1.3581088
72.887253 -30.28504 3.7916062
72.94606 -27.017538 9.7683458
73.142769 -31.787169 0.58065301
73.498543 -28.583738 6.9494128
73.548126 -25.703693 11.947309
74.294716 -32.414604 -1.0562299
74.39946 -30.965788 2.178091
74.431297 -27.633551 8.5062828
74.549042 -29.546684 5.0528321
74.991447 -26.532587 10.3826
75.519363 -28.397543 6.914525
75.625465 -31.442881 0.489382
76.107529 -30.259535 3.076436
76.399849 -32.30386 -1.8206708
76.478935 -27.395748 8.4561443
76.606339 -29.288078 4.9917498
76.722992 -25.77998 11.277565
77.535904 -28.350607 6.553216
77.647598 -31.384918 0.117897
78.093567 -30.523451 2.0698979
78.137878 -26.797461 9.3996859
78.611847 -29.390854 4.3054881
78.72287 -25.526253 11.598052
78.959961 -31.694721 -1.6322629
79.210716 -27.722666 7.4851952
79.718994 -26.98147 8.7377834
79.772057 -31.125307 -0.32306099
79.795776 -30.335665 1.651171
79.829681 -29.525303 3.61889
80.643578 -26.059437 10.311573
80.741661 -28.629782 5.1959648
81.383324 -31.623133 -2.0070119
81.620773 -27.802658 6.7981658
81.733589 -26.830791 8.7168198
81.828766 -30.518356 0.61382997
81.88192 -29.668598 2.5701859
82.669067 -25.890327 10.286216
82.756645 -28.852526 4.174922
83.133949 -30.855284 -1.130496
83.616554 -24.926582 11.850796
83.666748 -27.965853 5.7583022
83.759514 -27.035419 7.6922641
83.978149 -29.979429 0.82720101
84.439011 -29.091993 2.7784979
84.696999 -26.094748 9.2624731
85.304703 -30.279264 -0.93174601
85.617592 -25.189566 10.846888
85.739952 -28.08239 4.7008362
85.79377 -27.230976 6.6628699
86.108856 -29.363194 1.390291
86.69854 -26.359793 8.256772
86.957291 -24.351702 12.088308
87.420723 -28.459339 2.9739511
87.462402 -29.863325 -1.052844
87.614761 -25.46719 9.8460665
87.865402 -27.48316 5.275764
88.287956 -29.030777 0.92532003
88.760681 -26.510941 7.2117391
88.952347 -24.514463 11.424612
89.512642 -27.934326 3.572268
89.572243 -29.428091 -0.80458897
89.672409 -25.630955 8.8061771
89.994492 -27.009159 5.5191159
90.433281 -28.279181 1.820768
90.888855 -26.166121 7.1255674
91.005516 -24.568361 10.724318
91.351982 -28.630583 0.069323003
91.687576 -27.252119 4.1196871
91.874901 -25.141663 8.6748466
91.932007 -29.002714 -2.0580599
92.620956 -26.334337 5.7020659
92.630951 -27.556921 2.3528292
93.49437 -25.53702 7.3267641
93.548874 -24.559616 9.6332684
93.568031 -28.125271 -0.080201998
93.93959 -26.675507 3.952301
94.826714 -27.345161 1.552606
94.984695 -28.15361 -1.56537
95.19622 -25.650646 6.2593231
95.208946 -24.879457 8.2599049
96.126114 -26.362911 3.4967289
96.149475 -23.953596 9.8471003
96.317261 -27.231857 0.020192999
96.978073 -24.866451 7.1506858
96.998039 -25.573709 5.1266699
97.290886 -27.489819 -1.771033
97.560036 -26.364231 2.004415
97.906761 -23.966745 8.7475939
98.538979 -26.614359 0.211008
98.761795 -24.831747 6.0320482
98.799271 -25.505764 3.9945879
99.590019 -26.726982 -1.632005
99.652176 -24.010111 7.655911
99.779747 -25.755074 2.201298
100.57896 -24.739336 4.8919458
100.82448 -25.882593 0.36419201
101.46754 -23.924107 6.5193892
101.48643 -26.238722 -2.1602409
101.55448 -25.002422 3.1021149
102.60075 -25.131493 1.2645251
102.90887 -23.928673 5.0271029
103.20505 -25.477678 -0.88616598
103.86172 -24.366219 2.9146049
104.52553 -24.599403 0.72549498
105.645 -24.597042 -1.162902
108.10042 -23.951393 -2.120589
31.708029 -25.405054 19.964502
32.05843 -27.918053 16.041443
32.88855 -29.690617 13.351555
32.963093 -26.94178 17.564665
33.038223 -24.307173 21.462751
33.787476 -28.72966 14.876126
33.870373 -25.960739 19.089264
34.694775 -27.750799 16.397856
34.807766 -24.911745 20.595486
35.601616 -29.347052 13.64754
35.664421 -26.629795 17.877407
36.122551 -23.859457 22.111338
36.495655 -28.403109 15.180218
36.56197 -25.67767 19.413645
37.392418 -29.900803 12.7621
37.412514 -27.40852 16.699419
37.861111 -24.666273 20.941309
38.079388 -25.639128 19.429628
38.08205 -27.959524 15.793545
38.272377 -26.790956 17.611174
38.275658 -29.107462 13.978116
40.051575 -27.504204 16.410982
40.099045 -29.594357 13.070024
40.224983 -26.37599 18.24386
40.824154 -25.133087 20.050478
40.992138 -28.662218 14.608858
42.021809 -27.055012 17.031799
42.159962 -24.051182 21.560474
42.598679 -25.867031 18.855331
42.814686 -29.281422 13.376861
42.957989 -28.225182 15.231428
43.925266 -24.933798 20.045441
44.291531 -27.154823 16.737877
44.778339 -28.855671 14.002027
44.853268 -26.00518 18.575056
45.901352 -24.488171 20.673662
46.09227 -27.835241 15.523817
46.612602 -29.337717 13.08964
46.654011 -26.68869 17.361847
46.860291 -25.492191 19.180264
47.930527 -28.313633 14.610178
48.209518 -24.398621 20.689518
48.497131 -27.159353 16.446093
48.723988 -25.919687 18.251257
49.806389 -28.713301 13.670024
50.036625 -24.913095 19.787752
50.350548 -27.61237 15.523616
50.536655 -26.465347 17.35861
51.719852 -24.175659 20.685776
51.791733 -28.265196 14.290801
51.86158 -25.559265 18.559778
52.408367 -27.007214 16.096811
53.254826 -28.995316 12.714661
53.565044 -24.783262 19.444689
53.756145 -25.934332 17.611767
53.858868 -27.767857 14.529759
54.795647 -26.767418 16.059851
55.271648 -24.006865 20.331902
55.462727 -25.158348 18.496262
55.731842 -28.19408 13.595354
56.471107 -26.062815 16.965206
56.65741 -27.221949 15.134809
57.148705 -24.433151 19.399197
58.156052 -25.342922 17.867939
58.195175 -27.680731 13.835335
58.392178 -26.394455 16.000475
59.869106 -24.568781 18.755884
59.916054 -26.88903 14.711446
60.119915 -25.589113 16.875763
60.221199 -27.790497 12.79616
61.941631 -26.432943 12.744692
62.059113 -25.442316 14.642306
62.111515 -24.468374 16.916
63.648521 -24.250782 15.019887
63.849709 -25.50318 12.839143
65.592186 -24.68989 13.713078
67.782097 -25.304861 12.83802
68.76194 -24.243176 14.362674
70.169403 -25.017101 13.153918
72.159004 -24.763052 13.475245
73.841248 -24.104729 14.403771
75.294426 -24.915878 12.832533
77.292458 -24.661858 13.154387
79.82383 -23.868349 14.054873
81.634453 -24.755968 12.510011
82.974335 -23.906908 13.747133
84.948158 -24.099981 13.095589
110.53631 -23.054337 -18.531389
108.97195 -23.673143 -4.1158791
109.20806 -23.553682 -16.815166
109.67802 -23.714632 -6.0054774
110.37913 -22.982376 -15.088063
110.7285 -22.99102 -3.1883841
110.89477 -23.414711 -9.9315977
110.99567 -23.229103 -7.6951771
111.48641 -23.170664 -12.703312
111.53817 -22.838905 -5.145431
111.80251 -22.305262 -16.865742
112.23139 -22.259039 -14.565023
112.67493 -22.572239 -8.6788473
112.81098 -21.946724 -3.145781
113.07476 -22.570375 -10.981824
113.24625 -22.127607 -6.1435809
113.68594 -21.276693 -15.680331
113.75597 -21.783901 -12.796866
114.46929 -21.459789 -4.446682
114.60654 -20.801786 -17.392509
114.62602 -21.538429 -7.8729792
114.96109 -21.661814 -10.134265
115.32534 -20.462713 -13.643117
115.69419 -20.790253 -2.7484269
115.77747 -21.009424 -6.1258922
115.92331 -19.965895 -15.750367
116.15579 -20.544491 -11.677146
116.34649 -20.819288 -8.8799229
117.05106 -20.125072 -4.1156325
117.27139 -19.580982 -13.170363
117.53327 -20.100849 -6.811059
117.6869 -19.051992 -16.454872
117.82311 -20.061884 -10.676801
118.39337 -19.366255 -2.8267169
118.74371 -18.457739 -13.947257
118.77984 -19.398266 -5.1190534
119.2558 -19.263245 -7.4730458
120.14285 -18.478903 -3.498632
120.65629 -18.276033 -5.87571
120.7484 -18.233171 -8.5923681
121.04704 -16.669409 -15.345819
121.18864 -17.906319 -3.299803
122.61085 -17.139818 -4.7064471
122.68116 -17.140081 -7.4104519
123.10417 -15.979229 -11.302036
123.35919 -16.38287 -9.2180672
123.95167 -16.398277 -3.403636
124.03049 -16.384436 -6.1131139
124.23957 -15.001048 -12.804485
124.79685 -15.472799 -10.300741
125.40561 -15.584045 -4.8287201
125.53953 -15.215044 -6.8920112
125.9909 -14.143999 -13.483491
126.71384 -14.299142 -8.7526159
127.24493 -14.05213 -4.1760788
92.379166 -23.676147 11.952188
94.494637 -23.619616 11.215575
97.904945 -22.974663 11.432513
99.656219 -23.254848 9.6679201
99.716187 -22.140865 12.31663
101.3856 -23.335966 8.58848
101.41212 -22.411469 10.924486
103.16596 -23.324234 7.4765649
103.21903 -22.472399 9.4616566
104.56572 -21.540684 11.0638
104.66582 -23.220205 5.94837
105.04446 -22.255182 8.6601191
105.6135 -23.546942 4.175993
106.31257 -23.715445 1.964048
106.41222 -21.412443 9.9149265
106.47952 -22.40782 6.8377872
107.3247 -20.43462 11.877948
107.41098 -23.758347 0.090452
107.49197 -22.739296 4.6866212
107.81464 -21.506842 8.4517775
108.37099 -21.952856 6.3322568
108.57755 -22.808933 2.824091
108.71851 -20.67317 10.084332
109.22822 -23.077555 0.63998002
109.59293 -19.896618 11.737514
109.84925 -21.909929 4.8181639
109.95934 -23.069193 -1.260591
110.06503 -21.007185 8.3186579
110.51793 -22.146185 2.6234031
110.98557 -20.019119 10.282557
111.13488 -21.112486 6.4691958
111.23064 -22.175629 0.73624003
111.78367 -21.388874 4.2875252
111.93728 -22.21859 -1.149502
111.99445 -20.242651 8.4725332
112.40546 -19.091967 11.518
112.4883 -21.435303 2.406585
113.067 -20.348446 6.6209922
113.42111 -19.305788 9.7040539
113.6365 -21.401955 0.50053
113.75681 -20.676451 4.073091
114.04701 -21.252781 -1.458174
114.48633 -19.429583 7.857903
114.48789 -20.67745 2.1742239
114.78287 -18.49621 10.97963
115.11919 -19.867962 5.344995
115.76548 -20.28047 0.524997
115.86754 -18.586048 9.1222143
116.2848 -19.808371 3.4311609
116.52652 -18.851927 6.9322238
116.75539 -17.417227 11.798448
117.04802 -19.879869 -1.129582
117.22569 -18.918539 5.0546932
117.67182 -19.210733 1.7154649
117.80388 -17.580582 9.9631367
118.48373 -17.811249 7.7593498
118.91325 -18.388905 3.7513132
118.91513 -18.889868 0.087815002
119.106 -16.642492 11.964069
119.61598 -17.824329 5.868279
119.821 -16.683323 10.080084
120.14844 -18.085613 2.1316669
120.45116 -17.011038 7.9047971
120.67077 -18.117201 -0.92381603
120.87215 -17.483027 4.238853
121.17547 -15.525146 12.395477
121.21173 -17.478273 2.32321
121.23105 -16.934933 5.9762478
121.23887 -16.162313 10.312996
122.45512 -16.65905 4.366848
122.56405 -16.96508 0.62873602
122.85592 -14.894058 11.451715
123.02438 -15.336435 9.3027544
123.03701 -16.715248 -1.3763959
123.28642 -15.731057 6.7540741
123.74871 -16.258926 2.712467
124.37124 -15.985448 -0.067943998
124.50956 -15.589953 4.8044448
124.59518 -14.287515 10.131217
124.82917 -14.609921 7.9392705
125.44704 -15.372781 -2.1943388
125.56522 -15.13887 2.357681
125.91811 -13.452042 11.795929
126.04909 -14.873946 0.34573001
126.05828 -14.462404 5.987082
126.51765 -14.242745 3.9948943
126.65114 -13.601087 9.5540953
127.44075 -13.917474 1.9693519
127.4556 -13.493473 7.60883
127.6087 -13.869267 -1.136819
127.6603 -12.599995 11.161812
127.90733 -13.416826 5.2792578
128.41479 -12.586963 9.2474289
128.87173 -12.8918 3.5735123
128.91693 -12.945028 0.88641697
129.41122 -12.128937 7.1853418
129.94405 -11.379025 10.799154
130.53793 -11.561709 4.6964321
130.87323 -11.049037 8.7788324
131.41075 -10.41715 12.049585
131.73944 -10.862707 2.1559989
131.93141 -10.612384 6.333395
132.45169 -9.8853683 9.9647017
132.56389 -10.211718 3.8864858
133.41994 -9.4911489 7.9182453
134.2343 -8.7325706 10.00199
31.26771 -21.605799 25.312971
32.092937 -23.281662 22.941675
32.231472 -20.487474 26.807066
33.061241 -22.155212 24.42952
33.998043 -21.105207 25.944139
34.323376 -23.318214 22.998653
35.304935 -22.167324 24.480389
35.981918 -20.608616 26.562054
37.105129 -22.710873 23.593472
37.710995 -21.444267 25.39975
38.097961 -23.509476 22.404869
39.012802 -22.522253 23.938791
39.75518 -20.700075 26.307436
40.362133 -23.490831 22.444347
40.688377 -21.764042 24.832014
42.032127 -20.663425 26.345449
42.381889 -22.811234 23.367725
43.373581 -21.65844 24.855453
43.679943 -19.980148 27.266918
44.150997 -23.565918 22.177853
45.024521 -20.972139 25.774212
45.122368 -22.464277 23.68041
46.678646 -20.161804 27.02327
46.790245 -21.744946 24.588024
46.791904 -23.572603 22.232748
48.444996 -21.061014 25.508684
48.519493 -22.724558 23.098774
49.865452 -23.715822 21.605049
50.12561 -20.325768 26.415934
50.168907 -22.058155 24.023287
51.54734 -22.98085 22.506708
51.812462 -19.582256 27.323023
51.876179 -21.268534 24.912209
53.227871 -22.255272 23.413513
53.391499 -23.469395 21.595835
53.56794 -20.520039 25.816113
54.931259 -21.485083 24.308977
55.162659 -22.550753 22.442379
55.337536 -19.605995 26.672274
56.627472 -20.737488 25.213736
56.830887 -21.865078 23.363522
57.007961 -23.171589 21.203316
58.033237 -19.672672 26.383698
58.553913 -21.064968 24.251873
58.695793 -22.325821 22.441847
58.886612 -23.601557 20.271118
59.941338 -20.047207 25.435978
60.476307 -21.408005 23.293291
60.573769 -18.764273 27.262129
60.60305 -22.82328 21.162273
61.681118 -23.587397 19.581249
61.861935 -20.400324 24.480303
62.365799 -21.951107 22.026802
62.484489 -19.142889 26.314781
63.284992 -23.0994 17.973684
64.04335 -17.767365 27.397812
64.653481 -21.438755 18.574236
64.69574 -23.034925 16.49568
64.905296 -20.157913 20.392948
65.175812 -18.712002 22.533848
65.893044 -17.37933 23.982075
66.487808 -22.119326 17.344063
66.519333 -16.118885 25.82609
66.565086 -23.637751 15.240849
66.66758 -19.307816 21.269405
66.764992 -20.786936 19.146496
66.868774 -14.748491 27.262171
67.356972 -18.038553 22.736273
68.038452 -16.663202 24.544758
68.287834 -22.876644 16.137077
68.432587 -20.145046 20.086697
68.504601 -21.675688 17.980394
68.749435 -15.349057 26.005737
69.080429 -18.96911 21.581348
69.397026 -17.552982 23.368027
70.174881 -21.032768 18.919151
70.25853 -22.535625 16.804804
70.3806 -16.484642 24.910686
70.784355 -23.793018 14.99338
70.821411 -19.863194 20.414862
71.08448 -15.190932 26.379932
71.096199 -18.539694 22.229046
71.76075 -17.332035 23.719702
72.000107 -21.747295 17.696611
72.481789 -23.098764 15.912185
72.639366 -20.473711 19.530226
72.800041 -16.15115 25.230335
72.959923 -19.056629 21.315393
73.929466 -18.026205 22.868412
73.970177 -21.54438 18.039635
74.148598 -15.261828 26.47032
74.505783 -22.906767 15.885306
74.572762 -16.86898 24.377607
74.609291 -20.274424 19.876492
75.278809 -18.940561 21.697388
75.831871 -22.06778 17.126221
75.880692 -23.759941 14.698108
75.931877 -17.766018 23.199928
75.970497 -15.880952 25.587021
76.493225 -20.755264 18.949806
76.978615 -14.775129 27.126873
77.15519 -19.441557 20.777113
77.223427 -22.890356 15.928056
77.279877 -16.885647 24.440699
77.894424 -21.560753 17.745199
78.146309 -18.375137 22.320946
78.324715 -15.706752 25.956831
78.497833 -20.371655 19.610374
78.630676 -23.804852 14.386977
79.18161 -17.218895 23.840582
79.253838 -22.577763 16.235191
79.517448 -19.249416 21.135492
79.623642 -20.824289 18.658503
79.652641 -15.123529 26.549757
80.581673 -19.831856 20.223606
80.953804 -21.904785 17.166754
80.99353 -17.866066 22.964031
81.00856 -16.037672 25.373323
81.517662 -23.209959 14.98819
81.980293 -20.774961 18.687128
81.985283 -18.849176 21.430323
82.409019 -16.860306 24.168951
82.425255 -15.029321 26.582182
82.882675 -22.309187 16.212425
83.352638 -19.860367 19.913319
83.3769 -17.895 22.649046
83.807213 -15.893884 25.389124
83.867882 -21.268023 17.760895
84.185013 -14.247144 27.49869
84.343529 -23.001915 14.968983
84.754768 -18.888922 21.124855
84.765762 -16.951042 23.873936
85.256302 -20.325922 18.978245
85.316299 -21.98951 16.525831
85.546227 -15.158806 26.318371
86.131248 -17.973587 22.356768
86.289497 -23.256401 14.3376
86.504936 -16.217535 24.801577
86.617912 -19.442411 20.216753
86.718246 -21.024004 17.734709
86.964752 -14.159799 27.534613
87.302094 -22.167444 15.870825
87.910583 -17.162893 23.258879
87.915565 -15.238017 26.02149
88.031181 -18.45739 21.426785
88.096176 -20.111271 18.963112
88.300102 -23.510544 13.331402
88.68866 -21.238964 17.091688
89.258301 -22.535479 14.901464
89.281105 -16.26807 24.502819
89.475204 -19.199835 20.194935
89.678246 -14.46793 26.94323
89.76548 -17.743973 22.358238
90.052155 -20.360498 18.331318
90.327751 -23.365129 13.317347
90.639572 -21.62319 16.127419
91.059517 -15.470552 25.414331
91.178665 -16.768063 23.577017
91.227753 -18.453835 21.115046
91.756943 -22.360109 14.512027
91.821785 -19.581812 19.238556
92.023148 -20.709566 17.355961
92.664444 -17.435122 22.319551
92.81562 -14.723864 26.343739
92.973625 -15.943277 24.47958
93.092506 -21.545416 15.770496
93.210884 -18.660089 20.470297
93.766777 -19.989285 18.2812
93.767662 -22.758432 13.174757
94.437057 -16.659874 23.235956
94.767464 -15.12709 25.38743
94.925652 -20.650675 16.638895
94.972878 -17.907621 21.390963
95.114151 -21.927101 14.427838
95.170509 -19.044277 19.505491
95.405319 -14.015446 26.930794
95.864403 -22.744961 12.452909
96.20726 -15.895588 24.158293
96.300949 -19.765524 17.880608
96.770172 -17.090622 22.294241
96.880753 -14.715814 25.680222
96.912071 -21.109579 15.319855
96.999466 -18.165125 20.386431
97.604301 -22.044672 13.380117
97.933472 -13.567272 27.223782
98.110321 -18.929205 18.772999
98.230629 -16.041162 23.495382
98.252182 -20.298996 16.5849
98.76828 -17.411669 21.309059
98.903267 -14.742021 25.356831
98.980019 -21.165571 14.621415
99.863235 -18.210587 19.704733
100.05547 -19.481594 17.48226
100.17467 -16.474997 22.544788
100.3248 -13.775373 26.590326
100.76508 -20.386606 15.528578
100.81171 -15.374058 24.091812
101.09252 -21.266796 13.560008
101.28721 -17.24251 20.929169
101.86555 -18.657084 18.380053
102.26021 -14.359833 25.310162
102.28897 -16.204775 22.502674
102.57883 -19.682354 16.085703
102.84148 -21.313894 12.472536
103.28527 -17.70298 19.608374
103.30299 -13.243051 26.867504
103.69737 -15.273653 23.744776
103.743 -20.476212 14.100685
103.95559 -18.689718 17.675541
104.26507 -16.712698 21.196667
104.39692 -14.055572 25.26136
104.72089 -19.4916 15.684542
105.32259 -17.843599 18.938351
105.40947 -13.002357 26.839851
105.46979 -20.700644 12.691988
105.70939 -15.716967 22.418482
106.12334 -18.579462 16.924788
106.37186 -14.575295 23.958345
106.39167 -16.683998 20.475189
106.43612 -19.741859 14.284548
107.01626 -13.468621 25.511934
107.47263 -17.773487 18.201174
107.6536 -12.376285 27.0728
107.78106 -15.800916 21.732492
107.83431 -18.717669 15.866436
108.42152 -14.7053 23.287483
108.54713 -16.608109 19.737568
108.68907 -19.478292 13.479874
109.05433 -13.624713 24.84996
109.23949 -17.808533 17.110748
109.73419 -12.327943 26.726856
109.99046 -15.626677 20.965513
110.06912 -18.495298 15.076588
110.27711 -16.718664 18.671442
110.65795 -14.482208 22.507284
110.95097 -19.083477 13.009554
111.25751 -13.343684 24.431114
111.48418 -17.573435 16.318184
111.89965 -12.122958 26.333309
112.08754 -15.928561 19.58914
112.43031 -17.916601 14.5502
112.72499 -14.719769 21.489275
112.93288 -16.590857 17.543758
113.37399 -13.489279 23.386204
113.77631 -18.261572 12.787363
113.99101 -15.218102 19.778051
113.99622 -12.310077 25.302305
114.27185 -17.201221 15.108997
114.99191 -14.207207 21.372417
115.05865 -11.180141 26.867901
115.2497 -16.235718 16.712877
115.57984 -13.095716 23.30871
115.66512 -17.336618 13.657105
115.72448 -15.340777 18.712543
116.21948 -12.011768 24.87829
116.69026 -16.284071 15.23395
116.76093 -14.265331 20.287706
117.16401 -15.392064 17.23608
117.26864 -10.911994 26.454943
117.35189 -13.150793 22.224468
117.61938 -16.671833 13.473281
118.15849 -14.399901 18.837603
118.35276 -12.145307 23.827467
118.56458 -15.5223 15.781818
118.7403 -13.303797 20.781061
119.0536 -10.948858 25.36694
119.56332 -14.524692 17.38205
119.56812 -15.773889 13.976044
120.17188 -12.372915 22.036535
120.52808 -13.592673 19.005707
120.5386 -9.9171495 26.598755
120.57372 -14.765657 15.572849
120.81151 -11.295339 23.612427
121.3448 -10.670406 24.569395
121.51717 -14.127618 16.52807
122.12096 -12.111956 20.85112
122.73911 -13.977365 14.592201
122.99892 -13.111628 17.754982
123.09568 -11.038707 22.818432
123.26482 -9.9643917 24.770954
123.44302 -8.87216 26.720102
124.00886 -11.469542 21.066948
124.17039 -14.069925 13.117719
124.48901 -12.083572 18.981586
124.56157 -12.957664 16.206543
125.14336 -10.100654 22.947332
125.25411 -9.1356192 24.936586
125.64516 -13.075426 14.351077
126.12298 -10.412297 21.156569
126.1284 -11.665499 17.73243
127.11987 -9.1776724 23.463043
127.20133 -11.807387 15.883766
127.21207 -10.522902 19.301317
127.34249 -12.430671 13.404576
128.11891 -9.4582825 21.660564
128.23647 -10.757669 17.481407
128.9575 -11.058868 14.906691
129.12254 -11.512902 12.752432
129.19572 -9.7234344 19.469038
129.91058 -10.16414 16.555277
130.28755 -8.4451332 21.38517
130.71281 -10.192938 14.273618
130.87404 -9.1254492 18.544302
131.66066 -9.3111792 15.929132
132.63422 -8.3834276 17.572798
132.86873 -9.0942354 14.341676
30.604004 -9.9246101 39.976654
31.035133 -15.058625 33.862389
31.479523 -11.140937 38.536037
31.499109 -12.850186 36.491982
31.972021 -8.8577433 41.161114
32.135735 -17.108854 31.231375
32.370274 -14.070524 35.056786
32.535675 -18.914427 28.878382
32.777073 -15.744135 33.019398
32.808964 -10.169062 39.744804
33.139961 -12.153686 37.421963
33.886478 -17.771189 30.381546
34.025185 -13.342628 35.975521
34.108612 -14.769716 34.217037
34.197361 -9.061594 40.9184
34.244831 -19.793087 27.730015
34.502987 -11.10695 38.607868
34.553646 -16.350042 32.152489
35.388256 -12.298842 37.15974
35.564137 -18.851702 28.928265
35.784771 -13.997547 35.122147
35.89246 -10.002856 39.780899
35.903633 -15.338605 33.338657
36.213249 -17.477848 30.711489
36.749744 -11.263923 38.349792
37.162956 -12.924217 36.297043
37.235653 -9.0132942 40.989723
37.325844 -19.492172 28.070868
37.537563 -16.531431 31.914845
37.559971 -14.618793 34.258373
37.963985 -18.148836 29.862717
38.061905 -13.958487 35.168629
38.075813 -12.184564 37.196754
38.101864 -15.60338 33.108109
38.123211 -10.205216 39.53643
39.014523 -18.577099 29.288002
39.729019 -11.482343 38.1292
39.760494 -13.148972 36.066368
39.779808 -14.841202 34.015785
39.784214 -16.686775 31.650938
39.80019 -9.4496527 40.458012
40.706135 -19.633087 27.824852
40.729038 -17.731506 30.164404
41.460995 -10.603663 39.013676
41.463131 -12.337738 36.966114
41.477264 -14.040206 34.914562
41.485821 -15.75237 32.87096
41.523617 -8.5925179 41.353378
42.376087 -18.895481 28.731722
42.415039 -16.835875 31.393658
42.771919 -9.7062902 40.250053
43.163422 -11.538289 37.871723
43.187386 -14.947657 33.76725
43.188465 -13.214508 35.808735
43.706619 -17.953634 29.936302
44.099533 -16.072933 32.300014
44.532993 -10.510281 39.069775
44.853596 -12.50141 36.737938
44.862595 -9.0121937 40.837383
44.914429 -14.091774 34.651115
45.029957 -18.997816 28.457342
45.38583 -17.206429 30.845304
45.788025 -15.307455 33.208035
46.236706 -11.448394 37.927269
46.553288 -9.9841595 39.703239
46.574738 -13.394723 35.58374
46.685234 -18.308914 29.381905
47.076065 -16.440458 31.751074
47.490753 -14.516398 34.110985
47.9548 -12.354455 36.775356
48.266895 -10.90487 38.554409
48.294796 -9.1114836 40.595673
48.397305 -17.497713 30.272234
48.419666 -19.284431 27.889177
48.792484 -15.622522 32.644024
48.873528 -13.472267 35.299103
49.956413 -12.004122 37.090576
49.977943 -8.3780041 41.529861
49.980186 -10.101932 39.465057
50.063236 -16.797403 31.197863
50.106331 -18.536562 28.796728
50.128784 -14.687445 33.86182
50.832745 -13.219846 35.640831
51.466686 -15.715357 32.370308
51.654068 -11.241914 38.010975
51.74781 -9.1828175 40.345409
51.802532 -17.773167 29.701941
52.164684 -14.265454 34.152477
52.579643 -12.349299 36.527649
53.175682 -16.764921 30.894361
53.408798 -10.35754 38.898998
53.450787 -15.413043 32.694256
53.5261 -18.785999 28.216558
53.879711 -13.470766 35.059139
54.097759 -9.051671 40.372211
54.307453 -11.528237 37.431438
54.927807 -17.719755 29.389942
55.181919 -16.418325 31.203661
55.219734 -14.502354 33.564846
55.409657 -10.156383 38.89373
55.656082 -12.545739 35.930676
56.309944 -11.324867 37.423889
56.656132 -18.729153 27.901201
56.930763 -17.386049 29.701414
56.945614 -15.525473 32.077492
56.962048 -13.657863 34.457592
57.172394 -9.2698269 39.785049
57.715477 -12.096806 36.217808
58.068024 -10.451378 38.316338
58.344894 -16.30378 30.875383
58.660702 -14.746444 32.987484
58.689316 -18.334017 28.192604
58.993389 -13.274167 34.761738
59.211979 -8.8747673 40.093597
59.450947 -11.277884 37.124424
60.062893 -17.346819 29.393219
60.103966 -15.433321 31.757042
60.133602 -10.000767 38.607136
60.791077 -14.151548 33.227974
60.79554 -12.313174 35.624985
61.226883 -8.66611 40.087982
61.456589 -11.086926 37.120415
61.505028 -16.214254 30.553791
61.958809 -17.757999 28.456709
62.169262 -9.7485523 38.587418
62.184967 -14.951517 32.029194
62.196838 -13.100982 34.421482
62.902905 -11.780082 35.888496
63.468864 -16.485212 29.575027
63.595654 -10.48928 37.368065
63.633965 -13.811535 33.195072
63.972279 -8.8000898 39.464279
64.116043 -15.297926 31.073183
64.336578 -12.502547 34.664417
65.026817 -11.220676 36.145527
65.385803 -9.5741472 38.252861
66.52227 -8.2855091 39.382164
67.06012 -13.593554 29.136023
67.903923 -11.864471 30.852392
68.174118 -10.537618 32.682968
68.419571 -9.2636185 34.532284
68.901833 -12.831613 29.315611
69.752571 -14.237125 27.540136
69.917488 -11.692506 30.848408
70.022987 -9.6425276 33.201019
71.124138 -13.290925 28.765903
71.338425 -10.64147 32.049644
71.823334 -8.7347994 34.088272
72.127243 -12.183903 30.308466
72.431038 -14.301327 27.621105
73.070076 -9.8843555 32.979008
73.495277 -13.068106 29.124592
73.899811 -11.34148 31.209673
74.154175 -8.60884 34.482513
74.792458 -14.101963 27.985426
75.162903 -12.4514 30.090963
75.286949 -10.374378 32.438499
76.161621 -8.351532 34.829464
76.515167 -13.372475 28.916754
76.597618 -11.387645 31.289495
77.008545 -9.6513939 33.380074
77.960854 -12.290065 30.108078
78.347603 -10.608758 32.213112
78.448524 -8.5823259 34.585239
78.711357 -14.031225 28.05332
79.625618 -11.816936 30.748634
79.65049 -8.3907623 34.931679
79.651421 -13.321629 28.974228
79.653984 -9.9476051 33.163643
81.051353 -10.786149 31.960793
81.051918 -14.14702 27.769737
81.393219 -12.568727 29.902411
81.481445 -9.0182199 34.048191
82.770927 -13.444846 28.71166
82.791245 -10.04289 32.897999
82.865524 -11.446167 31.086653
84.219406 -12.376508 29.910255
84.540466 -9.2866602 33.833763
84.599892 -10.719917 32.028065
85.561348 -13.330867 28.741217
85.988136 -11.583003 30.8304
86.312706 -10.04358 32.986382
86.314957 -8.4837275 34.75853
87.375107 -12.449655 29.633615
87.734108 -10.842735 31.768642
88.123405 -9.2972136 33.553768
88.753548 -13.333978 28.441956
89.129822 -11.695388 30.566269
89.796379 -10.513864 32.093304
90.171394 -9.0003252 33.890316
90.531509 -12.536557 29.360319
91.201622 -11.350584 30.884966
91.456665 -13.672244 27.859861
91.907333 -10.093111 32.391991
92.567123 -12.39362 29.364054
93.258026 -11.169433 30.87908
93.366776 -9.0301189 33.605591
93.50473 -13.505694 27.854919
94.576546 -12.309898 29.385448
94.685905 -10.173932 32.110283
95.40799 -8.8895378 33.61467
96.015831 -11.295572 30.60898
96.507729 -12.763515 28.444447
96.722008 -10.046755 32.121761
97.908096 -11.832358 29.692297
98.149284 -9.0625038 33.360802
98.603157 -10.609786 31.212662
99.368759 -12.570334 28.450785
100.0599 -11.358654 29.973415
100.1246 -9.4436388 32.398022
101.40923 -12.571847 28.12208
101.52946 -10.300075 31.188919
102.54963 -11.259371 29.625525
102.66447 -8.9978552 32.701977
103.60823 -10.110811 31.181503
103.99442 -12.038673 28.393106
104.74809 -8.8043041 32.695122
105.11177 -10.778059 29.91489
106.13303 -11.738959 28.349697
106.20205 -9.5730515 31.457197
107.20592 -10.570433 29.900852
107.35725 -8.2430496 32.967049
108.33624 -9.2923536 31.423576
108.74991 -11.166456 28.610775
109.84305 -9.9648342 30.155184
110.84441 -11.096059 28.259661
111.00266 -8.6359367 31.666248
111.96393 -9.848094 29.7918
112.94387 -11.023606 27.907372
113.13706 -8.4989977 31.298433
114.07173 -9.7646275 29.43767
115.22382 -8.4616928 30.959206
116.18407 -9.9317751 28.401953
117.32283 -8.6598587 29.933187
118.39749 -9.6622992 27.990501
119.54001 -8.3887453 29.523125
121.23712 -8.600915 28.488342
139.42609 -4.830605 -3.6885469
135.86917 -7.2207999 11.855947
126.33626 -7.9920936 26.51231
127.88071 -6.9964972 27.384399
128.23869 -7.9704428 25.02025
129.26611 -8.2005873 23.201918
129.81654 -6.9192381 25.875284
130.46066 -5.843462 27.46977
131.30162 -7.3120451 23.349768
131.90393 -6.1894598 25.311998
131.96201 -7.9843011 20.122488
132.51414 -5.1791272 26.928713
133.00493 -6.6743188 22.418436
133.59697 -5.5720358 24.389694
133.6722 -7.3380919 19.182966
133.97037 -7.932919 15.91361
134.39526 -8.0418167 13.256467
134.67401 -6.2340388 21.16173
134.72588 -4.2323871 26.302515
135.05034 -6.8132801 17.502243
135.2851 -4.9712911 23.470304
135.76266 -6.892344 15.612472
136.09595 -5.6309395 19.459427
136.38971 -3.8069899 25.054918
136.46268 -4.9453559 21.562698
136.86397 -5.6100898 17.538918
136.88609 -6.2211709 13.483921
137.11392 -3.864589 23.163628
137.14999 -2.524745 26.598694
137.94072 -3.9913161 20.521191
138.33224 -2.495333 24.690392
139.14246 -2.655735 22.05685
140.03459 -1.249801 25.499504
140.32974 -1.475655 23.25877
30.280779 -7.9113674 42.296158
33.325275 -7.8309541 42.360214
35.550442 -8.0427513 42.120457
39.796982 -7.7097731 42.511124
43.205795 -7.8383918 42.28017
46.595364 -8.153224 41.735294
48.29916 -7.3681002 42.656414
51.065567 -7.1472731 42.67186
52.839771 -7.8247199 41.816864
55.858006 -8.1663074 41.266102
57.852825 -7.990582 41.270889
60.336979 -7.466629 41.556522
62.091839 -6.61797 42.466541
63.047817 -7.6751041 40.955456
64.156548 -6.3144879 42.437313
65.107819 -7.3845277 40.928028
66.209023 -6.170433 42.084106
69.106628 -6.6619492 37.115074
69.838638 -3.335593 41.359215
69.853294 -5.2642159 38.579639
70.003822 -8.1051159 34.967838
70.710594 -1.790573 42.422241
71.112762 -3.724335 39.648735
71.132744 -6.7238779 36.443821
71.880135 -5.330112 37.910385
72.215759 -2.3998382 41.153801
72.861168 -7.5539732 35.62125
73.276451 -4.338686 39.145348
73.586655 -6.2122312 37.101624
73.670166 -1.285284 42.361782
74.371841 -3.03702 40.656685
74.868629 -7.2942958 35.968781
75.010246 -5.1675744 38.320419
76.100098 -3.8828659 39.835449
76.295647 -6.2462821 37.1847
76.473587 -2.46363 41.294788
77.414337 -4.9044938 38.681564
77.622658 -7.2355218 36.023926
77.895691 -1.4314682 42.527855
78.11248 -3.6287861 40.190418
78.679726 -6.027946 37.557068
79.412407 -4.6830788 39.044479
79.561859 -2.5437961 41.406963
79.646599 -6.8323011 36.703308
80.050499 -3.662843 40.255169
81.400887 -6.0570192 37.639435
81.420441 -7.5821929 35.854771
81.444565 -1.375991 42.615562
81.742393 -4.71767 39.119324
81.847275 -2.8021877 41.174534
83.181908 -6.7970548 36.787189
83.260765 -8.195466 34.966484
83.526665 -5.4552679 38.265778
83.543266 -3.853935 40.036129
83.688652 -1.854881 42.072536
84.989883 -7.48353 35.919174
85.315239 -3.056478 40.974201
85.328583 -4.5945668 39.182484
85.689735 -6.222291 37.430767
85.707375 -1.615083 42.435608
87.017059 -7.2213869 36.268196
87.119644 -3.763505 40.110184
87.502243 -2.346076 41.577579
87.510742 -5.3292041 38.337418
88.818817 -8.052722 35.067699
88.830627 -6.348269 37.178612
89.13443 -3.664443 40.137707
89.571213 -5.0103412 38.67395
90.281113 -2.3001592 41.644215
90.645851 -7.1579351 35.970497
91.152596 -3.5651071 40.165287
91.312714 -5.9752431 37.509007
91.998108 -8.1106472 34.792782
92.451248 -4.7603612 38.679115
92.660614 -2.4005439 41.366852
92.706757 -6.8462071 36.306454
93.90229 -3.7160001 39.911823
94.064476 -7.791326 35.125259
94.169006 -5.7800579 37.527927
94.705086 -2.135025 41.723404
95.562027 -6.657763 36.325668
95.672913 -4.6334419 38.730202
96.014954 -3.3149199 40.228603
96.847649 -7.876617 34.847626
97.026947 -5.5943851 37.549892
97.138008 -2.1432149 41.419994
97.785225 -4.2379961 39.047188
97.972527 -6.7057352 36.028065
98.912918 -2.936888 40.575275
99.063583 -5.4797859 37.570824
99.266281 -1.598467 42.074371
99.297501 -7.7233758 34.864792
99.841125 -4.0893421 39.060108
100.42224 -6.4341059 36.387615
100.9961 -2.7386887 40.576054
101.19695 -5.0533462 37.87793
101.24274 -8.1705008 33.92112
101.74499 -1.407547 42.090466
102.35401 -3.7032001 39.392166
102.35677 -6.9074039 35.451324
103.08121 -5.6311111 36.971302
103.1161 -2.3495319 40.898628
103.76188 -7.7715998 34.241447
103.89089 -0.97086102 42.402218
104.21944 -4.323956 38.497135
104.50521 -6.4615288 35.750443
104.98835 -2.9611399 40.000584
105.65439 -5.1367712 37.269783
105.78484 -1.544444 41.493111
105.87789 -7.5192261 34.219402
106.41244 -3.799495 38.779118
106.58116 -6.2921448 35.754143
107.12289 -2.5565591 40.318851
107.73912 -4.9556799 37.271915
107.89767 -1.186916 41.826874
108.01234 -7.113565 34.529045
108.4957 -3.625639 38.785061
109.21134 -5.7011838 36.023643
109.23547 -2.32868 40.311405
109.47089 -8.0078011 32.948692
109.93585 -4.4373651 37.554432
110.00021 -0.98343801 41.828148
110.19953 -6.7384329 34.47224
110.67161 -3.152046 39.082863
111.36971 -5.3882518 35.986824
111.46916 -1.746466 40.581451
111.64767 -7.5320158 33.237091
112.08251 -4.1510129 37.527256
112.22807 -0.41650799 42.105259
112.78452 -2.9352241 39.077301
112.78599 -6.247921 34.769257
113.57294 -4.8706031 36.268478
113.59628 -1.5064909 40.571262
113.83178 -7.302484 32.84396
114.27409 -3.659641 37.819038
114.92852 -6.104104 34.402645
115.082 -2.242974 39.315094
115.45101 -0.77151901 41.165977
115.66308 -4.8321671 35.933613
115.91075 -7.2836471 32.511517
116.26302 0.65375799 42.668423
116.3683 -3.6169839 37.484344
116.96091 -1.4660701 39.896587
117.04774 -6.138999 33.709488
117.68007 -0.22395299 41.448769
117.75923 -4.9153152 35.255383
117.91286 -2.587317 38.358044
117.97422 -7.55336 31.507191
118.92266 -3.5972569 36.788654
119.05446 -1.4365849 39.567238
119.13688 -6.3646789 32.692387
119.85065 -0.050609 41.08073
119.85727 -5.1281009 34.23518
120.07014 -2.438333 37.993382
120.22424 -7.2231541 31.081776
120.6167 1.277282 42.614506
121.00897 -3.837914 35.776859
121.19496 -2.978569 37.044979
121.19882 -4.8749962 34.193417
121.22195 -1.2729743 39.19968
121.23222 0.40345401 41.367416
122.34162 -3.731544 35.39986
122.73319 -5.6557879 32.56744
122.76569 -1.914644 37.911594
122.78913 1.4411201 42.250114
122.79398 -7.4394269 29.689137
123.11456 -0.49238601 39.782829
123.88098 -4.5069461 33.770866
124.24848 -2.9270151 35.970219
124.30346 0.73615199 40.977798
124.36741 -6.2507086 30.88588
124.52109 -7.7320309 28.296814
124.68827 -1.0824389 38.478676
125.56431 -4.888072 32.405411
125.80348 -1.903299 36.848579
125.86694 0.121937 39.679317
125.88018 -3.5342691 34.290703
126.06129 -6.7382622 29.170565
126.20555 1.3966171 41.21994
126.74667 -5.5796919 30.738945
126.95135 -0.759911 38.06448
127.40884 -2.565074 35.183098
127.46944 -4.22541 32.633602
127.79359 0.82345098 39.908352
128.12518 2.0832679 41.455807
128.54189 -5.8862128 28.967394
128.60115 -1.3432682 36.375355
128.7057 -4.8211722 30.936991
128.92339 0.022438999 38.268372
129.07346 -3.120147 33.485035
129.72836 1.40563 39.791737
129.77547 3.275033 42.30143
130.25798 -1.9177541 34.681595
130.35713 -3.6321211 31.762014
130.57672 -0.56081599 36.576973
130.61206 -4.8014808 29.448242
130.88831 0.65699202 38.134651
131.33936 2.517688 40.657356
131.5096 -2.493284 32.975559
131.7332 4.0192709 42.524628
132.23122 -3.6801131 30.292324
132.27979 -1.182646 34.513527
132.49817 1.7629189 38.999851
132.55348 0.088908002 36.436504
133.13062 -4.1572962 28.54458
133.34668 3.2211969 40.508717
133.43358 -2.453521 31.480413
134.13774 -1.1417629 33.400471
134.19876 4.6860771 42.020306
134.2215 1.297328 37.270954
134.37753 -2.85127 29.707726
134.46355 0.098369002 34.952496
134.54005 2.525605 38.83197
135.34665 -3.2050121 27.920107
135.3661 3.9385817 40.356354
135.58112 -1.6277997 30.898956
135.86536 -0.084696002 33.509811
136.1154 1.268859 35.796959
136.16576 5.3022089 41.898636
136.42886 2.486357 37.361965
136.62199 -1.852414 29.072033
137.21837 -0.489007 31.74625
137.22537 3.8401351 38.90329
137.62733 1.156818 33.950207
138.01413 5.1797719 40.45266
138.29796 -0.64649302 29.898043
138.33815 -1.337647 27.800604
138.35312 2.3770139 35.526051
139.00685 0.66738999 31.825512
139.16687 3.7588511 37.059681
139.37723 6.6937699 41.587646
139.43761 5.0241718 39.00132
139.78986 2.1176219 33.71796
140.14886 -0.14697701 27.863049
140.23007 0.76779699 29.899231
140.59111 3.4737289 35.258503
140.81319 6.5562043 40.130272
140.90747 1.894757 31.501804
140.96573 5.0569339 37.49464
141.6868 3.3359661 33.401268
142.35785 6.6143088 38.61586
142.62271 5.3199 35.919758
29.281263 2.952177 54.155945
30.019896 -5.6185441 44.908264
30.138916 1.661361 52.714424
30.438446 -0.31182301 50.716587
30.670353 -4.3410091 46.386356
30.68712 4.1123943 55.347469
30.687305 -2.6489141 48.095852
31.498417 2.7060859 53.933273
31.679113 -6.7713189 43.465237
31.711348 -1.379449 49.595966
31.774927 5.5388818 56.825062
31.813587 0.76995403 51.921043
32.315941 -5.5308089 44.951618
32.36058 -3.5314419 47.302845
32.918373 3.891969 55.118713
33.098648 -0.272609 50.791756
33.232182 1.9518729 53.102654
33.448093 -2.115134 48.762115
33.505447 6.4319701 57.741985
33.975548 -6.5637288 43.837681
33.995087 -4.7530761 45.874832
34.308056 4.9988322 56.328384
34.53355 0.94345897 51.962276
34.634144 3.088001 54.30003
34.666618 -3.4342563 47.346386
34.840752 -1.001372 49.955189
35.669533 -5.7557702 44.751022
35.932072 2.0667689 53.161091
36.068699 4.2967601 55.482216
36.092552 -2.2454219 48.516499
36.243351 0.130549 51.14695
36.37265 -4.3670039 46.202011
36.777966 5.708066 56.95435
36.90358 -7.0286708 43.326996
37.3466 3.2224 54.355026
37.479076 -1.155628 49.716969
37.667103 1.3079441 52.330395
37.738659 -3.3260641 47.410568
37.990364 -5.632215 44.784523
38.067471 6.312314 57.569195
38.072613 -1.91759 48.852131
38.083443 4.6953292 55.809227
38.112709 -0.056589 50.893852
39.771515 -1.117772 49.779526
39.773586 3.8176918 55.00745
39.789059 -4.3470068 46.300205
39.791714 5.5109062 56.746716
39.794613 -6.0881162 44.237419
39.800415 -2.686352 48.025181
39.832554 0.79051298 51.81274
40.189583 2.2551949 53.251247
41.476624 -5.330523 45.167919
41.504604 -3.5122192 47.213535
41.511665 -0.227865 50.685318
41.515991 -1.853385 48.94268
41.542797 -6.8019161 43.396484
41.551186 6.4407878 57.657463
41.556114 4.803452 55.899788
41.825871 1.1306378 52.150383
41.90638 3.085438 54.180511
43.210308 -4.4592438 46.069733
43.247856 -0.98918903 49.854416
43.24799 -5.9958181 44.312752
43.264149 -2.5825241 48.103786
43.296078 5.6806359 56.823044
43.5826 2.0494421 53.0546
43.600296 0.45416799 51.296139
43.647392 3.9652879 55.099449
44.940022 -6.9706202 43.177757
44.944202 -5.2178078 45.239326
44.962719 -3.5518241 46.964382
45.000149 -1.7147568 49.013515
45.326038 -0.33793801 50.472301
45.337803 1.3214689 52.213024
45.354134 2.9942701 53.954838
45.450344 4.9819002 55.985741
46.650059 -6.1655779 44.095379
46.688953 -2.712476 47.88031
46.708317 -4.289546 46.127235
46.912617 6.2138991 57.172543
47.016323 -1.337131 49.338051
47.096828 0.60034299 51.369267
47.104328 2.24821 53.11697
47.115746 3.9086781 54.865906
48.403427 -5.2688818 44.99028
48.447376 -3.4272449 47.035877
48.539612 5.044836 56.075493
48.766632 -0.45215499 50.247551
48.77351 -2.0590079 48.494938
48.833836 1.452688 52.291843
48.879642 3.1877949 54.020401
49.650505 6.3397541 57.234577
49.692623 -6.3033681 43.857372
50.148701 -4.3975592 45.894905
50.330971 4.3811121 55.214226
50.520195 -2.8066499 47.658409
50.540173 0.47837901 51.147617
50.542938 -1.136189 49.393276
50.609684 2.3871341 53.19553
51.420372 5.6200318 56.386795
51.482971 -5.334434 44.733219
52.081749 3.621716 54.377419
52.178307 -4.0046458 46.211601
52.282715 -0.28929499 50.314716
52.306404 1.384833 52.056995
52.314903 -1.832796 48.54192
52.800369 -6.3085418 43.582054
53.204918 6.5604801 57.299549
53.390709 2.60496 53.228008
53.498112 -4.9780459 45.058556
53.553211 4.848897 55.56522
53.60424 -2.8805211 47.406742
54.081951 -0.93006301 49.447517
54.10371 0.73517901 51.191643
54.63002 -6.8674459 42.693153
54.846924 3.792588 54.424042
54.965321 -3.765064 46.227604
55.261887 -5.6897202 44.211514
55.264687 6.9920402 57.624123
55.409935 -1.8946348 48.287945
55.580135 1.9662991 52.371681
55.619339 5.2963991 55.882984
55.834881 -0.066729002 50.366352
56.633526 -6.5468836 43.026237
56.714645 -2.9110961 47.142784
56.749817 -4.4374628 45.368664
56.901302 4.2102499 54.748051
57.192883 -0.968099 49.188156
57.278252 7.185349 57.642761
57.3479 1.2403359 51.525043
57.370506 2.9058321 53.277618
57.668022 5.6954689 56.214161
58.073784 -5.4060001 44.212326
58.499504 -1.984841 48.041134
58.502541 -3.581532 46.282513
58.692387 0.30278 50.354439
58.926655 4.4288068 54.756828
58.954262 -6.6297789 42.748734
59.161232 2.225246 52.417961
59.447559 6.4751892 56.802765
59.852283 -4.4976392 45.109974
60.00893 -0.69690502 49.200657
60.259808 3.455595 53.591698
60.3009 -2.6319382 47.173519
60.46291 1.18706 51.272152
60.749802 -5.686358 43.634064
60.755722 5.4402719 55.651226
61.533234 6.9404192 57.119267
61.56892 2.4299221 52.44062
61.640999 -3.69818 45.672405
61.80682 -1.3587652 48.335976
61.813381 0.25874501 50.097534
62.030853 4.2080102 54.183338
62.770187 5.6179209 55.671928
62.835655 -5.2082419 43.926083
62.919399 1.496823 51.265427
63.054844 -2.633426 46.888981
63.371323 3.2475531 53.013367
63.647488 -0.330383 49.212322
63.962318 -3.9305947 45.06942
64.146622 4.7330599 54.480553
64.52623 -1.571576 47.741447
64.585548 6.4572511 56.246109
64.70237 2.2670479 51.848907
64.73867 0.86883301 50.389946
65.30722 -4.864728 43.899197
65.427559 -2.7609508 46.257915
65.482651 3.758431 53.312637
65.656586 -0.28949499 48.894009
65.926201 5.487956 55.074833
66.572533 -1.4500087 47.399872
66.610886 1.828714 50.922054
66.834511 -3.6887109 44.715206
67.328812 4.6556139 53.86805
67.45533 6.6660361 55.917526
67.52771 0.66431302 49.424988
67.731934 -4.8835778 43.234905
67.764481 3.1563721 52.072289
67.971405 -2.276448 46.196384
68.399193 -0.59695202 47.955246
68.64846 1.916714 50.592415
68.858307 5.8286891 54.710106
69.344994 4.564198 53.218502
70.764969 6.5917182 54.565018
70.890205 0.565274 45.097637
71.809807 2.214736 46.143684
71.961143 -0.270152 43.507965
71.999557 4.7261381 49.165749
72.867493 6.2648659 50.253948
72.903221 3.3935881 47.333549
73.121048 1.176124 44.989872
74.024429 4.6303492 48.511395
74.224983 2.3735831 46.172867
74.379608 0.02551 43.867393
75.134567 5.8400149 49.700031
75.483223 1.218242 45.049564
75.634148 -1.131385 42.747532
75.669022 3.458715 47.401928
76.735313 0.052136 43.930115
76.821213 4.879086 48.904091
76.921158 2.2866039 46.281036
77.226158 6.3763409 50.365074
78.031784 3.4879169 47.467838
78.189362 1.150949 45.151134
78.894783 5.2467031 49.240871
78.998993 -0.24977 43.711433
79.289337 6.7179589 50.711082
79.629105 3.675426 47.838749
79.659691 2.2798159 46.36768
79.665314 0.83332199 44.913586
81.410393 4.3740349 48.445442
81.674866 1.062282 45.282673
81.692963 2.556639 46.725609
81.704315 6.9632888 51.096249
82.883255 -0.32413501 43.84864
82.888474 5.5085201 49.670319
83.475899 3.3781099 47.670235
83.742805 1.407558 45.620705
83.76667 7.286953 51.448669
84.637123 4.667521 48.839848
84.938736 -0.007369 44.192631
85.00412 6.068388 50.331039
85.238724 2.5720689 46.831387
86.065331 1.203811 45.375618
86.385811 3.8262129 48.009335
86.532379 7.2958741 51.537739
86.753654 5.2245221 49.500309
87.174194 -0.51744902 43.657871
87.554276 2.346081 46.593029
88.24173 6.3621821 50.729572
88.335281 0.88379502 45.1619
88.406036 4.0517802 48.384377
88.948631 -1.2967319 42.812286
89.553925 2.402158 46.63892
89.558464 5.3080578 49.567249
90.077454 -0.092827 43.996227
90.361099 6.783761 51.056561
