# .PCD v0.7 - Point Cloud Data file format
VERSION 0.7
FIELDS x y z
SIZE 4 4 4
TYPE F F F
COUNT 1 1 1
WIDTH 1314
HEIGHT 1
VIEWPOINT 0 0 0 1 0 0 0
POINTS 1314
DATA ascii
0.096246466 0.11135098 0.023601508
0.095734939 0.11137932 0.023786189
0.095259257 0.11141837 0.024014251
0.094791688 0.11145967 0.024251975
0.09429267 0.11149188 0.024451923
0.093801007 0.11152615 0.024660589
0.093321525 0.11156392 0.024884161
0.092874944 0.11161143 0.025147192
0.092464045 0.11166963 0.025453676
0.092147946 0.1117557 0.025874145
0.091895469 0.11186059 0.026371704
0.067106955 0.10512315 -0.0013708666
0.066064097 0.10500459 -0.0018019741
0.065025985 0.10488731 -0.0022273953
0.063950039 0.10475963 -0.0026965842
0.063060559 0.10468312 -0.0029506772
0.062207691 0.10461667 -0.0031626225
0.061314344 0.10453901 -0.0034212712
0.060407341 0.10445781 -0.0036955695
0.059487872 0.10437319 -0.0039843051
0.058704197 0.10432558 -0.00411628
0.057966202 0.10429067 -0.0041957409
0.057242356 0.10425958 -0.0042588972
0.056556031 0.10423891 -0.0042786319
0.055882998 0.10422193 -0.0042830706
0.055216268 0.10420654 -0.0042803176
0.054587148 0.1042015 -0.0042340509
0.053974539 0.10420108 -0.0041687689
0.053377531 0.1042048 -0.0040857084
0.052781023 0.10420869 -0.0040019113
0.052216284 0.10422145 -0.0038813876
0.051687822 0.10424397 -0.0037192141
0.051171571 0.10427012 -0.0035427783
0.050659671 0.10429718 -0.0033615094
0.050152704 0.10432564 -0.0031742912
0.049651965 0.10435592 -0.0029801154
0.049162351 0.10438919 -0.0027730989
0.048670337 0.10442188 -0.002568742
0.048194811 0.10445907 -0.0023453101
0.047741868 0.10450234 -0.0020959321
0.047305599 0.10455026 -0.0018274944
0.046893336 0.10460486 -0.0015310687
0.046466649 0.10465537 -0.0012514653
0.046028547 0.10470278 -0.00098493893
0.045600295 0.1047529 -0.0007070218
0.045182034 0.10480582 -0.00041759375
0.04479114 0.10486615 -9.666432e-05
0.044413827 0.10493031 0.00023997825
0.044040285 0.10499555 0.00058090861
0.043693535 0.10506794 0.00095271331
0.043370716 0.10514709 0.0013523013
0.043041885 0.10522448 0.0017447891
0.042746864 0.10531124 0.0021761963
0.042446852 0.10539655 0.0026019851
0.042153068 0.10548364 0.0030350205
0.041898191 0.10558126 0.0035127527
0.041622125 0.10567326 0.0039662612
0.041344009 0.10576463 0.004417297
0.04108879 0.10586221 0.0048945877
0.040865429 0.10596856 0.0054088351
0.040651783 0.10607773 0.0059343134
0.040451758 0.10619048 0.0064753122
0.040263191 0.10630633 0.0070296139
0.040078767 0.10642345 0.0075887055
0.039868779 0.10653353 0.008118392
0.039670587 0.1066469 0.0086616017
0.039468601 0.10675912 0.0092003336
0.03925664 0.10686863 0.0097276485
0.039087839 0.10699005 0.010304935
0.038926728 0.10711349 0.010890907
0.038776465 0.1072399 0.011489256
0.038717799 0.10739147 0.012193331
0.038671292 0.1075464 0.012911722
0.020080619 0.10395177 -0.0015846101
0.019374857 0.10392569 -0.0016267995
0.018575061 0.10387388 -0.0017774884
0.017824152 0.10383539 -0.0018718183
0.017136859 0.10381443 -0.0018927205
0.016324822 0.10375916 -0.0020575039
0.015269906 0.10363723 -0.0025024714
0.014472207 0.10358603 -0.0026506993
0.013762365 0.10355887 -0.0026976247
0.01310885 0.10354706 -0.0026796013
0.012470637 0.10353952 -0.0026438804
0.01186912 0.10354222 -0.0025658684
0.011239577 0.10353699 -0.0025201913
0.010623921 0.10353569 -0.0024584862
0.009953496 0.10351931 -0.0024599435
0.0091971233 0.10347936 -0.0025605217
0.0085010687 0.10345601 -0.0025915818
0.0078399535 0.1034421 -0.0025823191
0.0072148656 0.10343825 -0.0025315115
0.0066569373 0.1034528 -0.0024032162
0.0061082384 0.10346986 -0.0022642659
0.0055496451 0.10348425 -0.0021367436
0.0050453153 0.10351352 -0.0019465942
0.0045190025 0.10353665 -0.0017818719
0.0039875521 0.10355851 -0.0016229992
0.0033524989 0.10355175 -0.0015837451
0.0027693929 0.10355949 -0.0014843501
0.0022401935 0.10358182 -0.0013230231
0.0017563282 0.10361673 -0.0011093032
0.001302338 0.10365971 -0.00086110749
0.00085035933 0.10370341 -0.00061066495
0.00040991444 0.10375029 -0.00034685421
6.4647274e-06 0.10380708 -4.0357882e-05
-0.00039592627 0.10386438 0.00026728638
-0.00078763656 0.1039245 0.00058729295
-0.0011520716 0.10399215 0.00093881937
-0.0015778805 0.10404303 0.0012194178
-0.0020632388 0.10407739 0.0014314578
-0.0025557228 0.10410993 0.0016352037
-0.0029904032 0.10415828 0.0019056801
-0.0033652901 0.10422315 0.0022450094
-0.0037219261 0.10429291 0.0026054792
-0.004080215 0.10436222 0.0029641136
-0.0044168457 0.10443745 0.0033476492
-0.0047446121 0.10451524 0.0037413787
-0.0050875321 0.10458884 0.0041177408
-0.0053984453 0.10467122 0.0045309402
-0.0056908499 0.10475855 0.0049655135
-0.006004422 0.10484013 0.0053754626
-0.0063333525 0.10491762 0.0057680439
-0.0066705579 0.10499268 0.0061509158
-0.0070113423 0.10506693 0.0065296041
-0.0073289452 0.10514737 0.0069351294
-0.0076178093 0.10523574 0.0073737376
-0.0079016117 0.10532563 0.0078181662
-0.0081817266 0.10541644 0.0082668131
-0.0084527554 0.10550973 0.0087261656
-0.008699174 0.1056098 0.0092136795
-0.0089403829 0.10571119 0.0097072339
-0.0091696959 0.10581603 0.010214533
-0.0094286883 0.10591248 0.010687619
-0.0097127808 0.10600231 0.011131711
-0.010011761 0.10608789 0.011558678
-0.010276659 0.10618292 0.01202501
-0.010528677 0.10628146 0.012506119
-0.0107588 0.10638595 0.013012513
-0.01105123 0.10647333 0.013446981
-0.011389119 0.1065483 0.013829067
-0.011750968 0.10661668 0.01418354
-0.012111156 0.10668555 0.014539959
-0.012461774 0.10675691 0.014907367
-0.012785801 0.10683571 0.015305521
-0.013156295 0.10690165 0.015649911
-0.013587696 0.10695092 0.015924128
-0.014074203 0.10698502 0.016134687
-0.014625411 0.10700146 0.016270785
-0.015141025 0.10702758 0.016447911
-0.015554626 0.10708186 0.016742729
-0.015957022 0.10713895 0.017050315
-0.016348293 0.10719919 0.017370822
-0.016736249 0.10726043 0.017695313
-0.017232751 0.10729181 0.017894302
-0.017890364 0.10727903 0.017907694
-0.0187311 0.10721588 0.017709689
-0.01950263 0.1071718 0.017591713
-0.020159619 0.10715915 0.01760569
-0.020924293 0.10711685 0.017495571
-0.021759955 0.10705524 0.017303474
-0.02252627 0.10701244 0.017191431
-0.023333019 0.10695876 0.017032698
-0.024155568 0.10690054 0.016855851
-0.024762059 0.10690172 0.016928146
-0.029607199 0.10573924 0.012111477
-0.030609213 0.10563187 0.011727508
-0.032849923 0.10518447 0.009914984
-0.033920966 0.10505815 0.0094514331
-0.034980088 0.10493495 0.0090015931
-0.035964571 0.10483234 0.008637934
-0.036905475 0.1047418 0.0083245356
-0.037753187 0.10467675 0.0081186071
-0.038443938 0.10465485 0.008093711
-0.039082378 0.10464722 0.0081290826
-0.039811961 0.10461468 0.0080593145
-0.040590599 0.10456864 0.00793315
-0.041357502 0.10452574 0.0078204134
-0.042079926 0.10449519 0.0077590384
-0.042876489 0.1044441 0.0076119937
-0.043694764 0.10438722 0.0074401177
-0.044480316 0.1043392 0.0073057031
-0.045178443 0.1043153 0.0072723976
-0.045764729 0.10432199 0.0073679071
-0.04632064 0.104337 0.0074984878
-0.046852961 0.10435856 0.0076563559
-0.047438338 0.10436564 0.0077530406
-0.048047096 0.10436628 0.0078228023
-0.048647292 0.10436919 0.0079023605
-0.0492341 0.10437571 0.007997185
-0.049783021 0.10439277 0.0081359791
-0.050313152 0.10441495 0.0082962643
-0.050857954 0.10443302 0.0084397132
-0.051403448 0.10445107 0.0085823424
-0.051907048 0.10448047 0.0087733436
-0.052408539 0.10451051 0.008966581
-0.052883223 0.1045478 0.0091910586
-0.053337112 0.10459096 0.0094393017
-0.053776972 0.1046379 0.0097037191
-0.054250032 0.10467571 0.0099299354
-0.054709733 0.10471725 0.010171437
-0.055202968 0.10474952 0.010374533
-0.055675454 0.1047875 0.010601229
-0.056149021 0.10482524 0.01082685
-0.056603044 0.10486819 0.011074953
-0.057048641 0.10491363 0.011332857
-0.057485312 0.10496154 0.011600975
-0.057907954 0.1050131 0.011885241
-0.058339082 0.10506243 0.012159783
-0.058749989 0.10511733 0.012457733
-0.059118398 0.10518399 0.012804591
-0.059493519 0.10524866 0.013143667
-0.059855178 0.105317 0.01349833
-0.060198165 0.10539065 0.013874583
-0.060568251 0.10545665 0.014219514
-0.060931653 0.10552467 0.014572217
-0.061285898 0.10559509 0.014935371
-0.06162177 0.10567064 0.015319921
-0.06195838 0.10574588 0.015703363
-0.062274642 0.10582674 0.016110403
-0.062556505 0.10591713 0.016557211
-0.062833987 0.10600862 0.017008921
-0.063096166 0.10610434 0.017478175
-0.063253418 0.10622882 0.01806863
-0.06334576 0.10637128 0.018734012
-0.063490555 0.10649917 0.019338725
-0.063721217 0.10660361 0.019844415
-0.06396772 0.10670354 0.020331986
-0.064205915 0.10680589 0.020829067
-0.064392552 0.10692234 0.021385632
-0.064583309 0.10703772 0.021937372
-0.064725146 0.10716651 0.02254553
-0.064834647 0.10730422 0.023191154
-0.064945824 0.10744128 0.023834657
-0.065048918 0.10758075 0.024487648
-0.065100543 0.10773426 0.025199814
-0.065183498 0.10787911 0.025876036
0.10238834 0.11262737 0.025230452
0.10020962 0.11216193 0.023401462
0.099329002 0.11208112 0.023140438
0.098535083 0.1120259 0.022984017
0.097762056 0.11197688 0.022852914
0.097124375 0.11196788 0.022885269
0.096529417 0.1119716 0.022969112
0.095997423 0.11199392 0.023129096
0.095485456 0.11202213 0.023313155
0.095005661 0.11205999 0.023536261
0.094536349 0.11210091 0.02377194
0.094042465 0.11213465 0.023977943
0.093547784 0.11216802 0.024183022
0.093088485 0.11221193 0.024430957
0.092641845 0.11225963 0.024693862
0.092256501 0.11232526 0.025030924
0.091982141 0.11242411 0.025502203
0.091756597 0.11253711 0.026032215
0.06804096 0.10591157 -0.0012347149
0.06703864 0.10580377 -0.0016189971
0.065869361 0.1056499 -0.0021956882
0.064782456 0.10551877 -0.0026774434
0.063794434 0.10541489 -0.0030450621
0.062947817 0.10534987 -0.003249649
0.062106304 0.10528637 -0.003448321
0.061214514 0.10520894 -0.0037051598
0.060288444 0.10512218 -0.0040012961
0.059394576 0.10504413 -0.0042604692
0.058596618 0.10499264 -0.0044088913
0.057873286 0.10496158 -0.0044714059
0.057163768 0.10493445 -0.0045178859
0.056493998 0.10491816 -0.0045185778
0.055815056 0.10489935 -0.0045298277
0.055175312 0.10489129 -0.0044959644
0.054576002 0.10489447 -0.0044153002
0.053971782 0.10489626 -0.0043404954
0.053399943 0.104907 -0.0042281649
0.052809201 0.10491249 -0.0041377121
0.052269332 0.104932 -0.0039885282
0.051731788 0.1049521 -0.0038368704
0.051210254 0.1049767 -0.0036665844
0.050711393 0.10500752 -0.0034701265
0.050239399 0.1050457 -0.0032427399
0.049765944 0.10508345 -0.0030170535
0.049297549 0.10512268 -0.0027855572
0.048816741 0.1051584 -0.0025682719
0.048330709 0.10519275 -0.0023571262
0.047894485 0.10524075 -0.00208854
0.047473319 0.105293 -0.0018025346
0.047047533 0.10534399 -0.0015218679
0.04658252 0.10538405 -0.0012863699
0.046154492 0.10543443 -0.0010082441
0.045741595 0.10548881 -0.00071268412
0.045312375 0.10553887 -0.00043598955
0.044934317 0.10560285 -0.00010021801
0.044587955 0.10567572 0.00027203237
0.044229969 0.10574522 0.00063083053
0.043899581 0.10582253 0.0010215763
0.043586895 0.10590453 0.0014325813
0.043279737 0.10598812 0.001850018
0.042995967 0.1060782 0.0022944706
0.042708389 0.10616707 0.0027344611
0.04243356 0.10625967 0.0031894273
0.042175509 0.10635671 0.0036634509
0.041928448 0.10645681 0.0041501378
0.041691691 0.1065599 0.0046488079
0.041429982 0.10665596 0.0051187151
0.041200362 0.10676088 0.0056255087
0.040979311 0.1068682 0.006142362
0.040768869 0.10697842 0.0066712908
0.04057119 0.10709209 0.0072151222
0.04037486 0.10720618 0.0077602644
0.040195026 0.10732492 0.0083245756
0.039970763 0.10743138 0.0088376272
0.039746366 0.10753772 0.0093506007
0.039592057 0.10766337 0.0099442173
0.039410308 0.10778142 0.010506278
0.039257452 0.1079075 0.011101791
0.039160058 0.10804886 0.011761132
0.03905239 0.10818741 0.012408572
0.022064514 0.10502309 -0.00023602282
0.01988622 0.10459144 -0.0019762875
0.019131778 0.10455181 -0.0020746291
0.018306462 0.10449282 -0.0022546437
0.017588949 0.10446341 -0.002310419
0.016900685 0.10444205 -0.0023323826
0.016058233 0.10437831 -0.0025321746
0.015043309 0.10426692 -0.0029309941
0.014283764 0.10422591 -0.0030351328
0.013604722 0.10420726 -0.0030464623
0.012965145 0.10419922 -0.0030123657
0.012351137 0.10419819 -0.002948757
0.011765089 0.104205 -0.0028528976
0.011138419 0.1042007 -0.0028038546
0.010519261 0.10419843 -0.0027461664
0.0098364092 0.10417854 -0.0027619826
0.0091076512 0.104146 -0.0028306595
0.0084692277 0.10413829 -0.0027951933
0.0078576133 0.10413811 -0.0027288268
0.0072722062 0.10414506 -0.0026321996
0.0067239604 0.10416228 -0.0024927561
0.0061971494 0.10418541 -0.0023285781
0.0056583057 0.10420522 -0.0021783104
0.0051574069 0.10423535 -0.0019841979
0.0046350816 0.10425982 -0.0018148716
0.0041105319 0.1042835 -0.0016481513
0.003479488 0.10427788 -0.0016041449
0.0028749919 0.10427964 -0.0015294796
0.0023124195 0.10429282 -0.0014065831
0.001810743 0.10432294 -0.001213443
0.0013493474 0.10436406 -0.00097380474
0.00090805272 0.10441054 -0.00071111612
0.00046626051 0.10445719 -0.00044886829
4.8920767e-05 0.1045104 -0.00015846857
-0.00034303957 0.10457052 0.00016124544
-0.00073301484 0.10463145 0.00048310769
-0.0010990695 0.1046988 0.00083283184
-0.0014939284 0.10475818 0.0011490571
-0.001926852 0.10480716 0.001421546
-0.0023979777 0.10484564 0.0016499374
-0.0028572045 0.10488734 0.0018920169
-0.0032510813 0.10494704 0.0022095225
-0.003598155 0.10501956 0.0025809193
-0.0039551132 0.10508955 0.0029409004
-0.0042970846 0.10516354 0.0033183121
-0.0046196608 0.10524284 0.0037178951
-0.0049508624 0.10531982 0.0041076271
-0.0052595711 0.10540309 0.0045233648
-0.0055552735 0.1054897 0.0049540862
-0.0058449688 0.10557815 0.0053917109
-0.006164398 0.10565834 0.0057949205
-0.0065106298 0.10573128 0.0061674374
-0.006838806 0.10580895 0.0065606376
-0.0071441047 0.10589313 0.0069802613
-0.0074356096 0.10598098 0.0074156653
-0.0077230865 0.10607005 0.0078559173
-0.007998378 0.10616231 0.0083102183
-0.0082561793 0.10625961 0.0087845642
-0.0085259257 0.10635346 0.0092450436
-0.0087572653 0.10645787 0.0097500114
-0.0089595811 0.10657037 0.010288408
-0.0091878101 0.10667566 0.0107969
-0.0094364295 0.10677538 0.011281809
-0.0096903974 0.10687358 0.011760558
-0.0099610398 0.10696725 0.012220266
-0.010217063 0.10706501 0.012696635
-0.010482526 0.10715996 0.013162136
-0.010835454 0.10723107 0.01352694
-0.011209376 0.10729616 0.013867356
-0.011587682 0.10736022 0.014202755
-0.011956771 0.10742678 0.014548917
-0.012315211 0.10749614 0.014907218
-0.012655415 0.10757067 0.015286539
-0.013006884 0.10764212 0.015652958
-0.01337201 0.10770962 0.016003612
-0.013773168 0.10776737 0.016312646
-0.014278143 0.10779645 0.016501924
-0.014791978 0.10782327 0.016681137
-0.015245297 0.10786666 0.016930049
-0.015634961 0.1079274 0.017252278
-0.015997481 0.10799579 0.017605955
-0.016421126 0.10804728 0.017889079
-0.016940426 0.10807242 0.018061871
-0.01750713 0.10808457 0.018180035
-0.01824348 0.10805005 0.018102666
-0.019052662 0.10799528 0.017941236
-0.019817803 0.10795285 0.017830564
-0.02063331 0.10789643 0.017661771
-0.021630514 0.10778993 0.017283514
-0.022455316 0.10773104 0.017104076
-0.023311878 0.10766333 0.016887991
-0.024128651 0.1076066 0.016717872
-0.028500205 0.10657097 0.012448318
-0.029697306 0.10640945 0.011839547
-0.031648375 0.10604046 0.010361394
-0.032810569 0.10588859 0.0097928029
-0.033886477 0.10576049 0.009323732
-0.034931578 0.1056408 0.0088902377
-0.035891697 0.10554457 0.0085547063
-0.036883436 0.10543982 0.0081827585
-0.037705787 0.10538145 0.00800623
-0.038436651 0.10534829 0.0079349931
-0.039053731 0.10534658 0.0079951249
-0.039676346 0.10534333 0.0080488417
-0.040358603 0.10532364 0.0080337794
-0.041125782 0.10528051 0.0079208463
-0.041888684 0.10523867 0.0078127002
-0.042628981 0.105203 0.0077306661
-0.043379433 0.10516449 0.0076369829
-0.044194564 0.10510823 0.0074687088
-0.044893838 0.10508375 0.0074338764
-0.045535095 0.10507543 0.0074661407
-0.046109639 0.10508538 0.0075752563
-0.04665117 0.10510439 0.0077223792
-0.047265135 0.1051035 0.0077862507
-0.047906622 0.10509508 0.0078180349
-0.04854057 0.1050887 0.0078586414
-0.04914052 0.10509165 0.0079385713
-0.049712658 0.10510224 0.0080504837
-0.050267212 0.1051176 0.0081825685
-0.050795823 0.10514031 0.0083447425
-0.051320113 0.10516407 0.0085118962
-0.051842555 0.10518837 0.0086810812
-0.052319281 0.10522526 0.0089029418
-0.052815497 0.10525678 0.0091023603
-0.053287826 0.10529491 0.0093294131
-0.053723618 0.1053431 0.009598501
-0.054198533 0.10538045 0.0098225214
-0.054669105 0.10541912 0.010051587
-0.055152372 0.10545414 0.010265942
-0.055621319 0.10549325 0.010496881
-0.056101061 0.10552929 0.010715303
-0.056568705 0.10556869 0.010947753
-0.057003595 0.10561715 0.011217852
-0.057445303 0.10566369 0.011480196
-0.057869986 0.1057149 0.011762163
-0.058280684 0.10576998 0.012060227
-0.058699913 0.10582267 0.012348427
-0.059093855 0.10588242 0.012665855
-0.059465155 0.10594828 0.013009393
-0.059836455 0.1060143 0.013352886
-0.060175724 0.10608899 0.013733341
-0.060507327 0.10616581 0.01412256
-0.060854889 0.10623826 0.014493368
-0.061203241 0.10631049 0.014863318
-0.06153401 0.1063876 0.015253655
-0.061848611 0.1064691 0.015662454
-0.062146783 0.10655525 0.016090387
-0.062439092 0.10664306 0.016524933
-0.062729776 0.10673103 0.016961273
-0.06293945 0.10684147 0.017491244
-0.063064918 0.10697512 0.018118167
-0.063217171 0.10710136 0.018714221
-0.063445635 0.10720654 0.019222485
-0.063698925 0.10730501 0.019702082
-0.063970819 0.10739838 0.020160133
-0.06421873 0.10749824 0.020646023
-0.064415149 0.10761228 0.021191059
-0.064603373 0.10772859 0.021745689
-0.064743184 0.10785838 0.022356318
-0.064860739 0.10799399 0.022992343
-0.064968452 0.10813264 0.023639869
-0.065065041 0.10827415 0.024300082
-0.065161958 0.10841563 0.024959935
-0.065223277 0.10856683 0.025660956
0.099812567 0.11276125 0.022750258
0.099048696 0.11271477 0.022630088
0.098235592 0.11265369 0.022450637
0.097466171 0.11260565 0.022323854
0.096813694 0.11259232 0.022338286
0.096225366 0.11259796 0.022430127
0.095706262 0.11262401 0.022605754
0.095205881 0.11265585 0.0228038
0.094724022 0.11269309 0.023024432
0.094252437 0.11273333 0.023257149
0.093761742 0.11276797 0.023467155
0.093285963 0.11280718 0.023695165
0.092834197 0.11285327 0.023951959
0.092396349 0.11290368 0.024225596
0.092044406 0.11297951 0.024603065
0.091751657 0.11307288 0.02505192
0.068791382 0.1066499 -0.0013105985
0.067889288 0.10656944 -0.0015789578
0.066885248 0.10646074 -0.0019651533
0.065730564 0.1063104 -0.0025248737
0.064647697 0.10618 -0.0030018575
0.063658491 0.10607533 -0.0033707181
0.062825665 0.1060141 -0.0035593899
0.06194853 0.10594034 -0.0037991279
0.061060965 0.10586392 -0.0040509664
0.060144804 0.10577953 -0.0043356479
0.05927591 0.10570809 -0.0045658122
0.05852209 0.1056686 -0.0046634506
0.057803348 0.10563872 -0.0047205361
0.057124741 0.10562001 -0.0047312323
0.056480609 0.10561072 -0.0047025285
0.055824026 0.10559794 -0.004687883
0.055189587 0.10559142 -0.0046477425
0.054614812 0.10560135 -0.0045388858
0.054024436 0.10560682 -0.0044480022
0.053471379 0.10562273 -0.0043141497
0.052907713 0.1056357 -0.0041924384
0.052363895 0.10565409 -0.0040479065
0.051838234 0.10567757 -0.0038824822
0.051313743 0.1057014 -0.0037156993
0.050815031 0.10573231 -0.0035190808
0.050358385 0.10577472 -0.0032739697
0.049886174 0.10581293 -0.0030468656
0.04942771 0.10585499 -0.0028039154
0.048982248 0.10590068 -0.0025458746
0.048511617 0.10593927 -0.0023169906
0.048057407 0.10598245 -0.0020691266
0.047636852 0.10603493 -0.0017824905
0.047201589 0.10608339 -0.0015128326
0.046734162 0.10612285 -0.0012800422
0.046288982 0.10616861 -0.0010217183
0.045879357 0.10622405 -0.00072247698
0.045470878 0.10627984 -0.00042190737
0.045101352 0.10634639 -7.6398064e-05
0.044762097 0.10642137 0.00030387461
0.044402964 0.10649081 0.00066136813
0.044097126 0.10657504 0.0010803549
0.043818779 0.10666671 0.001531006
0.043517798 0.10675232 0.0019555474
0.043235242 0.10684285 0.0024013873
0.042968534 0.10693784 0.0028652824
0.042726502 0.10703958 0.0033577222
0.042474188 0.10713843 0.003838364
0.042215563 0.10723574 0.0043118224
0.041978955 0.10733908 0.0048105726
0.04173062 0.10743907 0.0052957749
0.041554973 0.10755919 0.0058648163
0.041336983 0.10766771 0.0063850526
0.041129999 0.10777915 0.0069177733
0.040947452 0.10789733 0.0074789883
0.040737689 0.108008 0.0080086729
0.040539406 0.10812189 0.0085516367
0.040329196 0.10823245 0.0090807974
0.040099718 0.10833757 0.0095876791
0.039923735 0.10845771 0.010156333
0.039749295 0.10857809 0.010726715
0.039692491 0.10873108 0.011432837
0.039644569 0.10888645 0.012149082
0.021664454 0.10560708 -0.00086517038
0.019721303 0.10523903 -0.002333934
0.018915106 0.10518511 -0.0024918576
0.018087352 0.10512502 -0.0026746856
0.017409177 0.10510644 -0.0026849823
0.016704649 0.1050804 -0.00272574
0.015832623 0.10500824 -0.0029595941
0.014870725 0.10491113 -0.0032970363
0.014141261 0.10487836 -0.00336654
0.013485964 0.10486612 -0.0033504951
0.012857706 0.10486115 -0.003303265
0.012222867 0.10485446 -0.0032636407
0.011643279 0.10486292 -0.0031603444
0.01103897 0.10486464 -0.0030855068
0.010417135 0.10486162 -0.0030309614
0.0097185709 0.10483734 -0.0030648056
0.0090224119 0.10481364 -0.0030958708
0.0084341606 0.10481988 -0.0030025518
0.0078534801 0.1048281 -0.0029005241
0.0073146266 0.1048478 -0.0027501706
0.0067784144 0.1048685 -0.0025969048
0.0062825042 0.1049001 -0.0023970548
0.0057757525 0.10492868 -0.0022098094
0.0052783224 0.10496004 -0.0020117655
0.0047649033 0.10498691 -0.0018321355
0.0042424449 0.10501117 -0.0016629471
0.0036338635 0.10501179 -0.0015930273
0.0030071556 0.10500725 -0.0015441099
0.0024126763 0.1050117 -0.0014579688
0.0018918562 0.10503655 -0.0012868545
0.001413191 0.10507301 -0.001067185
0.00096670981 0.10511819 -0.00081044028
0.00053867936 0.1051687 -0.00053243537
0.0001339639 0.10522559 -0.00022744283
-0.00026263934 0.10528468 8.6900727e-05
-0.00063809811 0.10534957 0.0004254563
-0.0010158444 0.10541395 0.00076149055
-0.0013993429 0.10547662 0.0010908653
-0.0017877755 0.10553797 0.0014145907
-0.0022242416 0.10558596 0.0016829128
-0.0026652573 0.10563286 0.0019459774
-0.0030898268 0.10568428 0.0022280749
-0.0034600571 0.10575061 0.0025727241
-0.0038154745 0.10582108 0.0029345388
-0.0041553029 0.10589576 0.0033142518
-0.004483189 0.10597396 0.0037077949
-0.0047997404 0.10605522 0.0041143475
-0.005105467 0.10613945 0.0045334096
-0.0053908103 0.10622919 0.0049759499
-0.0056691668 0.10632094 0.0054265093
-0.0059915981 0.10640053 0.0058262972
-0.0063132006 0.10648032 0.0062270495
-0.0066487691 0.10655625 0.0066117472
-0.0069642249 0.10663774 0.007019572
-0.0072481623 0.10672796 0.0074638128
-0.0075225383 0.10682086 0.0079190033
-0.0077961115 0.10691394 0.0083750263
-0.0080701774 0.10700686 0.0088306656
-0.0083219716 0.10710597 0.0093118856
-0.0085527981 0.10721073 0.0098172668
-0.0087480284 0.10732562 0.010363754
-0.0089610303 0.10743535 0.010889754
-0.0091654789 0.10754748 0.011425408
-0.0093949307 0.10765272 0.011932487
-0.0096555855 0.10774941 0.012403587
-0.009950106 0.10783662 0.012835462
-0.010263224 0.10791891 0.013246078
-0.010650989 0.10798039 0.01357046
-0.011074981 0.10803196 0.013853213
-0.011473126 0.10809065 0.014165808
-0.011850607 0.1081549 0.014502111
-0.012201829 0.10822659 0.014868612
-0.012532479 0.10830397 0.015258957
-0.012835884 0.10838877 0.015680632
-0.013158545 0.10846826 0.016080303
-0.013538782 0.1085319 0.016413376
-0.013920918 0.10859498 0.016744345
-0.014354903 0.10864381 0.017015619
-0.014816349 0.10868491 0.017255038
-0.015269642 0.1087283 0.017504044
-0.015702331 0.10877746 0.017776653
-0.016123561 0.1088298 0.018062625
-0.016648507 0.10885345 0.018228909
-0.017210973 0.10886676 0.018351965
-0.017884364 0.10884933 0.018347079
-0.018650161 0.10880648 0.018235698
-0.019415101 0.10876391 0.018125327
-0.020420132 0.10865495 0.017738098
-0.02145635 0.1085374 0.017314937
-0.022376811 0.10845185 0.017025368
-0.023251045 0.10837899 0.016788933
-0.024116676 0.10830855 0.01656251
-0.028922664 0.10714981 0.011793127
-0.029917082 0.10704384 0.011418168
-0.03169746 0.10672076 0.010137044
-0.0327309 0.10660402 0.0097171664
-0.033794075 0.10647903 0.0092629008
-0.034833625 0.10636041 0.0088358363
-0.035777666 0.10626835 0.0085189892
-0.03678596 0.10615855 0.0081280684
-0.03764648 0.10608949 0.0079074875
-0.03844621 0.10603732 0.0077569159
-0.039042763 0.10604116 0.0078408103
-0.039610468 0.10605305 0.0079578767
-0.040213548 0.10605512 0.0080341632
-0.0409346 0.1060246 0.007974267
-0.041751996 0.10596752 0.0078034308
-0.042565972 0.10591123 0.0076364903
-0.043284498 0.10588148 0.007579668
-0.044031397 0.10584374 0.0074899839
-0.044731334 0.10581911 0.0074545159
-0.04540965 0.10580046 0.0074440492
-0.045988709 0.10580918 0.0075480347
-0.046552844 0.10582193 0.0076690586
-0.047181353 0.10581698 0.007716123
-0.047856264 0.10579925 0.0077095353
-0.048511408 0.10578702 0.0077257561
-0.049099877 0.10579305 0.0078187315
-0.049650587 0.10580963 0.0079554077
-0.050204672 0.10582531 0.0080881752
-0.050742187 0.1058454 0.0082399491
-0.051262923 0.10587011 0.0084110489
-0.05178114 0.10589572 0.0085851075
-0.052259766 0.10593216 0.0088048624
-0.052744307 0.10596685 0.0090176864
-0.053230762 0.10600124 0.0092285043
-0.053696014 0.1060413 0.0094636446
-0.054158665 0.10608222 0.0097016981
-0.05461701 0.10612424 0.0099448599
-0.055091113 0.10616197 0.010169762
-0.055561133 0.1062008 0.010399499
-0.056032225 0.10623924 0.010627858
-0.056510389 0.10627577 0.010848028
-0.056942083 0.10632524 0.011121824
-0.057370506 0.10637555 0.011399424
-0.057801582 0.10642513 0.01167398
-0.058211349 0.10648064 0.011973126
-0.058633365 0.10653272 0.012258084
-0.059041239 0.10658877 0.012559426
-0.059421696 0.10665224 0.012892351
-0.059786104 0.10672022 0.013243652
-0.060120516 0.10679647 0.013629713
-0.060437612 0.1068775 0.014035705
-0.060771987 0.10695381 0.014421646
-0.061088502 0.10703494 0.014828205
-0.061404087 0.10711648 0.01523596
-0.061722793 0.10719708 0.015640069
-0.062037468 0.10727879 0.016048845
-0.062324733 0.1073682 0.016489057
-0.062574811 0.10746776 0.016972322
-0.062767729 0.10758306 0.017521435
-0.06289795 0.10771578 0.018142924
-0.063135311 0.10781872 0.018640602
-0.063403592 0.10791336 0.019102812
-0.063684843 0.10800433 0.019550152
-0.063983299 0.10809053 0.0199777
-0.064215899 0.10819479 0.020480938
-0.06440334 0.10831168 0.021036504
-0.064567886 0.10843492 0.021618269
-0.064710982 0.10856394 0.022224836
-0.064829245 0.10869993 0.022860007
-0.064913429 0.10884539 0.023534322
-0.065019101 0.10898477 0.024184162
-0.065157875 0.10911515 0.024795659
-0.065204524 0.10927093 0.025513519
-0.065135397 0.10945852 0.026364621
0.10119366 0.11352777 0.022641474
0.10033962 0.11345424 0.022412466
0.099538885 0.11339666 0.022247801
0.098768286 0.11334819 0.022119718
0.09789215 0.11326811 0.021864168
0.097097196 0.11321231 0.021706577
0.0964121 0.11318906 0.021681676
0.095858239 0.1132049 0.02181508
0.09530811 0.11322201 0.021953328
0.094792783 0.11324938 0.022133404
0.094317071 0.11328851 0.022361236
0.09385851 0.11333273 0.022609914
0.093412727 0.11338083 0.022874121
0.092979953 0.11343277 0.023153901
0.09257222 0.11349209 0.023463819
0.092181355 0.11355656 0.023794182
0.091849864 0.1136386 0.024196299
0.068584204 0.10729232 -0.0017188145
0.067665428 0.10720689 -0.002006433
0.066686928 0.10710501 -0.0023628767
0.065640658 0.10698427 -0.0027977121
0.064468235 0.10682855 -0.0033776283
0.063453563 0.10671663 -0.0037758839
0.062640086 0.10666043 -0.0039419914
0.061738282 0.10657974 -0.004210222
0.060874932 0.10650966 -0.0044339309
0.060024925 0.10644326 -0.0046423771
0.059211984 0.10638727 -0.0048079882
0.058482625 0.10635432 -0.0048774574
0.057784498 0.10632994 -0.0049106637
0.057110444 0.10631231 -0.0049161916
0.05648949 0.1063094 -0.004860613
0.055874467 0.10630812 -0.0047980901
0.055270553 0.10630999 -0.0047227363
0.054689266 0.10631812 -0.0046214601
0.05411458 0.10632803 -0.0045124148
0.053570285 0.10634631 -0.004368525
0.053004548 0.10635862 -0.0042492603
0.052460872 0.10637709 -0.0041044056
0.051941752 0.10640244 -0.0039313575
0.051447682 0.10643469 -0.0037295409
0.050964311 0.10646988 -0.0035154051
0.050486378 0.10650661 -0.0032950107
0.05001317 0.10654456 -0.0030689
0.049550161 0.10658541 -0.0028312646
0.049121805 0.10663585 -0.0025536069
0.048688509 0.10668499 -0.0022816183
0.04824803 0.10673207 -0.0020180882
0.047803201 0.10677788 -0.0017594238
0.047352463 0.10682214 -0.0015075079
0.046899676 0.10686581 -0.0012580547
0.046465576 0.10691454 -0.00098697247
0.046060704 0.10697152 -0.00068231788
0.045663007 0.10703058 -0.00036920668
0.045284681 0.10709477 -3.3943561e-05
0.044969112 0.10717652 0.0003736233
0.044623673 0.10725003 0.00074696087
0.044289276 0.10732634 0.0011328553
0.044014081 0.1074192 0.0015871744
0.04373204 0.10751021 0.0020333489
0.043455176 0.10760263 0.0024856115
0.043196283 0.10769995 0.0029585627
0.042972997 0.10780723 0.0034726348
0.04275059 0.10791468 0.003987629
0.042520486 0.10802007 0.0044938526
0.042284012 0.10812361 0.0049926257
0.042063832 0.10823178 0.0055101519
0.041873634 0.10834816 0.0060622897
0.041648827 0.10845498 0.0065746903
0.041471519 0.10857496 0.0071416106
0.041273393 0.10868921 0.0076847449
0.041048698 0.10879598 0.0081970207
0.040855668 0.10891152 0.008745987
0.040690675 0.10903502 0.0093271881
0.040482126 0.1091464 0.0098582068
0.040277585 0.10925881 0.010393805
0.040183775 0.10940188 0.011057183
0.040091723 0.10954555 0.011722349
0.021894673 0.1061958 -0.0015389743
0.020702859 0.10603481 -0.0021413853
0.019542716 0.10588253 -0.0027072104
0.018706763 0.1058202 -0.0028993627
0.017916735 0.1057704 -0.0030386546
0.017233316 0.10575016 -0.0030549821
0.016505532 0.10571775 -0.0031225043
0.015638366 0.10564654 -0.003350677
0.014737168 0.10556599 -0.0036181244
0.014024581 0.10553767 -0.003668074
0.013385861 0.10552989 -0.0036329138
0.012760261 0.10552574 -0.0035826578
0.012112265 0.1055152 -0.0035582194
0.01152653 0.10552207 -0.003461906
0.010946359 0.10553047 -0.003359311
0.010311487 0.10552368 -0.0033196525
0.009600048 0.10549574 -0.00336834
0.0089408867 0.10548232 -0.0033567471
0.0083665606 0.10549235 -0.0032473782
0.0078082778 0.10550668 -0.0031194903
0.0072777546 0.1055288 -0.002959619
0.0067588994 0.10555421 -0.0027863292
0.0062695029 0.10558777 -0.0025789954
0.0057833241 0.10562222 -0.0023680651
0.0053052939 0.10565889 -0.0021476573
0.0048269094 0.10569546 -0.0019276616
0.0043145083 0.10572258 -0.0017468485
0.0037397088 0.1057325 -0.0016380613
0.0030936049 0.10572258 -0.0016114365
0.0024951659 0.10572599 -0.0015297434
0.0020004502 0.10575803 -0.0013286894
0.0015004321 0.10578845 -0.0011336803
0.0010405449 0.1058302 -0.00089231681
0.00062292867 0.10588361 -0.00060234475
0.00022095517 0.10594141 -0.00029418879
-0.00018024641 0.10599928 1.4587009e-05
-0.00054784713 0.10606664 0.00036234275
-0.00091122108 0.10613497 0.00071489322
-0.0012806336 0.10620183 0.001060514
-0.0016441488 0.10627029 0.0014128842
-0.0020455909 0.10632816 0.00172155
-0.0024667426 0.10638064 0.0020075566
-0.0029043374 0.10642843 0.0022744881
-0.0033012589 0.1064876 0.0025883557
-0.0036596006 0.10655744 0.0029466392
-0.0039884602 0.10663548 0.0033390475
-0.0043107532 0.10671524 0.0037389717
-0.0046273083 0.10679667 0.0041454723
-0.0049115648 0.10688692 0.0045891097
-0.0052033351 0.10697531 0.005024231
-0.0054996177 0.1070622 0.005454137
-0.0057811178 0.10715339 0.0059010675
-0.0060911011 0.10723665 0.0063151778
-0.0064401287 0.107309 0.0066841836
-0.0067720246 0.10738625 0.007073048
-0.0070710564 0.10747237 0.0074997288
-0.0073584309 0.10756194 0.007939918
-0.007609406 0.10766152 0.0084219724
-0.0078670802 0.10775925 0.0088963564
-0.008102458 0.10786308 0.0093964152
-0.0083073927 0.10797545 0.009931704
-0.0085208621 0.10808539 0.010457003
-0.0087054335 0.10820337 0.011015644
-0.008930943 0.10831004 0.011527096
-0.0091299014 0.10842397 0.012069123
-0.009406331 0.1085165 0.012521891
-0.0096908379 0.10860672 0.01296539
-0.010044239 0.10867804 0.013329394
-0.010473059 0.10872826 0.013606475
-0.010931444 0.10877042 0.013849608
-0.011360699 0.10882059 0.014126153
-0.011765966 0.10887742 0.014430411
-0.012118271 0.10894901 0.014795699
-0.012423191 0.10903354 0.01521563
-0.012718775 0.10912082 0.015646366
-0.012990027 0.10921465 0.016105041
-0.013302726 0.10929721 0.016516019
-0.013651066 0.10936984 0.016885856
-0.014061549 0.10942519 0.01718414
-0.014580177 0.1094506 0.017357768
-0.015021204 0.1094976 0.017620724
-0.01543537 0.10955197 0.017914759
-0.020327413 0.10938051 0.017675649
-0.021416333 0.10924798 0.017191773
-0.022370089 0.10915283 0.016863784
-0.023268122 0.10907317 0.016600063
-0.02422001 0.10897866 0.016274262
-0.029436268 0.10770283 0.01103298
-0.030639896 0.10753857 0.01041696
-0.031834632 0.10737664 0.0098111955
-0.032756209 0.1072905 0.0095202513
-0.03375306 0.10718351 0.0091426317
-0.034736685 0.10708007 0.0087802922
-0.035678111 0.10698836 0.0084664812
-0.036666445 0.10688368 0.0080986302
-0.037586935 0.10679789 0.0078090588
-0.038415387 0.10673743 0.0076254616
-0.039048485 0.1067311 0.0076670265
-0.039618909 0.10674237 0.0077811414
-0.040188082 0.10675367 0.0078962473
-0.040929772 0.10671738 0.0078128837
-0.041817956 0.10664046 0.0075604431
-0.042650491 0.10657894 0.0073722042
-0.043348774 0.10655455 0.0073386193
-0.044040918 0.10653195 0.0073123402
-0.044716328 0.10651391 0.0073050172
-0.045383103 0.10649835 0.0073080203
-0.045974612 0.10650356 0.0073975539
-0.04656335 0.1065096 0.0074902996
-0.047199234 0.1065026 0.0075288233
-0.047847934 0.10649205 0.007552417
-0.048468471 0.10648908 0.007608626
-0.049080357 0.10648876 0.0076745893
-0.049620494 0.10650818 0.0078233983
-0.050151445 0.10653012 0.0079827607
-0.050684728 0.1065516 0.0081394101
-0.051201984 0.10657745 0.0083147688
-0.051719539 0.10660315 0.0084894644
-0.052226312 0.10663183 0.0086767897
-0.052699447 0.10666987 0.0089026755
-0.053187609 0.10670386 0.0091114109
-0.0536649 0.10674068 0.0093326718
-0.054124519 0.10678249 0.009574376
-0.054572865 0.1068273 0.0098288972
-0.05503542 0.10686826 0.010067121
-0.0555145 0.10690471 0.010286255
-0.055957437 0.10695103 0.010547121
-0.056434423 0.10698801 0.010768705
-0.056868851 0.10703677 0.011039338
-0.057305805 0.10708494 0.011307016
-0.05773396 0.1071353 0.011584961
-0.058146864 0.10719011 0.011880526
-0.058565147 0.10724328 0.012169654
-0.058960348 0.10730289 0.012485569
-0.0593426 0.1073661 0.01281632
-0.059714049 0.10743231 0.013159586
-0.060054578 0.1075071 0.013538475
-0.060368016 0.10758929 0.013948516
-0.060670562 0.10767473 0.014371223
-0.060967237 0.10776167 0.014800712
-0.061288752 0.10784157 0.015201467
-0.061610006 0.10792169 0.015602453
-0.061915286 0.10800625 0.016022066
-0.062177457 0.10810266 0.016491231
-0.062419519 0.10820477 0.016983595
-0.06258864 0.10832694 0.017559951
-0.062809065 0.10843495 0.018077329
-0.063057981 0.1085351 0.018561857
-0.063343115 0.10862528 0.019004466
-0.063656241 0.10870764 0.019414935
-0.063941196 0.10879778 0.019858031
-0.064153664 0.10890804 0.020384425
-0.064351879 0.10902218 0.020927368
-0.064489812 0.10915307 0.02153972
-0.064602509 0.10929106 0.022181284
-0.064703248 0.10943222 0.022836532
-0.064802289 0.1095738 0.02349362
-0.064894304 0.10971742 0.024159111
-0.064982355 0.1098621 0.024828939
-0.064997882 0.11002691 0.02558249
-0.064926155 0.11021584 0.026436567
0.10099074 0.11418442 0.022224501
0.10011788 0.11410516 0.02197312
0.099260837 0.11403053 0.021740371
0.09840098 0.11395529 0.021504454
0.097435869 0.11384844 0.021141607
0.096655764 0.11379685 0.021001838
0.096025631 0.11379002 0.021043399
0.09544196 0.11379695 0.021140872
0.094895914 0.1138153 0.021283923
0.094390184 0.11384556 0.02147552
0.093908682 0.113883 0.021696419
0.093462467 0.11393101 0.021960163
0.093042172 0.11398681 0.022254987
0.092642136 0.1140486 0.02257432
0.092292987 0.11412551 0.022955012
0.091987796 0.11421553 0.023388768
0.091693282 0.11430878 0.023835488
0.069326825 0.1080289 -0.0018036497
0.068397872 0.10794033 -0.0021030097
0.067460701 0.10784951 -0.0024118416
0.066533625 0.10776156 -0.0027088048
0.065296747 0.1075874 -0.0033630782
0.0641497 0.10743836 -0.0039137634
0.063173436 0.10733668 -0.0042674621
0.062382139 0.1072864 -0.0044081178
0.061524913 0.1072178 -0.0046247472
0.06073793 0.10716877 -0.0047605336
0.059973247 0.10712588 -0.0048704846
0.059220798 0.10708632 -0.0049664765
0.058504984 0.10705711 -0.0050200177
0.057823673 0.10703732 -0.0050338698
0.05714637 0.10701863 -0.0050433604
0.056540854 0.10702007 -0.0049697733
0.055946551 0.10702455 -0.0048834505
0.055353463 0.10702915 -0.0047957459
0.054785617 0.10704117 -0.0046788692
0.054230452 0.10705645 -0.0045473608
0.053690478 0.10707597 -0.0043983893
0.053115882 0.10708586 -0.0042892406
0.052572452 0.10710451 -0.0041443524
0.052054524 0.10713015 -0.0039698728
0.051546045 0.10715846 -0.0037845983
0.0510782 0.10719802 -0.0035525532
0.050601773 0.10723522 -0.0033304319
0.050142184 0.10727712 -0.0030886601
0.049686529 0.10731997 -0.0028425045
0.049275883 0.10737551 -0.0025446531
0.048846357 0.1074257 -0.0022683919
0.048420668 0.10747702 -0.0019875446
0.047966003 0.10752021 -0.0017405155
0.047515139 0.10756451 -0.0014887876
0.047090143 0.10761596 -0.0012071801
0.0466782 0.10767113 -0.00091066933
0.046265677 0.10772615 -0.00061482016
0.045886263 0.1077902 -0.00028078858
0.045520678 0.10785826 6.9180736e-05
0.045206323 0.10794043 0.00047815716
0.044869229 0.10801642 0.00086094893
0.044537678 0.10809376 0.0012500978
0.044249885 0.10818338 0.0016897046
0.043979324 0.10827786 0.002149154
0.043716319 0.10837429 0.0026174081
0.043462329 0.10847323 0.003095849
0.043209106 0.10857245 0.0035754151
0.043000616 0.10868409 0.0041063423
0.042799808 0.10879777 0.0046461695
0.042601041 0.10891216 0.0051883548
0.042376824 0.10901937 0.005701168
0.042165361 0.1091302 0.0062288488
0.041926235 0.10923334 0.0067245089
0.041747443 0.10935324 0.0072896425
0.041543141 0.10946606 0.0078255888
0.041375317 0.109589 0.0084033823
0.04120069 0.10970999 0.008973334
0.040997989 0.1098232 0.0095109679
0.040800512 0.10993797 0.010054658
0.040684387 0.11007517 0.010692171
0.040561706 0.11021071 0.011322157
0.040566787 0.1103816 0.012099185
0.021436114 0.10676283 -0.0022352394
0.020439763 0.10665487 -0.0026120932
0.019349918 0.10652173 -0.0030967337
0.018539449 0.10646601 -0.0032595103
0.017755968 0.10641833 -0.0033912365
0.017055066 0.10639291 -0.0034276731
0.016317198 0.10635793 -0.0035068428
0.015497182 0.1062998 -0.0036807179
0.014642542 0.10623101 -0.0038941307
0.013927114 0.10620228 -0.0039474671
0.013285723 0.10619383 -0.0039153523
0.012637721 0.10618277 -0.0038907651
0.012019595 0.10618082 -0.0038319242
0.01142138 0.10618421 -0.0037500609
0.010832569 0.10618994 -0.0036573408
0.01020235 0.10618452 -0.0036124003
0.0095153889 0.10616329 -0.0036327736
0.0088479584 0.10614717 -0.0036306244
0.0082753142 0.10615788 -0.0035193763
0.0077277697 0.10617585 -0.0033792527
0.0071909004 0.10619569 -0.0032265778
0.0066912305 0.10622625 -0.003031129
0.0062010321 0.10626027 -0.0028249288
0.0057199625 0.10629566 -0.002607944
0.0052678962 0.10633974 -0.0023576869
0.0048085926 0.10638204 -0.0021157903
0.004309318 0.10641265 -0.0019199266
0.0037721808 0.10643345 -0.0017677899
0.0031448544 0.1064282 -0.0017192601
0.0025855328 0.10644281 -0.0015927026
0.0020946884 0.10647549 -0.0013870561
0.001616443 0.10651194 -0.0011668522
0.0011568153 0.10655422 -0.00092537398
0.00073316146 0.10660561 -0.00064233341
0.00033101675 0.106664 -0.00033454175
-5.5086872e-05 0.10672625 -8.2933748e-06
-0.00041518165 0.1067961 0.00034802433
-0.00077502511 0.10686497 0.00070467184
-0.0011210215 0.10693897 0.0010771154
-0.001475657 0.10700975 0.001439724
-0.0018629741 0.1070715 0.0017646617
-0.0022644501 0.10713012 0.0020730954
-0.0026775319 0.10718442 0.0023684017
-0.0030774812 0.10724258 0.0026787713
-0.0034584037 0.10730679 0.0030109796
-0.0038050588 0.10737953 0.0033828637
-0.0041283797 0.10745984 0.0037813769
-0.0044386224 0.10754289 0.0041951477
-0.004711519 0.10763676 0.0046518706
-0.0050005587 0.10772597 0.0050900644
-0.0052856109 0.10781636 0.0055329064
-0.0055437251 0.10791422 0.0060067009
-0.005837183 0.10800216 0.0064396537
-0.0061812489 0.10807622 0.0068145278
-0.0065262937 0.10814978 0.0071880328
-0.006841918 0.10823169 0.0075955791
-0.0071380683 0.108319 0.0080255726
-0.0073887883 0.10841892 0.0085078971
-0.0076223533 0.10852361 0.0090100775
-0.0078383246 0.10863314 0.0095323334
-0.0080238534 0.10875113 0.010089795
-0.0082420157 0.10886011 0.010609598
-0.008430128 0.10897735 0.011164119
-0.0086646676 0.10908179 0.011665104
-0.008886788 0.10918964 0.012180349
-0.0091611519 0.10928299 0.012635525
-0.0094867945 0.10936203 0.013031411
-0.0098394966 0.10943366 0.013396219
-0.010263536 0.10948537 0.013678823
-0.010782594 0.10951065 0.013851871
-0.011259887 0.10954767 0.014073106
-0.011671066 0.10960298 0.014370468
-0.012019124 0.10967581 0.014740715
-0.012322268 0.10976121 0.015162572
-0.012604193 0.10985241 0.015608957
-0.012835498 0.10995775 0.016113555
-0.013089051 0.11005682 0.016592702
-0.013382219 0.11014495 0.01702605
-0.013778451 0.11020441 0.01734075
-0.021157969 0.1098498 0.01654885
-0.021706978 0.10986678 0.016687455
-0.022580884 0.10979361 0.016451661
-0.023497041 0.10970857 0.016166965
-0.024411773 0.10962395 0.015884072
-0.029823158 0.10829031 0.01041919
-0.030969411 0.10814119 0.0098695112
-0.032019816 0.10801928 0.0094300378
-0.032884955 0.10794856 0.0092043653
-0.033775598 0.10787051 0.0089491932
-0.034652397 0.10779654 0.0087100174
-0.035622306 0.1076963 0.0083635394
-0.036626272 0.10758662 0.0079778228
-0.037572816 0.10749401 0.0076580639
-0.038398676 0.10743376 0.0074776602
-0.039093614 0.10741056 0.0074480209
-0.039702691 0.10741089 0.0075172833
-0.040284432 0.10741836 0.0076183858
-0.041115239 0.10735723 0.0074321954
-0.041993946 0.10728254 0.0071907607
-0.042760506 0.10723908 0.0070786695
-0.043440461 0.10722033 0.0070661376
-0.044101477 0.10720562 0.0070758271
-0.04474739 0.10719645 0.0071024369
-0.045406289 0.10718252 0.0071144421
-0.04600545 0.10718545 0.0071952427
-0.046603128 0.10718901 0.0072777742
-0.047241308 0.10718168 0.0073135137
-0.047847278 0.10718218 0.007386636
-0.048436485 0.10718883 0.0074786572
-0.049035124 0.10719196 0.0075600194
-0.049580529 0.1072097 0.007702841
-0.050104231 0.10723343 0.0078706471
-0.050637253 0.10725564 0.0080273198
-0.05114083 0.10728478 0.0082183955
-0.051644981 0.10731461 0.0084085446
-0.052168697 0.10733832 0.0085764388
-0.05265709 0.107372 0.0087847924
-0.053136297 0.10740902 0.0090036653
-0.053620271 0.10744339 0.0092173489
-0.054093473 0.10748165 0.0094433557
-0.054547623 0.10752495 0.0096912161
-0.054999463 0.10756903 0.0099418098
-0.055464454 0.10760921 0.010177169
-0.055902876 0.10765734 0.010443148
-0.05635117 0.10770281 0.010697697
-0.056800805 0.1077467 0.010950947
-0.057233378 0.10779683 0.011223545
-0.057642743 0.10785249 0.011523063
-0.058070749 0.10790338 0.011800964
-0.058486976 0.10795657 0.012092719
-0.058858305 0.10802323 0.01243603
-0.059218831 0.10809291 0.012791745
-0.059599303 0.10815628 0.01312474
-0.059952557 0.10822754 0.013488814
-0.060277238 0.10830737 0.013885842
-0.060564093 0.10839698 0.014326433
-0.060857214 0.1084854 0.014759997
-0.061167479 0.10856845 0.015173577
-0.061473154 0.10865326 0.015592639
-0.0617778 0.10873845 0.016012678
-0.062036119 0.10883562 0.016486404
-0.062263019 0.10894236 0.016996119
-0.062466778 0.10905534 0.017532649
-0.062716104 0.10915565 0.018016487
-0.062989518 0.10924932 0.018472726
-0.063298427 0.10933299 0.018887958
-0.063592941 0.10942079 0.019319801
-0.063830897 0.10952414 0.019816745
-0.064026147 0.10963946 0.020362983
-0.064203948 0.10975967 0.020929478
-0.064331479 0.10989379 0.021553637
-0.064445436 0.11003173 0.022193637
-0.064527221 0.11017853 0.022870626
-0.064606011 0.11032613 0.023551006
-0.064659804 0.11048067 0.024260262
-0.064679578 0.11064475 0.025008775
-0.064718068 0.11080371 0.025735626
-0.064700961 0.1109779 0.026526712
0.10168649 0.1149279 0.022090582
0.10083666 0.11485519 0.02186661
0.099791653 0.1147244 0.021407379
0.098809339 0.11461217 0.021023646
0.09789826 0.11452138 0.020725932
0.097012497 0.11443803 0.020458769
0.096311696 0.11441003 0.020414911
0.095692486 0.11440628 0.02046953
0.095123641 0.11441776 0.020584999
0.09457323 0.11443464 0.020722739
0.094096042 0.11447357 0.020948758
0.093599401 0.11450652 0.021151464
0.093146756 0.11455275 0.021407343
0.092726283 0.11460847 0.02170201
0.092349023 0.11467718 0.022048809
0.0920422 0.11476706 0.022480454
0.091820806 0.11488223 0.023015467
0.071223974 0.10908742 -0.00055837026
0.069419965 0.10875502 -0.0018658219
0.06829574 0.10861113 -0.0023899276
0.067285866 0.10850019 -0.002782627
0.06623593 0.10837767 -0.003221031
0.064782932 0.10814296 -0.0041242572
0.063816443 0.10804308 -0.0044664778
0.06293758 0.10796837 -0.004708061
0.062171318 0.10792502 -0.0048198351
0.061400183 0.10788081 -0.0049373214
0.060681514 0.10784993 -0.0049941046
0.059977256 0.10782433 -0.0050346213
0.059277639 0.1077994 -0.005069552
0.058578663 0.10777471 -0.0051039443
0.057914935 0.10775904 -0.005097304
0.057247199 0.10774285 -0.0050953804
0.056606412 0.10773451 -0.0050627114
0.056020968 0.1077416 -0.0049660951
0.055435181 0.10774843 -0.0048700026
0.054883711 0.10776491 -0.0047344286
0.054337427 0.10778225 -0.0045926073
0.05381643 0.10780706 -0.0044216439
0.053260878 0.10782307 -0.0042907945
0.052687563 0.1078326 -0.00418009
0.052178845 0.10786084 -0.003994979
0.05167076 0.10788919 -0.0038092982
0.051178403 0.10792241 -0.0036055846
0.050718062 0.10796441 -0.0033650491
0.050273128 0.10801011 -0.003106406
0.049816959 0.10805357 -0.0028610618
0.049390808 0.10810415 -0.0025807277
0.048979715 0.10816013 -0.002283378
0.048580997 0.10821882 -0.0019716183
0.048155472 0.10827052 -0.0016908189
0.047706738 0.10831575 -0.0014368546
0.047291376 0.10836928 -0.0011440063
0.046904422 0.10843217 -0.00081903883
0.046506032 0.10849098 -0.00050666474
0.046136737 0.10855829 -0.00016114401
0.045806043 0.10863593 0.00022892443
0.045470156 0.10871261 0.00061305158
0.045144908 0.10879124 0.0010096092
0.044862531 0.10888254 0.0014555033
0.044594258 0.10897812 0.0019174301
0.044322312 0.10907228 0.0023751371
0.044054464 0.10916792 0.0028375457
0.043770693 0.10925879 0.0032817875
0.043531694 0.10936201 0.0037775976
0.043340102 0.10947876 0.0043279449
0.043137424 0.10959241 0.0048656217
0.042921312 0.10970218 0.0053877318
0.042711303 0.10981369 0.0059168166
0.042488329 0.10992156 0.0064310678
0.04223346 0.11002055 0.0069085001
0.042062208 0.11014288 0.0074823392
0.041861005 0.11025672 0.0080215596
0.041691348 0.11037948 0.0085972482
0.041503705 0.11049724 0.0091521507
0.041311055 0.1106135 0.0097013712
0.041149318 0.11073849 0.01028617
0.041077465 0.11088854 0.010974428
0.040994808 0.11103555 0.011650379
0.022187069 0.10749475 -0.002308503
0.021185864 0.1073861 -0.0026910773
0.020214489 0.10728537 -0.0030391095
0.019211339 0.10717603 -0.0034238314
0.018402403 0.1071209 -0.0035848645
0.017622424 0.10707356 -0.0037123512
0.01689457 0.1070402 -0.0037798276
0.016162256 0.10700634 -0.0038524359
0.01542185 0.10697053 -0.0039344905
0.014616684 0.10691577 -0.0040910449
0.013873876 0.106879 -0.0041758297
0.013195305 0.10685988 -0.0041865231
0.012548276 0.10684928 -0.0041607586
0.011941101 0.10685029 -0.0040893345
0.011348108 0.10685551 -0.0040015192
0.010743359 0.1068565 -0.0039270911
0.010119944 0.10685363 -0.0038743825
0.0094750095 0.10684381 -0.0038463124
0.0087996302 0.10682575 -0.0038534543
0.0082189981 0.10683356 -0.0037512085
0.0076514422 0.10684516 -0.0036339923
0.0071168249 0.10686686 -0.0034789483
0.0066281063 0.10690042 -0.0032709225
0.0061239772 0.10693028 -0.003080688
0.0056528742 0.10696834 -0.0028521905
0.0052096611 0.10701552 -0.0025919364
0.0047563966 0.10705911 -0.0023429997
0.0042724907 0.10709441 -0.0021295196
0.0037493599 0.10711835 -0.001961044
0.0031644658 0.10712554 -0.0018638669
0.0026459147 0.10715122 -0.0016901873
0.0021717895 0.10718906 -0.0014653391
0.0017134103 0.10723084 -0.0012221909
