# .PCD v0.7 - Point Cloud Data file format
VERSION 0.7
FIELDS x y z
SIZE 4 4 4
TYPE F F F
COUNT 1 1 1
WIDTH 1293
HEIGHT 1
VIEWPOINT 0 0 0 1 0 0 0
POINTS 1293
DATA ascii
-0.0012562278 0.080598399 0.012032667
-0.00168349 0.08049085 0.011756915
-0.0020888878 0.080374248 0.011440188
-0.0024953228 0.080257989 0.011125153
-0.0029555142 0.080163889 0.01091187
-0.0034227346 0.08007282 0.010711997
-0.003904585 0.07998772 0.010539797
-0.0043939059 0.079905741 0.010381701
-0.0048953891 0.079828784 0.010246644
-0.0054149409 0.079759263 0.010145865
-0.0059295474 0.079687692 0.0100355
-0.0063998424 0.07959792 0.0098413462
-0.0067797038 0.079470612 0.0094761811
-0.0069884202 0.079272762 0.0087870797
-0.0071862559 0.079070255 0.0080773998
-0.0073554837 0.078856044 0.007313591
-0.0076234699 0.078682534 0.0067367144
-0.0079217041 0.078521565 0.0062169051
-0.0082442444 0.078370653 0.0057432042
-0.0085794311 0.078225099 0.0052935635
-0.0089248782 0.078083687 0.0048631565
-0.0093167908 0.077961385 0.0045208135
-0.0097074872 0.077838644 0.0041759503
-0.010117431 0.077723868 0.0038677605
-0.010546337 0.07761687 0.0035953131
-0.011006979 0.077523082 0.0033829887
-0.011511398 0.07744728 0.0032534462
-0.012057275 0.077388585 0.0032022882
-0.01269637 0.077368565 0.0033276819
-0.013307362 0.077336892 0.0033998415
-0.013860789 0.077281304 0.0033630414
-0.014378263 0.077211089 0.0032583866
-0.014892228 0.077139176 0.0031467599
-0.015426292 0.077075675 0.0030734204
-0.015966062 0.077014588 0.0030109074
-0.016397975 0.076908782 0.0027441178
-0.016759802 0.076774061 0.0023447587
-0.017091371 0.076626979 0.0018880819
-0.017473772 0.076500781 0.001527713
-0.017971963 0.076422431 0.0013864799
-0.018496033 0.076354831 0.0012940922
-0.019070357 0.076308057 0.0012968373
-0.019718882 0.076291755 0.0014400822
-0.020368196 0.07627596 0.0015846594
-0.021012913 0.076258063 0.0017206381
-0.021687675 0.076252736 0.0019136
-0.022373583 0.076251924 0.0021275512
-0.023049049 0.076246925 0.0023215802
-0.030388921 0.077006377 0.0075389249
-0.030770309 0.076879837 0.0071766023
-0.031222988 0.076782621 0.0069492371
-0.031714361 0.076701574 0.0067950082
-0.032185305 0.076612011 0.0066020875
-0.032648228 0.076518998 0.0063940776
-0.033124067 0.076431431 0.0062104729
-0.033633806 0.076357916 0.0060911141
-0.034193397 0.07630498 0.0060659605
-0.034772843 0.076260224 0.0060784193
-0.035367444 0.076221831 0.0061195088
-0.035957824 0.076181501 0.0061527458
-0.036556799 0.076144792 0.0062020011
-0.037185956 0.07612066 0.0063086855
-0.0379434 0.076149449 0.0066578905
-0.038665198 0.076163419 0.0069398079
-0.039315641 0.076148063 0.0070865103
-0.039957847 0.076129243 0.0072178626
-0.040669329 0.076139033 0.0074801217
-0.041410182 0.076160982 0.0077979979
-0.042162653 0.076187663 0.0081378883
-0.042877842 0.076199055 0.008407372
-0.043559309 0.076196574 0.0086127818
-0.044206053 0.076179542 0.0087525714
-0.0449179 0.076189525 0.0090156812
-0.045630839 0.076199941 0.0092808865
-0.046287186 0.07618694 0.0094389226
-0.046963502 0.076182179 0.0096343542
-0.04767767 0.076193146 0.0099017639
-0.048281379 0.076158449 0.0099601746
-0.048774607 0.076078035 0.0098094502
-0.049384601 0.076045886 0.0098798461
-0.050011814 0.076020874 0.0099825673
-0.050672285 0.076009542 0.010148248
-0.051290274 0.075980827 0.010233877
-0.051913518 0.075954102 0.010329203
-0.053265683 0.075944372 0.010719975
-0.053831939 0.075894333 0.01070734
-0.054470159 0.075869478 0.01081373
-0.055155661 0.075859547 0.010992427
-0.055737201 0.075809561 0.010984316
-0.056281131 0.075744882 0.010909133
-0.056808304 0.075673662 0.010803808
-0.057363186 0.075613208 0.010748163
-0.057887021 0.075540729 0.010636859
-0.0583914 0.075460695 0.010490721
-0.05891889 0.07538972 0.010385911
-0.059456646 0.075322635 0.010299589
-0.059974555 0.075247943 0.010177618
-0.060470384 0.075164527 0.010016129
-0.060983468 0.075087979 0.0098855663
0.096277282 0.096581362 0.039858259
0.096119046 0.09634836 0.039030373
0.096006624 0.096092768 0.038104665
0.095826007 0.095870823 0.037324786
0.095677525 0.095633008 0.036476221
0.095557027 0.095381528 0.035567872
0.095414847 0.095140576 0.034705818
0.095261097 0.094905309 0.03386838
0.09506049 0.094693102 0.033130728
0.094835125 0.09449324 0.032446228
0.094593816 0.094301179 0.031795781
0.094304085 0.094133012 0.031248568
0.093971737 0.093985647 0.030791933
0.093621179 0.093847297 0.030374335
0.093252547 0.09371803 0.029995268
0.09290044 0.093580469 0.029581029
0.092596032 0.093419343 0.02906502
0.092320994 0.093243852 0.02848655
0.09208066 0.09305124 0.027833926
0.091804676 0.092876263 0.027257269
0.091508701 0.092711218 0.026723567
0.09121874 0.09254311 0.026176695
0.090865128 0.092406273 0.025765782
0.090457805 0.09229584 0.025469262
0.090018027 0.092201583 0.025242008
0.089554071 0.092119135 0.025066307
0.089064993 0.092049092 0.024944633
0.088557392 0.091988221 0.024862202
0.088039868 0.091932058 0.024800716
0.087510087 0.091882184 0.024765985
0.08693599 0.091853902 0.024824904
0.08637502 0.091819264 0.024856457
0.085803784 0.0917897 0.024909697
0.085273258 0.091740027 0.024876237
0.080239855 0.092353277 0.028622214
0.079575032 0.092369728 0.028875114
0.078938395 0.092372283 0.029067867
0.078325845 0.092363082 0.029209273
0.077706479 0.092357069 0.029364849
0.07711491 0.092337564 0.029461673
0.076524183 0.092317581 0.029556638
0.075904705 0.092311703 0.029713072
0.075313449 0.092291921 0.029808832
0.074697055 0.09228456 0.029958524
0.074135356 0.092250258 0.029991517
0.073616602 0.092194811 0.029932687
0.073068149 0.092154019 0.029937265
0.072564162 0.092091255 0.029847246
0.072054394 0.092031263 0.029769264
0.071529478 0.091978937 0.02972405
0.071038254 0.091909878 0.029606411
0.070588499 0.091820523 0.029400611
0.070161343 0.091719896 0.02914652
0.069761127 0.091606133 0.028834755
0.069328517 0.091508262 0.028592378
0.068860799 0.09142758 0.02842474
0.068385407 0.091350809 0.028273622
0.067904301 0.091271363 0.02812024
0.067395814 0.09120249 0.028017908
0.066903919 0.091126293 0.02788268
0.066495053 0.091013275 0.027580617
0.066112854 0.090888418 0.027224818
0.065733403 0.090762362 0.026863806
0.065349624 0.090638213 0.026511261
0.064968742 0.090512633 0.026152859
0.064580277 0.090390563 0.025809798
0.064190932 0.090268888 0.025468586
0.06382373 0.09013734 0.025083048
0.063477948 0.089996353 0.024653994
0.063158013 0.089843832 0.024173394
0.062865421 0.089679107 0.023637835
0.06254369 0.089527458 0.023160981
0.062265065 0.089356735 0.022597492
0.061998863 0.089180127 0.022008743
0.061706513 0.089015469 0.021472871
0.061448932 0.088835262 0.020867137
0.061190989 0.088655263 0.0202621
0.060928363 0.088477299 0.019666342
0.060693745 0.088286854 0.019014386
0.060495026 0.088080592 0.018290529
0.060280621 0.08788009 0.017595259
0.060007036 0.087703943 0.017013539
0.059677985 0.087555058 0.016550083
0.062300552 0.08595264 0.0097899735
0.062114347 0.085733429 0.0090216491
0.062055208 0.085451648 0.0079824002
0.061970498 0.085182406 0.0069977571
0.061819289 0.084945925 0.006155014
0.061619911 0.084733196 0.0054150135
0.061427157 0.08451727 0.0046608001
0.061147619 0.084344007 0.0040917392
0.060850255 0.084179498 0.0035607964
0.060508691 0.084036857 0.0031239977
0.060130063 0.08391235 0.0027665051
0.059741467 0.083792783 0.0024302865
0.05934513 0.083676994 0.0021103171
0.058950096 0.083560675 0.0017876092
0.058578402 0.083432823 0.0014152451
0.058221415 0.08329764 0.0010114392
0.057854015 0.083167687 0.00062996603
0.057460614 0.083050452 0.00030373823
0.057042509 0.082945406 3.0442927e-05
0.056621496 0.082841814 -0.00023682707
0.056180138 0.082748331 -0.00046077761
0.055736307 0.082656041 -0.00067901256
0.055292249 0.082563832 -0.00089721254
0.054847974 0.082471684 -0.0011147002
0.05438773 0.082387298 -0.0012984236
0.053947121 0.082293339 -0.0015237972
0.053472184 0.082216345 -0.0016758421
0.052981585 0.082146958 -0.0017945494
0.052480813 0.082082741 -0.0018916283
0.051980745 0.082018018 -0.0019901411
0.05148603 0.081950709 -0.0021001271
0.050994944 0.081881724 -0.0022177759
0.050488729 0.081819974 -0.002303231
0.049962323 0.081768401 -0.0023456244
0.049405072 0.081731863 -0.0023222296
0.048816722 0.081710674 -0.0022325008
0.048207637 0.081699714 -0.0020983077
0.047621012 0.08167778 -0.0020121231
0.047036946 0.081654534 -0.0019314953
0.046454854 0.081630126 -0.0018554077
0.045873269 0.081605673 -0.0017797773
0.045301419 0.081570767 -0.0017393385
0.044736661 0.08152701 -0.0017285867
0.044173285 0.081482679 -0.0017206143
0.043591637 0.081446216 -0.0016758126
0.043046914 0.081393719 -0.0017053164
0.042493291 0.081344895 -0.0017166508
0.041916359 0.081306353 -0.0016815917
0.041337937 0.081268683 -0.0016431488
0.040747743 0.081236176 -0.0015814035
0.04142518 0.080640815 -0.0040640617
0.041103423 0.080489121 -0.0045410399
0.040787488 0.080334805 -0.0050296476
0.040454362 0.080188237 -0.0054838732
0.040138114 0.080033988 -0.0059719086
0.039807733 0.079886176 -0.0064315852
0.03947679 0.079738468 -0.0068900092
0.039115623 0.07960432 -0.0072880452
0.038767837 0.079464145 -0.0077128648
0.038347553 0.079356208 -0.0079919947
0.03789375 0.079263061 -0.0082039554
0.037411749 0.079182588 -0.0083591053
0.036902856 0.079113826 -0.0084604211
0.036348876 0.079065196 -0.0084714442
0.035789631 0.079019018 -0.0084716175
0.031655565 0.079381734 -0.0057870769
0.031088583 0.079338916 -0.0057718121
0.030485183 0.079312205 -0.0056834705
0.003841216 0.082295015 0.014076753
0.0033538656 0.08221256 0.013915021
0.0028786636 0.082124934 0.013730079
0.0024275091 0.082027376 0.013499823
0.0019784877 0.081928894 0.013265358
0.0015129534 0.081837259 0.013062214
0.0010453068 0.081746437 0.012863003
0.00060759438 0.081643321 0.012607286
0.00016804413 0.081540905 0.012354913
-0.0002664522 0.0814365 0.012093134
-0.00068965182 0.081327237 0.011809896
-0.0011002948 0.08121293 0.011502816
-0.0015221396 0.081103154 0.011217148
-0.0019269959 0.080986336 0.010899019
-0.0023556533 0.080879502 0.010626218
-0.0028072062 0.080781892 0.010396528
-0.0032775365 0.080692343 0.010202517
-0.003757824 0.080606855 0.010027212
-0.0042637023 0.080532089 0.0099003464
-0.0047721248 0.080458209 0.0097783152
-0.0052883276 0.080387548 0.0096710809
-0.0057954378 0.080313101 0.0095466934
-0.0062645799 0.080222972 0.0093503017
-0.006642567 0.080095097 0.0089816106
-0.0069074077 0.079920314 0.0083986288
-0.0071235504 0.079725213 0.007723582
-0.0073174508 0.079520896 0.0070065437
-0.007580427 0.079345271 0.0064202887
-0.0078918664 0.079189792 0.0059255273
-0.0082056876 0.079035178 0.0054352852
-0.0085485829 0.07889279 0.0050000702
-0.0089059453 0.078756273 0.0045923507
-0.0093099643 0.078639179 0.004272732
-0.0097063826 0.0785188 0.0039387248
-0.010122449 0.078406714 0.0036422159
-0.010554943 0.078301392 0.0033764981
-0.011022226 0.078210473 0.0031766326
-0.011523582 0.07813371 0.0030412548
-0.012058171 0.078070819 0.0029687646
-0.012689444 0.078047931 0.0030790614
-0.013342236 0.078033879 0.0032303687
-0.013924733 0.077990763 0.003248489
-0.014464096 0.077929713 0.0031849572
-0.01502218 0.077876553 0.0031567693
-0.015657555 0.077855304 0.0032752326
-0.016257614 0.077819407 0.0033266013
-0.016725499 0.077728823 0.0031278771
-0.017152123 0.07762114 0.0028510948
-0.017561797 0.077506274 0.0025423279
-0.017858434 0.077344634 0.0020194745
-0.018206827 0.077204466 0.0015947797
-0.018718991 0.077132076 0.001479724
-0.019238874 0.077063061 0.0013795904
-0.019832253 0.077024564 0.0014182026
-0.020458706 0.07699959 0.0015195725
-0.021059025 0.076963887 0.0015714698
-0.030768979 0.077859335 0.0080192443
-0.031082153 0.077704519 0.0075279525
-0.031508848 0.077596806 0.0072513372
-0.031930529 0.077486977 0.0069650807
-0.032344885 0.077374101 0.006665132
-0.032779023 0.077269465 0.0064026886
-0.033245619 0.077178337 0.0062016095
-0.033757314 0.077105902 0.0060857604
-0.034291446 0.077042647 0.0060123666
-0.034874089 0.076999664 0.0060308347
-0.03544398 0.076951332 0.0060251765
-0.035999719 0.076896943 0.0059926389
-0.036598295 0.076860651 0.0060410085
-0.037223101 0.076835036 0.0061392775
-0.037923742 0.076840997 0.006381168
-0.038583815 0.076830052 0.0065460419
-0.039201308 0.076801434 0.0066303774
-0.039789662 0.076760679 0.0066595417
-0.04040483 0.076731138 0.0067395857
-0.043526042 0.076886877 0.008309165
-0.044259671 0.076906405 0.0086131487
-0.046388388 0.076935269 0.0093889171
-0.04706753 0.076932065 0.0095897168
-0.04777687 0.07694158 0.0098478617
-0.048415184 0.076921672 0.0099715889
-0.049015552 0.076885939 0.010023667
-0.05102066 0.076863535 0.010565579
-0.051615905 0.076825656 0.010607727
-0.052212324 0.076788291 0.010652415
-0.05291415 0.076794818 0.010896262
-0.053517297 0.076760195 0.01095357
-0.054087825 0.076708965 0.010936921
-0.054690074 0.076667257 0.010966013
-0.055318732 0.076635823 0.011042662
-0.055870559 0.076574534 0.010981265
-0.056420732 0.076512545 0.010917134
-0.056937438 0.076437555 0.010792908
-0.05748057 0.07637281 0.0107161
-0.058069762 0.076325975 0.010721846
0.096537523 0.097417265 0.040243197
0.096385427 0.09718103 0.039402269
0.096272253 0.096925654 0.038478527
0.096145481 0.096676774 0.037583716
0.09598849 0.096443094 0.036753464
0.095863961 0.096193165 0.035853561
0.095711686 0.095956869 0.035013195
0.095556103 0.095722407 0.034179989
0.095420159 0.09547811 0.03330452
0.095214151 0.095268503 0.032578599
0.094997905 0.095063917 0.03187472
0.094748013 0.094875924 0.03124251
0.094436862 0.094718181 0.03074085
0.094090469 0.094577782 0.030314419
0.093723163 0.094447717 0.029932482
0.093345776 0.09432283 0.029572161
0.092992872 0.094185673 0.029159665
0.092683703 0.094027042 0.028653845
0.092401028 0.093855113 0.028091468
0.092150547 0.093667403 0.027460489
0.091867551 0.093495689 0.026898898
0.091574006 0.093329392 0.026359836
0.091264412 0.093170896 0.025854798
0.090916574 0.093031235 0.025431473
0.090498507 0.092926353 0.025158085
0.09005817 0.092832506 0.024932152
0.089585774 0.092754409 0.024774494
0.089098036 0.092683777 0.024649631
0.08859013 0.092623331 0.024567688
0.088050276 0.092578515 0.024553964
0.087519012 0.092529491 0.024521938
0.086947404 0.092500351 0.024575938
0.08637996 0.09246926 0.024621038
0.085804999 0.092441782 0.02468228
0.080073118 0.093092836 0.028751761
0.079419702 0.093104005 0.028980231
0.078791887 0.093102694 0.029153911
0.078174591 0.093096115 0.029305393
0.077550553 0.093093045 0.029471297
0.076957718 0.093074322 0.02957035
0.076339558 0.093068227 0.029723881
0.075680174 0.093082607 0.029965235
0.075071953 0.093071461 0.030097237
0.074521542 0.093031891 0.030106025
0.073992349 0.092981838 0.030069541
0.073490553 0.092918232 0.029974526
0.072976179 0.092860937 0.029906403
0.072454676 0.092807144 0.029853612
0.071925841 0.092756785 0.029816603
0.071417488 0.092696555 0.029735424
0.070935532 0.09262307 0.029597918
0.070489958 0.092531748 0.029383253
0.070079856 0.092422977 0.029092805
0.069674149 0.092312023 0.028792839
0.069239907 0.092215046 0.02855416
0.068763293 0.092138961 0.028405331
0.068241648 0.0920799 0.028339166
0.067730606 0.092012405 0.028242333
0.067218654 0.091945261 0.028147111
0.066738732 0.091863893 0.027987394
0.066340193 0.091746137 0.027664488
0.065980218 0.091611505 0.027264258
0.065617032 0.091478199 0.026870424
0.065223239 0.091358513 0.026537921
0.064787239 0.091257513 0.02629037
0.064363182 0.091151319 0.026018802
0.063956633 0.091037259 0.025711956
0.063562773 0.090917692 0.025379648
0.063212469 0.090778701 0.024960024
0.062903732 0.090621144 0.024456901
0.062581114 0.090469852 0.023981772
0.062295038 0.090302244 0.023433287
0.062001608 0.090137951 0.022899361
0.061689422 0.089981921 0.022403019
0.061360151 0.089833565 0.02194126
0.061078019 0.089664176 0.021384608
0.060823236 0.089482754 0.020773271
0.060598604 0.08928778 0.020101514
0.060339764 0.089108206 0.019498041
0.060160413 0.088893093 0.018735444
0.059977733 0.088679522 0.017979249
0.059786674 0.088469781 0.01724001
0.059541102 0.088284113 0.016610188
0.059246372 0.088120125 0.016078031
0.061905578 0.086495459 0.0092404671
0.06173151 0.086270072 0.0084465025
0.061687626 0.085980304 0.0073747663
0.061530709 0.085746482 0.0065444093
0.061342955 0.085527666 0.0057796747
0.061188493 0.085292578 0.0049438239
0.060984962 0.085081838 0.0042126789
0.06071388 0.084904291 0.0036255333
0.060389236 0.084753208 0.0031529742
0.060022768 0.084622808 0.0027692821
0.059637945 0.084501512 0.0024249156
0.059263062 0.084375158 0.0020591526
0.058909964 0.084238194 0.0016471412
0.058574926 0.084092192 0.0011965621
0.05822321 0.083954617 0.00078145688
0.057849586 0.083827622 0.00041318231
0.057459805 0.083708711 7.9345351e-05
0.057042871 0.0836033 -0.00019663057
0.056609549 0.083505958 -0.00043761556
0.056174304 0.083409406 -0.00067449687
0.055732671 0.083316274 -0.00089765468
0.055300195 0.083218411 -0.0011404994
0.054875392 0.083116807 -0.0013996179
0.054443177 0.083018877 -0.0016430144
0.053999331 0.082926668 -0.0018615014
0.053529523 0.08284726 -0.0020247533
0.053042106 0.082776681 -0.0021502599
0.052550118 0.082708128 -0.0022661788
0.052064609 0.08263661 -0.0023957291
0.05158728 0.082560934 -0.0025428573
0.051116604 0.082481898 -0.0027041172
0.050639141 0.082406402 -0.0028509255
0.050129458 0.082346663 -0.0029290312
0.0495805 0.082306355 -0.0029232018
0.049008373 0.082277529 -0.0028682337
0.04841635 0.082258567 -0.0027706283
0.047837812 0.082232878 -0.0027017843
0.047251981 0.082210824 -0.0026174954
0.046639711 0.082201675 -0.0024771406
0.046019364 0.082196765 -0.0023191241
0.045419071 0.082181856 -0.0022037663
0.044814982 0.082156241 -0.0021124093
0.044224571 0.082123905 -0.0020502869
0.043646622 0.082086131 -0.0020130274
0.043077804 0.082044289 -0.0019941102
0.04246746 0.082020886 -0.0018918246
0.041818921 0.082014449 -0.0017130531
0.041171648 0.082007319 -0.0015368409
0.040559199 0.081985019 -0.0014301951
0.040006734 0.081935756 -0.0014441705
0.039468072 0.08188054 -0.0014857709
0.040480006 0.081135839 -0.0046395762
0.040205184 0.080963217 -0.0052106283
0.039895795 0.080806084 -0.005712627
0.039607134 0.080639511 -0.0062560071
0.039289031 0.080486208 -0.0067402991
0.038954694 0.080340147 -0.0071920054
0.03859809 0.080203921 -0.0075990716
0.038186338 0.080092207 -0.0078955209
0.037719943 0.080004707 -0.0080821654
0.037253909 0.079917297 -0.0082694106
0.036763929 0.079840265 -0.0084086526
0.03621953 0.07978756 -0.0084389448
0.035647653 0.079746991 -0.0084140459
0.004895688 0.083102047 0.014009495
0.0044072419 0.083021633 0.013855819
0.0039360579 0.082932509 0.013663368
0.0034598059 0.082845606 0.013480377
0.0030395114 0.082735337 0.01319163
0.0026150963 0.082626827 0.012910604
0.0021819388 0.082521796 0.012646211
0.0017323853 0.082423754 0.012412694
0.0012732132 0.08232981 0.01219759
0.00081278675 0.082236215 0.011984711
0.00034435772 0.082145914 0.011786918
-0.00010295922 0.082046993 0.011549152
-0.00051811576 0.081934609 0.011250729
-0.00094195677 0.081825748 0.010968756
-0.0013732318 0.081720084 0.01070064
-0.0017827875 0.08160536 0.010391612
-0.0022156911 0.081500329 0.010126747
-0.0026482556 0.081395164 0.0098610418
-0.00312117 0.08130686 0.0096718743
-0.0036071865 0.081224024 0.0095074223
-0.0041221664 0.08115305 0.0093977023
-0.0046372414 0.081082299 0.0092883753
-0.0051590814 0.08101432 0.0091915727
-0.0056662764 0.080940269 0.0090672346
-0.0061418782 0.080853067 0.0088830916
-0.0065381294 0.080732867 0.0085487776
-0.006830561 0.080569305 0.0080180373
-0.0070690149 0.080383316 0.0073854374
-0.0072773574 0.08018484 0.0066956175
-0.0075499052 0.08001297 0.0061273738
-0.0078685321 0.079860538 0.0056464453
-0.0081741158 0.079702474 0.0051405719
-0.0085456781 0.079571918 0.004759666
-0.0089126583 0.079439484 0.0043699909
-0.0093186693 0.079323232 0.0040540984
-0.0097171515 0.079203933 0.0037241641
-0.01013833 0.079093993 0.0034370001
-0.010576204 0.078991175 0.0031815602
-0.011044937 0.078901127 0.0029843638
-0.011538784 0.078821443 0.0028347925
-0.012060353 0.078753255 0.0027375335
-0.012682166 0.078726992 0.002829992
-0.013365999 0.078726321 0.0030397321
-0.013966029 0.078691021 0.0030908987
-0.014523941 0.078637943 0.0030623977
-0.015113447 0.078598224 0.0030938103
-0.0164584 0.078587599 0.0034703519
-0.017082017 0.078562021 0.0035662476
-0.017635591 0.07850723 0.0035295032
-0.018115252 0.078421757 0.00335303
-0.018565044 0.07832364 0.0031199248
-0.018819403 0.078144349 0.0025173095
-0.019176021 0.078007646 0.0021082533
-0.030207392 0.079177059 0.0099696005
-0.030507185 0.079016693 0.0094530042
-0.030773465 0.078842364 0.0088728555
-0.03106286 0.078677647 0.0083365254
-0.031389598 0.078528449 0.0078707468
-0.031782318 0.078406647 0.0075298757
-0.032155778 0.078276955 0.0071524992
-0.032533128 0.078148775 0.0067823986
-0.03294564 0.078035273 0.0064789653
-0.033404633 0.077941135 0.0062633627
-0.033916079 0.07786876 0.0061469679
-0.034460474 0.077810153 0.0060929963
-0.035006516 0.077752307 0.0060420502
-0.035548747 0.077692851 0.005983945
-0.036097448 0.077635966 0.0059382431
-0.036672208 0.077590048 0.0059414194
-0.037266791 0.077552333 0.0059823175
-0.037913393 0.07753627 0.0061217817
-0.038533807 0.077509373 0.0062116547
-0.039152388 0.077481516 0.0062977271
-0.039698478 0.077423684 0.0062470529
-0.040313687 0.077394612 0.0063268859
-0.040933516 0.077367403 0.0064156875
-0.04322087 0.077463903 0.0074910438
-0.053273432 0.077655576 0.01133334
-0.053877614 0.077615805 0.011368623
-0.054426115 0.077553347 0.011301335
0.096567735 0.098055787 0.03995369
0.096481837 0.097786456 0.038971946
0.096432656 0.097498894 0.037911687
0.096317314 0.097244114 0.036992364
0.096171647 0.09700451 0.036137812
0.096036389 0.09675961 0.035261467
0.095844507 0.096542783 0.034505416
0.095740102 0.096282691 0.033562753
0.095585085 0.096047506 0.032728221
0.095365673 0.095844425 0.032031372
0.095128596 0.095649928 0.031371653
0.094852068 0.095475033 0.030796224
0.09453284 0.095321186 0.030311869
0.094176434 0.095185854 0.029906681
0.093805373 0.095057771 0.029532913
0.093427926 0.094932765 0.02917248
0.093088247 0.094789103 0.028731819
0.092768848 0.094635509 0.028247848
0.092464931 0.094474033 0.027730746
0.092211418 0.094287835 0.027106429
0.091929406 0.094115652 0.026542641
0.091640793 0.093946785 0.025993126
0.091331623 0.093787968 0.025487255
0.0909639 0.093658224 0.025106454
0.090545483 0.093553744 0.024833718
0.09010265 0.09346097 0.024613002
0.089623921 0.09338624 0.024468718
0.089134209 0.093316786 0.024347734
0.088617638 0.093260869 0.024284696
0.088076346 0.093217082 0.024273911
0.08753144 0.093175091 0.02427073
0.086958006 0.093147159 0.02432858
0.086386204 0.093118489 0.024382794
0.085799165 0.093097426 0.024469791
0.079932854 0.093819693 0.028824879
0.079327933 0.093807347 0.028949868
0.078695796 0.093808554 0.029132679
0.07805793 0.093812622 0.029327922
0.077417903 0.093817636 0.029527653
0.076769166 0.093827121 0.029746136
0.076130867 0.09383136 0.029942375
0.075505644 0.093829229 0.030110838
0.074946493 0.093794189 0.030137865
0.074426979 0.093739733 0.030080765
0.07394895 0.093664609 0.029935319
0.073456146 0.093596749 0.029820928
0.072945848 0.093537487 0.029743869
0.072423436 0.093484387 0.029693101
0.07188914 0.093437091 0.029667215
0.071372226 0.093381219 0.029604491
0.070881151 0.093312599 0.029486777
0.070436418 0.093221016 0.029269967
0.070035741 0.093107611 0.028959518
0.069608405 0.093007244 0.028705567
0.069144644 0.092925154 0.028529309
0.068650343 0.092856772 0.028415203
0.068105854 0.092804179 0.028385242
0.067556962 0.092753626 0.028364031
0.06704288 0.092687458 0.028272962
0.066565961 0.092604898 0.028107192
0.066173926 0.092484325 0.027771497
0.065848306 0.09233436 0.027302025
0.065476626 0.092204884 0.026925294
0.065070614 0.092090674 0.026617587
0.064623266 0.091994926 0.026392408
0.064166084 0.091903366 0.026187243
0.063736551 0.091799729 0.025926588
0.063341349 0.091680728 0.025597043
0.062995486 0.091539599 0.025168361
0.062715612 0.091369346 0.024607399
0.062421467 0.091205277 0.024075162
0.062143952 0.091033876 0.023509309
0.061839748 0.090874404 0.022997113
0.06150895 0.090726554 0.022538388
0.061164994 0.090584762 0.022106087
0.060845692 0.090432011 0.021624153
0.060537033 0.090274334 0.021120606
0.060271155 0.09009777 0.020531617
0.06001563 0.089916483 0.019921664
0.059795126 0.089719705 0.019241549
0.059626985 0.089499615 0.018456416
0.059485719 0.089267597 0.017617488
0.059263449 0.089071535 0.016940929
0.059068792 0.088863254 0.016208902
0.058783751 0.088695198 0.015658095
0.058403719 0.088569351 0.015298052
0.061284713 0.086838424 0.0080079306
0.061242346 0.086547509 0.0069331308
0.061080299 0.086315967 0.0061135571
0.060939323 0.08607389 0.0052490714
0.060772453 0.085844561 0.0044396608
0.060535368 0.085650191 0.0037803613
0.060266823 0.085471369 0.0031877966
0.059916515 0.085333019 0.0027698583
0.059554342 0.085200556 0.0023770176
0.059194341 0.085067004 0.0019796954
0.058868397 0.084916502 0.0015096179
0.058544099 0.084765278 0.0010361638
0.058201239 0.08462318 0.00060220429
0.057826661 0.084496856 0.00023600998
0.057439119 0.084376894 -0.00010277767
0.057029326 0.084268041 -0.00039392244
0.056594983 0.084171258 -0.00063265889
0.056162532 0.084073544 -0.00087566115
0.055734608 0.083973639 -0.0011280478
0.05530449 0.083874851 -0.0013759185
0.054886166 0.083770044 -0.0016489596
0.054467719 0.083665505 -0.0019216543
0.054015022 0.083577834 -0.0021215163
0.053547677 0.083497442 -0.0022897602
0.053073503 0.083420344 -0.0024437639
0.052595429 0.083345287 -0.0025893098
0.052118566 0.083269596 -0.0027373999
0.051659159 0.083185263 -0.0029226926
0.051207289 0.083097205 -0.0031241134
0.050731365 0.08302103 -0.003274481
0.050225664 0.082959652 -0.003361068
0.049684536 0.082915731 -0.0033720059
0.049112856 0.082886986 -0.0033181466
0.048548676 0.082854427 -0.0032798979
0.047979038 0.082824789 -0.0032303804
0.047400534 0.08279939 -0.0031615831
0.046799123 0.082785338 -0.0030443731
0.046205748 0.0827673 -0.0029440548
0.045582622 0.082764134 -0.0027802107
0.044950228 0.082759954 -0.0026104914
0.044326551 0.082742609 -0.0024815823
0.043734752 0.082711071 -0.0024167418
0.043148827 0.082676873 -0.0023636781
0.042539954 0.082653053 -0.0022643148
0.041822791 0.082677327 -0.0019480534
0.041110374 0.082699612 -0.0016410641
0.040482871 0.082683899 -0.0015044737
0.039905887 0.082645848 -0.0014693517
0.039340042 0.082602762 -0.0014564251
0.038756639 0.08256752 -0.0014085809
0.038134839 0.082549393 -0.0012834487
0.037458576 0.082555465 -0.001049093
0.039426804 0.081384189 -0.0061211684
0.039103877 0.081233047 -0.0065956451
0.038732048 0.081103526 -0.0069722673
0.038376108 0.080967151 -0.0073805619
0.037983023 0.080847055 -0.007714476
0.03752951 0.080754027 -0.0079270424
0.037062425 0.080666967 -0.0081125339
0.03659644 0.080579519 -0.0082999216
0.036071673 0.080518186 -0.0083697643
0.005750549 0.0839874 0.014304073
0.0053320588 0.083878689 0.014021112
0.0049185008 0.083767794 0.013728351
0.0044815899 0.08366704 0.013481236
0.004054361 0.083559819 0.013205272
0.003622957 0.083454356 0.012937662
0.0032251757 0.083334833 0.012606263
0.0028098172 0.08322259 0.012308141
0.0023678117 0.083121628 0.012060438
0.0019197639 0.083023064 0.011824098
0.0014661101 0.082926936 0.011598376
0.00099655858 0.082837321 0.011402639
0.00052622386 0.082748115 0.011208591
6.2642168e-05 0.082655966 0.011001521
-0.00036614851 0.082549423 0.01072886
-0.00078016578 0.082436711 0.010428136
-0.0012159629 0.082333066 0.010168765
-0.0016436678 0.082226053 0.0098939082
-0.0020867544 0.082125463 0.0096481266
-0.0025289743 0.082024477 0.0094008269
-0.0030017581 0.081936255 0.009211258
-0.0034873378 0.08185342 0.0090459445
-0.0039967415 0.08178059 0.0089257844
-0.0045145024 0.081711084 0.0088211652
-0.0050361315 0.081643291 0.0087239919
-0.0055384156 0.081567444 0.0085903453
-0.0060105543 0.081478998 0.0083995536
-0.0064426516 0.081373751 0.0081331143
-0.0067613642 0.081221156 0.0076521677
-0.0070109237 0.081039824 0.0070404485
-0.007249556 0.080853708 0.0064080264
-0.0075282156 0.080684438 0.0058513428
-0.0078466069 0.080531672 0.0053698067
-0.0081716683 0.080381721 0.0049009356
-0.0085428488 0.080251105 0.0045192959
-0.0089301225 0.080127135 0.0041680387
-0.0093332762 0.08000993 0.0038469068
-0.009736836 0.079892769 0.0035264154
-0.010163209 0.079785183 0.0032490785
-0.010612208 0.079686984 0.0030145023
-0.011063794 0.079590045 0.0027849271
-0.011545619 0.079505593 0.0026123475
-0.012062928 0.079435937 0.0025071942
-0.012654079 0.079397209 0.0025414361
-0.013368168 0.07940989 0.0028082496
-0.013999036 0.079387724 0.0029178022
-0.01456495 0.079338476 0.0029043385
-0.015123489 0.079286017 0.0028769039
-0.028327614 0.080516972 0.011594021
-0.028850481 0.080449708 0.011499196
-0.029298536 0.080351271 0.011262918
-0.029653121 0.080213629 0.010849855
-0.029972784 0.080061376 0.010370778
-0.030300472 0.079912558 0.0099068685
-0.030630395 0.079764687 0.009446973
-0.030951161 0.079612941 0.0089700185
-0.031308427 0.079476573 0.0085620731
-0.031660128 0.079337806 0.0081435731
-0.032060325 0.07921914 0.0078166537
-0.032414727 0.079081647 0.0074033341
-0.032775354 0.078946508 0.0070015248
-0.033174597 0.078827582 0.0066730306
-0.033625867 0.078730397 0.0064429189
-0.034133818 0.078656979 0.0063197385
-0.034656916 0.078589723 0.0062254886
-0.035147998 0.078509152 0.006070476
-0.035661269 0.078437887 0.0059575965
-0.036209624 0.078381285 0.0059109856
-0.036759123 0.078324996 0.0058665057
-0.037328094 0.078277059 0.0058588674
-0.03791466 0.078236528 0.0058844825
-0.038490172 0.078191116 0.0058892462
-0.039082985 0.078153104 0.0059267427
-0.039652988 0.078105532 0.0059210225
-0.040247221 0.078068033 0.0059611411
-0.040864471 0.078040272 0.0060448982
-0.041623071 0.078071453 0.0063958662
-0.042361315 0.078094214 0.0067084469
-0.043011203 0.078079998 0.0068539595
-0.043666434 0.07806807 0.0070093879
-0.053589452 0.078492217 0.011660642
-0.054173075 0.078443825 0.011656003
0.096632883 0.098988891 0.040754881
0.096508682 0.098738171 0.039854683
0.096597031 0.098382026 0.038501222
0.096632957 0.098051988 0.037259676
0.096499704 0.097805783 0.036378957
0.096358858 0.097563282 0.035514094
0.096194826 0.097332492 0.034698986
0.096032672 0.097100772 0.03387947
0.095897548 0.096855439 0.033002589
0.095720828 0.096630976 0.032214504
0.095504723 0.096425831 0.031510137
0.095249586 0.096240394 0.030889409
0.094949275 0.096077196 0.030364493
0.09462668 0.095925055 0.029887483
0.09428259 0.095783629 0.029456306
0.093934506 0.095644139 0.029033309
0.093568981 0.095513314 0.028647367
0.093212463 0.095377944 0.028242784
0.092863947 0.095238686 0.027820887
0.092541464 0.095086612 0.027343418
0.09226948 0.094909348 0.026758194
0.0919846 0.094738491 0.026200643
0.091707185 0.094563849 0.025627229
0.091389962 0.094409011 0.02513868
0.091010056 0.094285451 0.024783699
0.090595782 0.094179079 0.024502346
0.090144821 0.094090551 0.024298573
0.089670777 0.094013646 0.024144234
0.089169636 0.093950182 0.024047909
0.088648282 0.093896888 0.023994712
0.088094778 0.093859471 0.024009945
0.0875329 0.0938261 0.024043068
0.086966053 0.093795225 0.024086742
0.086390473 0.09376882 0.024149176
0.085833095 0.093733348 0.02417247
0.079863176 0.0945118 0.028747389
0.079272389 0.094492845 0.028841881
0.078625068 0.094502054 0.029057298
0.077932306 0.094533674 0.029369395
0.077218577 0.094575867 0.029726261
0.076558165 0.094591513 0.029969444
0.075951479 0.094580628 0.030098179
0.075395115 0.094544418 0.030119445
0.074880525 0.094487734 0.03005182
0.074407347 0.094410375 0.02989546
0.073946148 0.094327018 0.029714003
0.073456533 0.094258033 0.029593013
0.072944693 0.094199784 0.029519256
0.072425261 0.094145484 0.029462017
0.071892671 0.094097584 0.029432639
0.07135427 0.094052747 0.029415604
0.070832975 0.093999155 0.029362138
0.070383169 0.093910284 0.029156363
0.069977075 0.093799755 0.028857071
0.069523744 0.093712449 0.0286588
0.069015659 0.093652546 0.028577173
0.068468608 0.093601473 0.028553156
0.067917049 0.09355218 0.028537178
0.067354873 0.093507633 0.028542558
0.066841669 0.093441188 0.028449744
0.066385321 0.093349531 0.028242741
0.065994821 0.09322837 0.027903633
0.0656671 0.093079366 0.027438682
0.065300502 0.092947669 0.027051847
0.064869232 0.09284468 0.026794553
0.064437933 0.09274178 0.026537284
0.063990101 0.092646271 0.02631332
0.06355603 0.092544548 0.026061576
0.063152358 0.09242934 0.02574908
0.062800154 0.092291154 0.025333073
0.062524736 0.092118911 0.02476331
0.062256448 0.091943212 0.024179088
0.061975084 0.091773517 0.023621086
0.061666116 0.091616161 0.023118461
0.061330508 0.091470599 0.022669245
0.060980488 0.091331407 0.022248968
0.060645249 0.091185711 0.021799272
0.060334995 0.091028832 0.021299003
0.060039427 0.090865351 0.020769486
0.05973627 0.090705372 0.020255411
0.059488818 0.090520546 0.01962927
0.059308838 0.090305537 0.018867979
0.059100848 0.090103157 0.018162688
0.058950316 0.089875087 0.017342208
0.058772564 0.089659162 0.016576555
0.058602203 0.089439906 0.015795805
0.058331899 0.08926516 0.015215485
0.058010019 0.089113541 0.014738703
0.06072956 0.08746095 0.0078001977
0.060798761 0.087114304 0.0064875609
0.060671762 0.086864948 0.0055934088
0.060539402 0.086618319 0.0047104787
0.060353234 0.086398542 0.0039426885
0.060117781 0.086203113 0.0032795079
0.05981395 0.086041741 0.0027624066
0.059487842 0.085891291 0.0022926379
0.05915552 0.085744165 0.0018362902
0.058832202 0.08559221 0.00136083
0.058506642 0.085441597 0.00089002092
0.058166146 0.085298374 0.00045090506
0.057800155 0.085167848 6.6386579e-05
0.057415083 0.085046738 -0.00027739821
0.057011165 0.08493498 -0.00058141613
0.056589652 0.08483202 -0.00084764912
0.056156024 0.084735051 -0.001087859
0.055731859 0.084633358 -0.0013485776
0.055310272 0.08453051 -0.0016145896
0.054889139 0.084427252 -0.0018815505
0.054464355 0.08432582 -0.0021410789
0.054016836 0.084235817 -0.0023517767
0.053554725 0.084152907 -0.0025313008
0.053090971 0.084070839 -0.0027075908
0.052619983 0.0839926 -0.0028681683
0.052152645 0.083912246 -0.0030367344
0.051706698 0.083821476 -0.0032508157
0.051251102 0.083735429 -0.003444382
0.05077567 0.083659209 -0.003595659
0.050274819 0.083595626 -0.0036927043
0.049731281 0.08355315 -0.0036987199
0.049181826 0.083513796 -0.0036920742
0.048617214 0.083481848 -0.0036532874
0.048064582 0.083443917 -0.0036398778
0.047476202 0.083423778 -0.0035500997
0.046893165 0.083401009 -0.0034720043
0.046313599 0.083376437 -0.0034013663
0.045710769 0.083363578 -0.0032809977
0.045090392 0.083359301 -0.0031230922
0.044452019 0.083350778 -0.0029601229
0.043832883 0.083331496 -0.0028403171
0.043236315 0.083302304 -0.0027659086
0.04260831 0.083286986 -0.0026288184
0.041924924 0.083296545 -0.0023799601
0.041153286 0.083345316 -0.0019545881
0.040483877 0.083348453 -0.0017342815
0.039882813 0.083321244 -0.0016507108
0.039289817 0.083290443 -0.0015833863
0.03866991 0.083271593 -0.0014623225
0.038082253 0.083238341 -0.00140578
0.037467599 0.083217189 -0.0012953128
0.036871791 0.083187655 -0.0012223732
0.036260881 0.083164841 -0.0011192539
0.035632458 0.083149694 -0.00098111876
0.035019759 0.083127774 -0.0008742722
0.037797686 0.081594303 -0.0075698267
0.037342418 0.081502125 -0.0077788513
0.033008896 0.083138622 -0.0002075995
0.032294996 0.08316163 0.00010220913
0.031631984 0.083161958 0.0003098484
0.03094684 0.083172247 0.00056199142
0.0084754555 0.085514814 0.016459409
0.0079834741 0.085438967 0.016323922
0.0076160007 0.08530768 0.015938768
0.0072729099 0.085165337 0.015504516
0.006914062 0.085030146 0.015101933
0.0065553221 0.084894925 0.014699269
0.0062013632 0.084757581 0.01428683
0.0058212215 0.084631816 0.013926942
0.0054200208 0.084515467 0.013609499
0.005004935 0.08440534 0.013319734
0.0046071112 0.084287532 0.012995312
0.0042198217 0.084165014 0.012649769
0.0038067612 0.084053934 0.012355952
0.0033961302 0.083939746 0.012048833
0.0029589455 0.083836988 0.011792069
0.0025191482 0.083735183 0.01154005
0.0020751585 0.083635032 0.011296016
0.0016208502 0.083539307 0.011071446
0.0011651978 0.083444141 0.010849495
0.00071214017 0.08334785 0.010622608
0.00026412043 0.083249547 0.010386208
-0.00017025579 0.083145484 0.010123978
-0.00059242384 0.083036296 0.0098386435
-0.0010484969 0.082941324 0.0096174944
-0.0015030873 0.082845591 0.0093935179
-0.0019475874 0.082745813 0.0091503607
-0.0024083438 0.082652763 0.008938076
-0.0028896763 0.082568333 0.0087646358
-0.003382697 0.082488835 0.0086133406
-0.0038731056 0.082408175 0.0084570562
-0.0043801763 0.082334556 0.0083323708
-0.0049052751 0.082268558 0.0082416702
-0.0054184184 0.082197458 0.0081284521
-0.0058846758 0.082106791 0.0079265013
-0.0063230176 0.082004316 0.0076718512
-0.0066804029 0.081867993 0.0072639734
-0.0069701881 0.081703186 0.0067283977
-0.0072267209 0.081524611 0.0061298888
-0.0075169755 0.081360146 0.00559519
-0.0078454725 0.081211425 0.0051326612
-0.0081858728 0.081068054 0.0046928246
-0.0085425936 0.080931388 0.0042838082
-0.0089392941 0.080811463 0.0039504268
-0.0093566608 0.080700211 0.0036559845
-0.0097678322 0.080586404 0.0033498183
-0.010194529 0.080479153 0.003073225
-0.010643413 0.080381058 0.002838311
-0.011087421 0.080281004 0.0025943681
-0.011558232 0.080192178 0.0024011841
-0.012063192 0.080117643 0.0022723435
-0.012613836 0.080062419 0.0022299793
-0.013309435 0.080067895 0.0024616772
-0.014003615 0.080072694 0.0026907914
-0.014587067 0.080031127 0.0027104234
-0.015154068 0.079982661 0.0026989852
-0.027807783 0.08128155 0.011455837
-0.028376516 0.081233799 0.01144756
-0.02892112 0.081175901 0.01139387
-0.029404573 0.081092358 0.011224334
-0.029784445 0.080965482 0.010859186
-0.030110836 0.080816105 0.010392835
-0.030470975 0.080680788 0.009990192
-0.030866697 0.080560416 0.0096548805
-0.031213045 0.080419481 0.0092265075
-0.031593278 0.08029265 0.0088616824
-0.031943854 0.080153458 0.0084410766
-0.032318857 0.080024414 0.0080667436
-0.032679554 0.079889491 0.0076650605
-0.033056661 0.079761334 0.0072945715
-0.033473127 0.079649664 0.0069985827
-0.033904418 0.079544246 0.0067304317
-0.034379512 0.079457328 0.0065453341
-0.0348658 0.079375006 0.0063809925
-0.035319831 0.07927914 0.0061561572
-0.035803206 0.079195514 0.0059864139
-0.036325105 0.079128213 0.0058897524
-0.036860697 0.07906653 0.0058189998
-0.037410807 0.079010949 0.0057756146
-0.037957881 0.078954153 0.005726682
-0.038505185 0.078897424 0.0056778742
-0.03906459 0.078845784 0.0056521338
-0.039645281 0.078802936 0.0056664511
-0.040233292 0.078763254 0.0056947866
-0.040879536 0.078748062 0.0058333436
-0.041554563 0.078744933 0.0060260929
-0.042257052 0.0787533 0.0062708519
-0.042891972 0.078733318 0.00638778
-0.043563154 0.078728467 0.0065733613
-0.045781281 0.078799903 0.0075170873
-0.046399996 0.078773126 0.0076033687
0.096556932 0.099680468 0.040691741
0.096459664 0.099415995 0.039734323
0.096856698 0.098905489 0.037722718
0.096838005 0.098602004 0.036597807
0.096687123 0.098364264 0.035754476
0.09650474 0.098142348 0.034978811
0.096340805 0.097911201 0.034163199
0.096196458 0.097670287 0.033305965
0.096044771 0.097433031 0.032464594
0.09586291 0.09721075 0.03168726
0.095654249 0.097001866 0.030967044
0.095374137 0.096828669 0.030399639
0.095056795 0.096673921 0.029911172
0.094730772 0.096523434 0.029441146
0.094416514 0.096367143 0.028946349
0.094090544 0.096216753 0.028476244
0.093737356 0.096079804 0.028064253
0.093353346 0.095958225 0.02771811
0.092983551 0.095829688 0.027341507
0.092635594 0.095690154 0.026918462
0.09234304 0.095523007 0.02637733
0.09204419 0.095358975 0.025849443
0.091758206 0.095188677 0.025294326
0.09143281 0.095037967 0.024823241
0.091059782 0.094910912 0.024453547
0.090642154 0.09480603 0.024179174
0.090182953 0.094721928 0.023992943
0.089711487 0.09464395 0.023833243
0.089199901 0.094585948 0.02375916
0.088660501 0.09454181 0.023744181
0.088105291 0.094505563 0.023763178
0.087539628 0.094474383 0.023804063
0.086971954 0.094444297 0.023849515
0.086395212 0.094418742 0.023914285
0.080517881 0.095156193 0.028290475
0.079874232 0.095164023 0.028497577
0.079230219 0.095171943 0.028705796
0.078522116 0.095211886 0.029050594
0.077748828 0.095284 0.029533934
0.077074915 0.095306858 0.029806022
0.076444589 0.095308118 0.029985018
0.07587795 0.095277481 0.030028043
0.075350039 0.09522748 0.029988786
0.07487046 0.09515366 0.029846258
0.074427061 0.095061541 0.029626647
0.073981665 0.094970599 0.029411312
0.073480941 0.094907098 0.029313967
0.07295879 0.094854385 0.029262207
0.072435379 0.094802327 0.02921324
0.071888626 0.094761834 0.029214114
0.071329102 0.09472762 0.029241819
0.070779435 0.094688542 0.029248849
0.070312977 0.094608076 0.029078528
0.069862567 0.094519541 0.028873648
0.069382228 0.094446152 0.028733129
0.068849757 0.094390728 0.02868445
0.06829524 0.094342865 0.028674383
0.067738518 0.094296053 0.028668795
0.067176744 0.09425126 0.028672963
0.066674046 0.094180457 0.028559146
0.066240393 0.094078504 0.028306691
0.065825894 0.093968265 0.028015601
0.065451995 0.093839683 0.02764336
0.065079264 0.09371078 0.02726857
0.064647108 0.093608312 0.027012907
0.064230636 0.093498692 0.026725959
0.063807778 0.093392082 0.026451852
0.063383557 0.093286067 0.026180374
0.062971011 0.093174808 0.025885658
0.062613294 0.093039289 0.025480999
0.062305681 0.092881247 0.024975497
0.062048797 0.092700504 0.024368623
0.06179199 0.092519708 0.023761306
0.061481692 0.09236303 0.02326127
0.061174508 0.092204705 0.022755044
0.06085204 0.092053249 0.022279663
0.06054122 0.091896676 0.02178078
0.060240358 0.091735646 0.021261938
0.059956353 0.091566898 0.020709261
0.059627544 0.091418408 0.020246416
0.059329785 0.091255806 0.019721195
0.059103824 0.091061428 0.01905225
0.05885743 0.090876013 0.018424135
0.058676317 0.090661414 0.01766514
0.058519855 0.090435825 0.016856464
0.058362573 0.090210795 0.016049769
0.058195077 0.089990184 0.015263272
0.057984766 0.08978872 0.014562834
0.057736985 0.089603901 0.013937619
0.060056634 0.088142581 0.0078432923
0.060355112 0.087681256 0.0060419552
0.060286764 0.087402441 0.0050228992
0.060143758 0.08716093 0.0041628578
0.059956446 0.086941347 0.0033972657
0.059689526 0.086761512 0.0028014255
0.059420213 0.086582802 0.0022107882
0.059112601 0.086423241 0.0017018486
0.058794513 0.086268894 0.0012149911
0.058462616 0.086121313 0.00075764407
0.058125619 0.08597634 0.00031114294
0.057768855 0.085841216 -9.3165712e-05
0.057384957 0.085719615 -0.00043949287
0.056980666 0.085608199 -0.00074255239
0.056577805 0.085496008 -0.0010485268
0.056164753 0.085388973 -0.0013328331
0.055743806 0.08528576 -0.0016003455
0.055326201 0.08518099 -0.0018749015
0.054898109 0.085081406 -0.0021270444
0.054460805 0.084986374 -0.0023596659
0.05401697 0.084894568 -0.0025784841
0.053564359 0.084807135 -0.0027783976
0.05310848 0.084721372 -0.00297159
0.052648768 0.084637716 -0.0031561661
0.052186184 0.084555194 -0.0033349211
0.051733546 0.084467858 -0.0035346004
0.051273227 0.08438427 -0.0037181322
0.050795842 0.08430928 -0.0038651915
0.050293233 0.084246732 -0.0039586094
0.049761977 0.084198549 -0.0039910004
0.049219336 0.084155872 -0.0039990451
0.048651874 0.084125765 -0.003953876
0.048088752 0.084093451 -0.0039182878
0.047529284 0.084059276 -0.0038904417
0.046971429 0.084024265 -0.0038660017
0.046404421 0.083993822 -0.0038223311
0.045815602 0.083974272 -0.0037317541
0.045189787 0.083973058 -0.0035627063
0.044553515 0.083969377 -0.0033902926
0.0439215 0.083955958 -0.0032449435
0.043307614 0.083934687 -0.0031358826
0.042687379 0.08391609 -0.0030142108
0.041997422 0.083928794 -0.0027527555
0.041208319 0.083985575 -0.002292288
0.040531013 0.083992459 -0.0020560161
0.039920051 0.083969928 -0.0019530244
0.039313719 0.083945222 -0.0018590809
0.038696133 0.083925292 -0.0017427583
0.038087066 0.083901912 -0.0016434242
0.037484773 0.08387538 -0.0015576282
0.036894899 0.083843328 -0.001496808
0.036281317 0.083821781 -0.0013885786
0.035670023 0.083799243 -0.0012848593
0.035063852 0.083774455 -0.0011911095
0.034415882 0.083768353 -0.001013868
0.033771671 0.08376056 -0.00084416434
0.033087648 0.083770588 -0.00059447245
0.032364182 0.083798118 -0.00026552728
0.031692229 0.083802566 -4.0152339e-05
0.031028964 0.083803274 0.00016785243
0.030359995 0.083806619 0.00038732827
0.0085639851 0.086151034 0.016046675
0.0080980565 0.086063638 0.015859012
0.007731399 0.08593189 0.015471968
0.0073749176 0.085795708 0.015064687
0.0070163044 0.085660376 0.014661812
0.0066731004 0.085518181 0.014227898
0.0062913327 0.085393205 0.013871212
0.0059242235 0.085261635 0.01348523
0.0055385078 0.08513853 0.013136499
0.0051538162 0.08501491 0.01278575
0.0047808355 0.084886 0.012411619
0.0043916251 0.084764294 0.012069984
0.0039843936 0.084650733 0.0117644
0.0035630949 0.084543362 0.011487117
0.0031384155 0.084437631 0.011216639
0.0026919537 0.084339216 0.010979123
0.0022247436 0.084249035 0.010778948
0.0017652184 0.084155701 0.010564258
0.0013240115 0.084054708 0.010315043
0.0008734141 0.083957493 0.010083334
0.00044525534 0.08385095 0.0098092975
1.5708847e-05 0.083744936 0.0095379325
-0.00043520832 0.083647966 0.009307065
-0.00089485646 0.083554573 0.0090926634
-0.0013535918 0.083460994 0.0088764047
-0.0018228424 0.083371818 0.0086801071
-0.0023058464 0.083288178 0.0085096806
-0.0027951989 0.083207488 0.0083514871
-0.0032739835 0.083122127 0.0081731472
-0.0037748236 0.083046153 0.0080366051
-0.0042958525 0.082978688 0.007938127
-0.0048077507 0.082907401 0.0078224083
-0.0053109094 0.082832418 0.0076901577
-0.0057861744 0.082745582 0.0075053521
-0.0062309736 0.082646117 0.0072626132
-0.0066086794 0.082518294 0.0068934406
-0.0069279601 0.0823659 0.00641345
-0.0072061126 0.082196184 0.0058560544
-0.007510792 0.08203771 0.0053484705
-0.0078420155 0.08189033 0.0048912428
-0.0081863329 0.081748471 0.0044588293
-0.0085350443 0.081608519 0.0040345192
-0.0089361416 0.081490636 0.0037093796
-0.0093907965 0.08139509 0.0034855001
-0.0098151583 0.081286952 0.0032043112
-0.010228181 0.081173971 0.0029015641
-0.010668025 0.081072457 0.0026496963
-0.011110622 0.080971822 0.0024031864
-0.011574866 0.080880485 0.0021972752
-0.012079085 0.080805972 0.0020670453
-0.012606968 0.080741405 0.0019816449
-0.013229621 0.080716655 0.0020752659
-0.013988198 0.080749191 0.0024260525
-0.014584506 0.080713354 0.0024698712
-0.015152928 0.080665834 0.0024610471
-0.027827241 0.08198563 0.011253842
-0.028425552 0.081950746 0.011301379
-0.029031541 0.081918895 0.011363562
-0.029568706 0.081858307 0.011295794
-0.030035432 0.081767961 0.011094684
-0.030427705 0.081646241 0.010752824
-0.030797742 0.081515178 0.010368986
-0.031204876 0.081399918 0.010055225
-0.031578161 0.081270136 0.0096775983
-0.031930275 0.081131592 0.0092595816
-0.032270465 0.08098799 0.0088195428
-0.032607112 0.080842905 0.0083724316
-0.03296062 0.08070486 0.0079573533
-0.033373974 0.080592103 0.0076553272
-0.033804335 0.080486454 0.0073855645
-0.034212451 0.080371499 0.0070735752
-0.034629557 0.080260329 0.0067786616
-0.035063256 0.080156103 0.0065152496
-0.035515342 0.080059469 0.0062865121
-0.035989914 0.079972632 0.006100338
-0.036469787 0.07988777 0.0059239292
-0.036983255 0.079817109 0.0058111753
-0.03750943 0.079751872 0.0057226014
-0.038048439 0.079691902 0.0056581609
-0.038583994 0.079630449 0.0055870987
-0.039125524 0.079571679 0.005527446
-0.039676987 0.079516985 0.0054866183
-0.040256437 0.079474084 0.0054984405
-0.040858019 0.079440534 0.0055522923
-0.041476406 0.07941401 0.0056379656
-0.042176694 0.079422101 0.0058785891
-0.042814143 0.079403475 0.0060003283
-0.043404356 0.079365157 0.0060324487
-0.044059485 0.079354107 0.0061875344
-0.044824302 0.079389267 0.0065499763
-0.045626275 0.079440095 0.0069829845
-0.046300624 0.079437234 0.0071744039
-0.046850272 0.079381727 0.0071299248
0.096577555 0.10032371 0.040422618
0.096548967 0.10002474 0.039319094
0.097058147 0.099457078 0.037068684
0.096975282 0.099185325 0.036080711
0.096810244 0.098954402 0.035267659
0.096628703 0.098731823 0.034489673
0.096463695 0.09850093 0.033676609
0.096359357 0.098239847 0.032734312
0.096180893 0.098015666 0.031949975
