# .PCD v0.7 - Point Cloud Data file format
VERSION 0.7
FIELDS x y z
SIZE 4 4 4
TYPE F F F
COUNT 1 1 1
WIDTH 1295
HEIGHT 1
VIEWPOINT 0 0 0 1 0 0 0
POINTS 1295
DATA ascii
0.075674459 0.12463376 -0.0061090421
0.076181538 0.12465321 -0.0063145896
0.076685928 0.1246713 -0.0065871337
0.077188693 0.12469079 -0.006894717
0.077692062 0.12470894 -0.0071914596
0.078192189 0.12472797 -0.0075609842
0.078690015 0.12474665 -0.0079942057
0.079183705 0.12476599 -0.0085178278
0.079676636 0.12478408 -0.009063025
0.080171406 0.12480269 -0.0095659578
0.08066842 0.12482192 -0.010011743
0.081162684 0.12483972 -0.010525549
0.081652552 0.12485902 -0.011145029
0.082133032 0.12487728 -0.011989223
0.082614258 0.12489475 -0.012814075
0.083103724 0.12491348 -0.013442562
0.083602905 0.12493243 -0.013837728
0.084107406 0.1249515 -0.014108307
0.084620178 0.1249705 -0.014178374
0.085144788 0.12498987 -0.013964144
0.085672475 0.12500924 -0.013677163
0.086196952 0.12502873 -0.013464846
0.086731598 0.12504844 -0.013010128
0.087322839 0.12506996 -0.011197327
0.087898284 0.12509003 -0.0097660543
0.088479795 0.12511104 -0.0081881396
0.0890311 0.12513064 -0.0073363623
0.089569978 0.12515108 -0.0067792563
0.090104394 0.12517072 -0.0063276589
0.090637691 0.12518969 -0.0059062503
0.091168739 0.12520985 -0.0055363942
0.091698945 0.12522887 -0.0051905587
0.092232607 0.1252487 -0.0047609322
0.092764884 0.12526833 -0.0043617478
0.093294077 0.12528737 -0.004038685
0.093812622 0.12530673 -0.0039726878
0.094329529 0.12532665 -0.0039408747
0.094845019 0.1253458 -0.0039430419
0.095358454 0.12536494 -0.0039970269
0.095868103 0.12538315 -0.0041441452
0.096374318 0.12540247 -0.0043719634
0.096869312 0.12542154 -0.0048661223
0.097371258 0.12544006 -0.0051959474
0.09788169 0.1254591 -0.0053201523
0.09839008 0.12547842 -0.0054963697
0.098894283 0.12549666 -0.0057731504
0.099395864 0.1255153 -0.0061087627
-0.052211661 0.12064268 -0.0070190057
-0.051677991 0.12066229 -0.0066598859
-0.051109474 0.12068437 -0.0057726996
-0.05054443 0.12070544 -0.0049397824
-0.049998719 0.120726 -0.0043984847
-0.04945343 0.12074684 -0.0038626364
-0.048903417 0.12076686 -0.0032571172
-0.048362177 0.12078696 -0.0027821411
-0.047808055 0.12080758 -0.0021149488
-0.047267236 0.12082797 -0.0016469761
-0.046722692 0.12084816 -0.0011223445
-0.046184923 0.12086839 -0.00070139405
-0.045643885 0.12088877 -0.00023010114
-0.045115408 0.12090844 5.1956289e-05
-0.044593126 0.12092777 0.00023976556
-0.044070706 0.12094715 0.0004291496
-0.043550156 0.12096553 0.00058984751
-0.043030858 0.12098474 0.00073365215
-0.042514611 0.12100364 0.00082992628
-0.041999154 0.12102304 0.0009145345
-0.041483212 0.12104221 0.0010077239
-0.040961977 0.12106124 0.0011778811
-0.040438395 0.12108085 0.0013866248
-0.039913084 0.12109952 0.0016185909
-0.039387655 0.1211191 0.0018542127
-0.038863406 0.1211383 0.0020724598
-0.038342439 0.12115742 0.0022399875
-0.037825525 0.12117694 0.0023463676
-0.037310425 0.12119566 0.0024259489
-0.036798377 0.12121415 0.0024587496
-0.036288224 0.12123262 0.002463008
-0.035778705 0.12125159 0.0024594236
-0.035269763 0.12127083 0.0024463767
-0.034762438 0.12128908 0.0024079101
-0.034254599 0.12130712 0.002376806
-0.033745583 0.12132636 0.0023641163
-0.033237621 0.12134418 0.002335907
-0.032730512 0.12136255 0.0022935153
-0.032225057 0.12138187 0.0022285569
-0.031719144 0.12139991 0.0021684617
-0.03121441 0.12141875 0.0020910583
-0.030710898 0.12143636 0.0019953453
-0.030208938 0.12145457 0.0018767739
-0.029707529 0.12147334 0.0017492947
-0.029205261 0.12149164 0.0016351456
-0.028704394 0.12150969 0.0014991462
-0.028205793 0.12152705 0.0013282289
-0.027708299 0.12154512 0.0011417007
-0.027210852 0.1215632 0.00095436815
-0.02671176 0.12158131 0.0007925086
-0.026212804 0.12159948 0.0006281868
-0.025713641 0.12161762 0.00046613853
-0.025217831 0.12163568 0.00025500212
-0.024722539 0.12165397 3.5512756e-05
-0.024228312 0.121672 -0.00020052493
-0.02373611 0.12168916 -0.00046741124
-0.023245603 0.12170735 -0.00075895968
-0.022759445 0.12172415 -0.0011177206
-0.022273347 0.12174199 -0.0014764402
-0.021788299 0.12175936 -0.0018505007
-0.021301122 0.12177647 -0.0021928488
-0.020813633 0.12179451 -0.0025301552
-0.02032738 0.12181215 -0.0028869573
-0.019844715 0.12182903 -0.0032983907
-0.019366452 0.1218465 -0.0037738548
-0.018889999 0.121863 -0.0042794365
-0.018412184 0.12188062 -0.0047626682
-0.017935634 0.12189718 -0.0052665416
-0.017460847 0.12191366 -0.0057958402
-0.016985428 0.12193086 -0.0063156849
-0.016511116 0.12194753 -0.0068522021
-0.016031904 0.12196546 -0.0073152417
-0.015548253 0.1219826 -0.0077097202
-0.011948426 0.12211322 -0.016392024
-0.011432106 0.12213261 -0.01637624
-0.010919424 0.12215158 -0.01644697
-0.010413752 0.12217132 -0.016686527
-0.0099114534 0.12219051 -0.017007425
-0.0032687732 0.12243994 -0.018474849
-0.002741474 0.12245879 -0.018196635
-0.0022161598 0.1224785 -0.017966259
-0.0017005542 0.12249765 -0.017967533
-0.0011933316 0.12251689 -0.01816933
-0.00067311223 0.12253655 -0.018060321
-0.00014284044 0.12255555 -0.017713048
0.00038954732 0.1225753 -0.017310631
0.00092325336 0.12259489 -0.016878359
0.0014597235 0.12261479 -0.016381612
0.0019990071 0.12263391 -0.015814707
0.0025741872 0.12265421 -0.014389591
0.0031429275 0.12267468 -0.013116907
0.0037056217 0.12269407 -0.011991343
0.0042537032 0.12271365 -0.011215432
0.004798329 0.12273356 -0.010520892
0.0053435867 0.1227538 -0.0098101189
0.0058842371 0.12277264 -0.0092138927
0.0064326539 0.12279293 -0.0084293261
0.0069827251 0.12281241 -0.0076043922
0.0075229257 0.12283185 -0.0070184283
0.0080619138 0.12285215 -0.0064584566
0.0085944654 0.12287179 -0.0060526794
0.0091234231 0.1228911 -0.0057350844
0.0096499929 0.12291049 -0.0054734945
0.010178337 0.12292924 -0.0051713865
0.010708203 0.12294947 -0.0048298519
0.011236857 0.12296902 -0.0045195511
0.011765776 0.12298823 -0.004203001
0.012293815 0.12300733 -0.0039068107
0.012821296 0.12302694 -0.0036236092
0.013345028 0.1230461 -0.0034312764
0.013868241 0.12306603 -0.0032509631
0.014389987 0.12308507 -0.0031053494
0.014908844 0.1231041 -0.0030299989
0.015427442 0.12312431 -0.0029582838
0.015944595 0.12314301 -0.0029238139
0.016460836 0.12316258 -0.002910526
0.016975893 0.12318122 -0.0029262374
0.017489675 0.12320112 -0.002971573
0.018004782 0.12321985 -0.0029858088
0.01852167 0.12323961 -0.0029557182
0.01903991 0.12325925 -0.002893941
0.019557524 0.12327842 -0.0028478126
0.020073995 0.12329777 -0.0028283878
0.020589568 0.12331697 -0.0028315685
0.021106476 0.12333591 -0.0028025582
0.021623187 0.12335489 -0.0027783015
0.022138387 0.12337463 -0.0027895034
0.022650788 0.12339371 -0.0028683385
0.023159994 0.12341308 -0.0030223967
0.023666549 0.12343206 -0.0032419963
0.024172256 0.12345089 -0.0034814603
0.024680762 0.12347 -0.0036536106
0.025189951 0.12348931 -0.0038091578
0.02570112 0.12350879 -0.0039173216
0.026212065 0.1235284 -0.0040285625
0.026720993 0.12354708 -0.0041922042
0.027229242 0.12356639 -0.0043696268
0.027736129 0.12358506 -0.0045822076
0.028243896 0.1236048 -0.0047710212
0.02874827 0.1236238 -0.0050406456
0.02924832 0.12364303 -0.005415597
0.02975012 0.12366173 -0.0057497928
0.030251844 0.12368137 -0.0060838219
0.030750683 0.12369972 -0.0064875036
0.031245336 0.12371922 -0.006991229
0.03173849 0.12373828 -0.0075307665
0.032226682 0.123757 -0.0081895087
0.032715671 0.1237752 -0.0088308826
0.033203505 0.12379431 -0.0094980961
0.033689015 0.12381358 -0.010219228
0.034181282 0.12383252 -0.010781146
0.034675106 0.12385087 -0.011306031
0.03516797 0.12387001 -0.011852599
0.053058662 0.12454242 -0.015642667
0.053618092 0.12456217 -0.014596667
0.054180462 0.12458181 -0.013474683
0.05475761 0.12460206 -0.012002511
0.055307552 0.12462187 -0.011180777
0.056497388 0.12465146 0.0049776696
0.057019699 0.12467111 0.0051368503
0.057554897 0.12469034 0.005603265
0.058091637 0.12470993 0.0061083958
0.058628343 0.12472943 0.0066123521
0.059164066 0.12474912 0.0070935013
0.059698924 0.12476858 0.0075526563
0.060233686 0.12478817 0.0080082864
0.060763743 0.12480709 0.0083541414
0.061281778 0.12482704 0.0084102834
0.06179215 0.12484618 0.008283928
0.062297918 0.12486505 0.008045895
0.062801421 0.12488468 0.0077559715
0.06797114 0.12508856 -0.0042965943
0.068481185 0.12510808 -0.0044328654
0.068993233 0.12512773 -0.0045180153
0.069503203 0.12514636 -0.0046570459
0.07001368 0.12516543 -0.0047817016
0.070525005 0.1251847 -0.0048867632
0.071036503 0.12520385 -0.0049859267
0.071549542 0.12522347 -0.005048749
0.072063163 0.12524255 -0.0050983662
0.072577193 0.12526235 -0.0051374473
0.073089786 0.12528132 -0.0052106325
0.073601648 0.12530008 -0.0053036036
0.074111976 0.12531936 -0.0054326328
0.074621111 0.12533896 -0.0055909147
0.075128973 0.1253576 -0.0057759881
0.075636812 0.12537721 -0.0059646592
0.076143004 0.12539554 -0.0061916625
0.076647371 0.12541562 -0.0064625768
0.077151552 0.12543397 -0.0067393566
0.077654831 0.125453 -0.0070366226
0.078156948 0.12547243 -0.0073628724
0.078655109 0.1254915 -0.0077822348
0.079148777 0.12551008 -0.0083101159
0.079640336 0.12552945 -0.0088862814
0.08013431 0.12554868 -0.0094072856
0.080631457 0.12556766 -0.0098509332
0.081124373 0.1255859 -0.010396034
0.08162038 0.12560518 -0.010869101
0.082581237 0.12564287 -0.012558103
0.083064638 0.1256613 -0.013331315
0.083559565 0.12568058 -0.013830283
0.084060796 0.12569976 -0.014177367
0.084569708 0.12571844 -0.014339015
0.085086413 0.12573843 -0.014313017
0.085615046 0.12575695 -0.014005396
0.08614178 0.1257772 -0.013737584
0.086676873 0.12579642 -0.013271797
0.087273575 0.12581684 -0.011332491
0.087847829 0.12583706 -0.0099302316
0.088405617 0.12585717 -0.0089189503
0.088974468 0.12587656 -0.0076462394
0.089512758 0.1258966 -0.0071030008
0.0900466 0.12591593 -0.0066651087
0.090581268 0.12593564 -0.0062120603
0.091111474 0.12595549 -0.00586305
0.09163712 0.12597489 -0.005625057
0.09216553 0.1259937 -0.0053222543
0.092689157 0.12601316 -0.0051307278
0.093212053 0.12603308 -0.0049564838
0.093739964 0.1260522 -0.0046634916
0.094260305 0.12607184 -0.0045518372
0.094773419 0.12609139 -0.0046124272
0.095283538 0.12610985 -0.0047470927
0.095791332 0.12612964 -0.0049358858
0.096293233 0.12614803 -0.0052650254
0.096796125 0.12616748 -0.0055710049
0.097305879 0.12618643 -0.0057148086
0.097816303 0.12620556 -0.0058412123
0.098322682 0.12622488 -0.0060660783
0.098824516 0.12624432 -0.0063964706
0.099320769 0.12626317 -0.0068599721
-0.051750001 0.1213759 -0.0070967805
-0.051230449 0.12139488 -0.0069515593
-0.050680559 0.12141592 -0.006345816
-0.050123516 0.12143684 -0.0056334529
-0.049571104 0.12145746 -0.0049916366
-0.049015302 0.12147795 -0.0042977724
-0.048470035 0.12149775 -0.0037632002
-0.047921654 0.12151781 -0.0031824817
-0.047373466 0.12153874 -0.0026028915
-0.046834193 0.12155823 -0.0021588497
-0.046292264 0.12157904 -0.0016742855
-0.045750562 0.12159886 -0.0011936387
-0.04520886 0.12161876 -0.00071340101
-0.044675354 0.12163852 -0.00035589535
-0.04414944 0.12165777 -0.00011271956
-0.043626495 0.12167775 8.463455e-05
-0.043102264 0.121697 0.00030189141
-0.042581987 0.12171557 0.000459075
-0.042065084 0.12173511 0.00056599319
-0.041549824 0.12175374 0.00064727466
-0.041031592 0.12177248 0.00077331997
-0.040508527 0.12179241 0.0009739378
-0.039983936 0.12181143 0.001196506
-0.039454944 0.1218308 0.0014850242
-0.038931526 0.12185048 0.0016909478
-0.038409352 0.12187 0.0018766253
-0.037893396 0.12188915 0.001969588
-0.037376273 0.12190757 0.0020789634
-0.036861431 0.12192732 0.0021552003
-0.036350727 0.12194557 0.0021677057
-0.035841029 0.12196448 0.0021651927
-0.035331592 0.12198337 0.0021598148
-0.034820359 0.12200231 0.0021800792
-0.034310143 0.122021 0.0021863496
-0.033801135 0.12203904 0.0021730303
-0.033291459 0.12205789 0.0021710489
-0.03278511 0.12207672 0.002118225
-0.032278638 0.12209548 0.0020684367
-0.031771161 0.12211474 0.0020317454
-0.031266816 0.12213267 0.0019491808
-0.030761965 0.12215139 0.0018732484
-0.03026019 0.1221699 0.0017519656
-0.029758783 0.12218857 0.0016256003
-0.02925596 0.12220643 0.0015190355
-0.028755359 0.12222475 0.0013799599
-0.02825723 0.12224339 0.0012034223
-0.027757447 0.12226199 0.001051585
-0.027256746 0.12228017 0.00091353885
-0.026756298 0.12229843 0.00077219214
-0.026256807 0.12231638 0.00061567576
-0.025757961 0.12233567 0.00045037433
-0.025260709 0.12235382 0.00026099564
-0.024763795 0.12237126 6.4477361e-05
-0.024267601 0.12239002 -0.00014082727
-0.023775151 0.12240804 -0.00040250138
-0.023282958 0.12242623 -0.00066921173
-0.022794558 0.12244365 -0.00099341467
-0.022306945 0.12246154 -0.0013278206
-0.02182335 0.12247981 -0.0017244492
-0.021333791 0.12249745 -0.0020306287
-0.020846356 0.12251554 -0.0023682977
-0.020360069 0.12253305 -0.0027229986
-0.019877635 0.12255018 -0.0031378148
-0.019395495 0.12256825 -0.0035549952
-0.018914314 0.12258595 -0.0039877119
-0.018437719 0.12260337 -0.0044895308
-0.017961642 0.12262004 -0.0049984548
-0.017484257 0.12263801 -0.0054877922
-0.017007012 0.12265496 -0.0059805634
-0.016527725 0.12267279 -0.0064411415
-0.016050817 0.12269 -0.0069385599
-0.015573897 0.12270725 -0.0074353069
-0.015088541 0.12272543 -0.0078040026
-0.01198204 0.12284298 -0.016155209
-0.011467693 0.12286237 -0.016188186
-0.010957956 0.12288221 -0.016330548
-0.010454985 0.12290166 -0.016634963
-0.0099548688 0.12292083 -0.017006809
-0.0094555914 0.12293991 -0.017400503
-0.0027926203 0.12319163 -0.018380906
-0.0022724234 0.12321135 -0.018272106
-0.0017592304 0.12323086 -0.018332131
-0.0012481976 0.12325041 -0.018441226
-0.00072504906 0.12326922 -0.018263932
-0.00019091337 0.12328836 -0.017822379
0.00034327124 0.12330844 -0.017377125
0.00087419455 0.12332776 -0.017012406
0.0014076369 0.12334743 -0.016586328
0.0019404979 0.12336694 -0.016175723
0.0024929526 0.12338629 -0.015293761
0.0030561953 0.12340613 -0.014154581
0.0036151716 0.12342517 -0.013117793
0.0041759452 0.12344524 -0.012035552
0.0047282083 0.12346391 -0.011161366
0.0052825832 0.12348431 -0.010231358
0.0058275014 0.12350293 -0.0095313201
0.0063742697 0.12352289 -0.0087864855
0.006924029 0.12354282 -0.0079687294
0.0074602496 0.12356193 -0.0074784039
0.0079982197 0.12358129 -0.006944445
0.0085322205 0.12360054 -0.0065043159
0.0090603959 0.12362048 -0.0062053939
0.0095859393 0.12363994 -0.0059674894
0.010115323 0.12365886 -0.0056422167
0.01064976 0.12367859 -0.0051912246
0.011182232 0.12369838 -0.0047885124
0.011713132 0.12371755 -0.0044236975
0.012242066 0.12373681 -0.0041066492
0.012769541 0.12375631 -0.0038237169
0.013295677 0.12377529 -0.0035735713
0.013819096 0.12379485 -0.0033879792
0.014340498 0.1238144 -0.003251113
0.014859462 0.12383424 -0.0031713534
0.015377155 0.12385344 -0.0031232883
0.015893323 0.12387295 -0.003111793
0.016409539 0.12389156 -0.0030993505
0.0169254 0.12391149 -0.0030951092
0.017442515 0.12393116 -0.0030599465
0.017959721 0.12394979 -0.0030242947
0.018477323 0.12396992 -0.0029781994
0.018995823 0.12398922 -0.002910133
0.019514052 0.12400887 -0.0028487095
0.020030912 0.12402779 -0.0028204564
0.020546846 0.12404753 -0.002813729
0.021064421 0.12406693 -0.0027685161
0.021581283 0.12408581 -0.0027411522
0.022095041 0.12410466 -0.0027878659
0.022605468 0.12412493 -0.0029121113
0.023113495 0.12414438 -0.0030954122
0.023620151 0.12416309 -0.003312014
0.024128996 0.12418284 -0.0034760842
0.024638839 0.12420175 -0.0036163793
0.025149068 0.12422119 -0.0037476006
0.025660463 0.12424032 -0.0038498153
0.026171787 0.12425966 -0.0039542336
0.026682023 0.12427902 -0.0040849522
0.027191175 0.12429857 -0.0042404523
0.027698502 0.12431771 -0.004441889
0.028206164 0.12433761 -0.0046332069
0.028711926 0.12435634 -0.0048720622
0.02921146 0.12437606 -0.0052576577
0.029713297 0.12439558 -0.005589054
0.030216318 0.12441503 -0.0058921212
0.030718112 0.12443446 -0.0062247617
0.031214911 0.124453 -0.0066788169
0.031709999 0.12447307 -0.0071709044
0.032201707 0.12449152 -0.0077472134
0.032690164 0.12451095 -0.008398463
0.033177916 0.12453031 -0.0090682618
0.033664104 0.12454995 -0.0097737191
0.034152634 0.12456938 -0.010423826
0.034647126 0.12458796 -0.01093222
0.035143919 0.12460752 -0.011385032
0.035633437 0.12462682 -0.01201123
0.052954663 0.12528469 -0.017090278
0.053517025 0.12530433 -0.015971424
0.054122191 0.12532434 -0.013824848
0.054684449 0.1253432 -0.01270872
0.055249177 0.12536348 -0.011533576
0.055773146 0.12538278 -0.011338362
0.056969598 0.12540488 0.0049786177
0.057501968 0.12542397 0.0053772554
0.058036886 0.12544419 0.0058395481
0.058571368 0.1254631 0.0062888218
0.059105299 0.12548241 0.0067257481
0.059637561 0.12550224 0.0071254587
0.060167972 0.12552105 0.0074750176
0.060697075 0.125541 0.0078006601
0.061219737 0.12556051 0.0079653664
0.061731461 0.12557936 0.0078695156
0.06223736 0.12559907 0.0076350505
0.062744223 0.1256185 0.007426071
0.067925155 0.12582932 -0.0043539694
0.068436801 0.12584922 -0.0044509089
0.068950124 0.12586854 -0.0045048557
0.069462001 0.12588741 -0.0045982627
0.069973446 0.12590651 -0.0046996232
0.070484675 0.12592606 -0.0048078094
0.070996255 0.12594615 -0.0049050059
0.071509317 0.12596473 -0.0049692215
0.072022818 0.12598495 -0.0050211651
0.072536789 0.12600376 -0.0050622961
0.073049858 0.12602307 -0.0051215542
0.07356149 0.12604225 -0.0052206768
0.074071646 0.12606153 -0.0053519858
0.074580878 0.12608093 -0.0055075372
0.075088605 0.12610087 -0.0056979358
0.075595699 0.12612027 -0.0059025409
0.076101698 0.12613876 -0.0061361184
0.076607533 0.12615849 -0.0063726427
0.077112526 0.12617789 -0.0066265706
0.077616319 0.12619731 -0.0069108102
0.078119226 0.12621604 -0.0072216187
0.078618176 0.12623641 -0.0076194098
0.079115003 0.12625462 -0.0080719395
0.079606555 0.12627433 -0.0086503932
0.08009842 0.1262935 -0.0092192879
0.080594294 0.12631287 -0.0096959351
0.081084639 0.12633269 -0.010302956
0.081583664 0.12635186 -0.010702004
0.08303085 0.12640907 -0.013093686
0.083516441 0.12642851 -0.013816957
0.084015206 0.12644799 -0.014221958
0.084522463 0.1264673 -0.014423032
0.085035704 0.12648664 -0.014481494
0.085558914 0.12650563 -0.014302319
0.086085722 0.12652571 -0.01403339
0.086620338 0.12654528 -0.013577784
0.08721175 0.1265648 -0.011763415
0.087798871 0.12658441 -0.010053277
0.08834558 0.12660356 -0.0093122162
0.088905074 0.12662292 -0.0082604475
0.089450896 0.12664257 -0.0075362911
0.089987896 0.12666211 -0.0070281075
0.09052071 0.12668125 -0.0066150008
0.091050491 0.12670082 -0.0062780827
0.091574967 0.12672041 -0.0060678627
0.092099056 0.12674017 -0.005864826
0.092620827 0.12675941 -0.0057206657
0.093139358 0.12677877 -0.005652613
0.093658186 0.12679772 -0.0055758059
0.094182573 0.1268172 -0.00536728
0.09470062 0.12683709 -0.0053114695
0.095213078 0.12685621 -0.0053874115
0.095720619 0.12687612 -0.0055801412
0.096221462 0.12689479 -0.0059376815
0.096725412 0.1269142 -0.0062178038
0.097235106 0.12693417 -0.0063621607
0.097746409 0.12695344 -0.0064686509
0.098252587 0.12697193 -0.0066971779
0.098756999 0.12699178 -0.0069659781
-0.050776169 0.12212844 -0.0071411356
-0.050198402 0.12215001 -0.0061143972
-0.049675316 0.12216897 -0.0059153941
-0.04913659 0.12218866 -0.0054807365
-0.048571579 0.12220982 -0.004648257
-0.048034605 0.12222946 -0.0042380774
-0.04748702 0.12224995 -0.0036684617
-0.046937168 0.12227005 -0.0030659831
-0.04638781 0.12229045 -0.0024694328
-0.045842066 0.12230993 -0.0019286284
-0.045298442 0.12232976 -0.0014186364
-0.044754468 0.12235031 -0.00090338226
-0.044224951 0.1223695 -0.00060706184
-0.043698441 0.12238938 -0.00035534214
-0.043173097 0.12240885 -0.00011996971
-0.042649891 0.12242775 8.0739468e-05
-0.042131588 0.12244746 0.00020883442
-0.041614659 0.12246611 0.0003163855
-0.04109681 0.12248509 0.00043722556
-0.040573757 0.12250506 0.0006364077
-0.040051188 0.12252428 0.00082850672
-0.039526362 0.12254314 0.0010544657
-0.039000716 0.12256254 0.0012933481
-0.038476285 0.12258262 0.0015140338
-0.037959352 0.12260116 0.0016201448
-0.037443429 0.12262043 0.0017120047
-0.036929261 0.12263953 0.0017778921
-0.036416322 0.12265843 0.0018247386
-0.035903677 0.12267741 0.0018664008
-0.035391334 0.12269676 0.0019056755
-0.034880172 0.1227157 0.0019265737
-0.034369178 0.12273472 0.0019437617
-0.033860285 0.12275299 0.0019291984
-0.033350445 0.12277185 0.0019289522
-0.032841664 0.12279123 0.0019136363
-0.032334942 0.12280972 0.0018665552
-0.031827718 0.12282901 0.0018274706
-0.031324286 0.12284756 0.0017316536
-0.030820124 0.12286563 0.0016460563
-0.030316973 0.1228843 0.0015457256
-0.029814536 0.1229035 0.0014333681
-0.029312445 0.12292172 0.0013171689
-0.028810561 0.12294021 0.0011969127
-0.028309057 0.12295895 0.0010715689
-0.027807482 0.1229775 0.00094702968
-0.027304212 0.12299617 0.00084862852
-0.026802042 0.12301542 0.00073340873
-0.026302641 0.12303419 0.00057711924
-0.025803648 0.1230524 0.00041325201
-0.025304368 0.12307048 0.00025334681
-0.024808314 0.12308933 4.5230012e-05
-0.024311814 0.1231079 -0.00015534637
-0.023818921 0.12312664 -0.00040885751
-0.023324858 0.1231447 -0.0006469356
-0.022833722 0.12316252 -0.00092921674
-0.022345427 0.12318103 -0.0012538164
-0.021858271 0.12319913 -0.0015964385
-0.021368325 0.12321761 -0.0018960179
-0.020879377 0.12323569 -0.0022107989
-0.020393096 0.12325337 -0.0025660403
-0.019908249 0.12327179 -0.0029416583
-0.019422425 0.12328976 -0.0033036799
-0.018941855 0.12330784 -0.0037459724
-0.01846364 0.12332526 -0.0042232266
-0.017987093 0.12334365 -0.0047231372
-0.01750651 0.1233616 -0.0051639937
-0.017027795 0.12337878 -0.0056336727
-0.016552936 0.12339713 -0.0061606057
-0.016074052 0.12341521 -0.0066272961
-0.015594569 0.1234329 -0.0070853783
-0.015113458 0.1234505 -0.0075179031
-0.014624642 0.12346876 -0.0078353612
-0.011507839 0.12359247 -0.016108925
-0.01099868 0.12361199 -0.016265498
-0.010497485 0.12363203 -0.016611151
-0.0099981874 0.12365104 -0.017004455
-0.0095119337 0.12367081 -0.017710611
-0.0085359477 0.12371081 -0.019035675
-0.0080388077 0.12372985 -0.019480681
-0.0075309686 0.12374947 -0.019667573
-0.0070173466 0.12376874 -0.019718846
-0.0028412368 0.12392408 -0.018503308
-0.0023242424 0.12394381 -0.018471578
-0.0018169512 0.12396304 -0.01867301
-0.0013057044 0.12398342 -0.018778272
-0.00077738659 0.12400225 -0.018477114
-0.00023855717 0.1240218 -0.017920822
0.00029600086 0.12404151 -0.017467638
0.00082575867 0.12406084 -0.017130403
0.0013556702 0.12408004 -0.016789611
0.0018841375 0.12409887 -0.016484665
0.0024208478 0.12411839 -0.015981417
0.002990159 0.12413739 -0.014696518
0.0035396391 0.12415665 -0.013885353
0.004097118 0.12417597 -0.012882653
0.0046582269 0.12419596 -0.011795238
0.0052153431 0.12421479 -0.010803091
0.0057687103 0.12423424 -0.0098995576
0.0063167429 0.12425292 -0.0091257198
0.0068618017 0.12427232 -0.0084206956
0.0074021905 0.12429155 -0.0078278324
0.007940121 0.12431077 -0.007295697
0.0084750494 0.1243303 -0.0068348292
0.0090007167 0.12434968 -0.0065950165
0.0095271962 0.1243693 -0.0063371165
0.010055446 0.12438907 -0.0060349479
0.010588367 0.12440847 -0.0056222454
0.011121561 0.12442742 -0.0052021276
0.011654173 0.12444698 -0.0047962023
0.012186372 0.12446613 -0.0044006174
0.012716099 0.12448549 -0.0040637739
0.013242754 0.12450488 -0.0038011349
0.013767027 0.12452462 -0.0035947072
0.014287782 0.12454376 -0.0034737866
0.014807196 0.12456319 -0.0033840367
0.01532515 0.1245831 -0.0033293923
0.01584062 0.12460239 -0.0033339479
0.016357357 0.12462146 -0.0033101293
0.016874885 0.1246417 -0.0032646239
0.017394163 0.1246603 -0.003178814
0.017913243 0.12468007 -0.0030974024
0.018431177 0.1247 -0.0030424548
0.018949859 0.12471908 -0.0029712608
0.019468863 0.12473893 -0.0028904874
0.019986697 0.12475803 -0.0028392419
0.020503771 0.12477762 -0.0028060749
0.021019731 0.12479741 -0.002798652
0.021535661 0.12481624 -0.0027934713
0.022049675 0.12483602 -0.0028337797
0.022559809 0.12485547 -0.0029657427
0.023067839 0.12487501 -0.0031496002
0.023576714 0.12489456 -0.0033121679
0.024087816 0.12491433 -0.003422277
0.024599234 0.12493335 -0.0035234028
0.025109619 0.12495277 -0.0036510862
0.025621451 0.12497241 -0.0037434441
0.02613288 0.12499169 -0.0038455913
0.02664437 0.12501183 -0.0039450005
0.027154608 0.1250311 -0.0040752571
0.027662568 0.12505078 -0.0042614117
0.028169483 0.12507036 -0.0044714399
0.028674599 0.12508966 -0.0047228234
0.029173959 0.12510966 -0.0051136417
0.029674219 0.12512878 -0.0054840446
0.030177243 0.12514807 -0.0057883598
0.030678092 0.12516859 -0.0061414009
0.031178683 0.12518732 -0.0065039638
0.031674702 0.12520729 -0.0069741094
0.032167956 0.12522735 -0.0075113606
0.032659736 0.12524664 -0.0080842059
0.033148628 0.12526579 -0.0087276129
0.033637337 0.12528606 -0.0093728043
0.034125753 0.12530552 -0.010025879
0.034619432 0.1253251 -0.010551816
0.035115674 0.12534504 -0.01101815
0.035608977 0.12536396 -0.011555769
0.053458933 0.12604772 -0.016315253
0.054062892 0.12606619 -0.014202691
0.054622687 0.1260853 -0.01314392
0.055187747 0.12610437 -0.011962214
0.055717632 0.12612361 -0.011620661
0.056918733 0.12613957 0.0047995402
0.057449255 0.12615816 0.0051568327
0.057985101 0.12617771 0.0056389757
0.058517259 0.12619777 0.0060337251
0.059046965 0.12621707 0.0063724704
0.059576493 0.12623566 0.0067026941
0.060105272 0.12625517 0.007015476
0.060632508 0.12627494 0.0072937785
0.061155643 0.12629479 0.0074727489
0.061669145 0.12631385 0.0074211815
0.062175572 0.12633318 0.0071965754
0.062684774 0.12635341 0.0070438683
0.067371421 0.12655121 -0.004221255
0.06788075 0.12657037 -0.0043714847
0.068393655 0.12659015 -0.004439991
0.068908297 0.12660927 -0.0044642109
0.069421642 0.12662867 -0.004521911
0.069932878 0.12664798 -0.0046260683
0.070445172 0.12666735 -0.0047088154
0.070956886 0.12668721 -0.0048023053
0.071469821 0.1267069 -0.0048676413
0.071984082 0.12672648 -0.0049033314
0.072496623 0.12674576 -0.0049784817
0.073007859 0.12676495 -0.005084564
0.073519014 0.12678449 -0.0051917667
0.07402917 0.12680386 -0.0053249039
0.074538641 0.12682401 -0.0054733986
0.075046927 0.12684329 -0.0056494772
0.075553395 0.12686242 -0.0058718044
0.076059595 0.12688266 -0.0060976539
0.076567411 0.12690242 -0.0062856162
0.077072553 0.12692153 -0.0065392759
0.077576153 0.12694141 -0.006827441
0.07807944 0.12696068 -0.0071259281
0.078580827 0.12698054 -0.0074674003
0.0790786 0.127 -0.0078959102
0.079571225 0.12701952 -0.0084479284
0.080062002 0.12703888 -0.009047335
0.080556609 0.1270584 -0.0095511032
0.081051953 0.12707822 -0.010038145
0.081546165 0.12709822 -0.010552318
0.082034029 0.12711734 -0.011220505
0.083478756 0.12717697 -0.013669499
0.083972484 0.12719646 -0.014198778
0.084476814 0.12721555 -0.014468638
0.08498767 0.12723523 -0.014582986
0.085506573 0.12725522 -0.01450613
0.086032346 0.12727447 -0.014263237
0.086566739 0.12729335 -0.01381669
0.087142132 0.12731247 -0.012386163
0.087744705 0.12733212 -0.010302577
0.088294096 0.1273513 -0.0094934376
0.088837601 0.12737022 -0.0088274004
0.089376628 0.12738979 -0.0082681859
0.089919284 0.1274085 -0.0076228594
0.09045618 0.12742801 -0.0071150754
0.090987049 0.12744749 -0.0067493124
0.09151201 0.12746654 -0.0065292278
0.092034802 0.12748672 -0.0063594151
0.092555709 0.12750547 -0.0062327906
0.093075119 0.12752503 -0.0061444324
0.093592979 0.12754495 -0.0060902117
0.094113231 0.12756455 -0.0059798956
0.094631232 0.12758344 -0.0059258081
0.095146269 0.12760305 -0.0059395852
0.095648214 0.12762247 -0.006268193
0.09614148 0.12764251 -0.0068067415
0.096652709 0.12766185 -0.0069150701
0.09716399 0.12768111 -0.0070178965
0.097670235 0.12770025 -0.007243922
0.098173134 0.12772094 -0.0075498531
-0.049265299 0.12290166 -0.0067713428
-0.048688583 0.12292192 -0.0057637915
-0.048157822 0.12294227 -0.0054475702
-0.047577679 0.12296254 -0.0043884534
-0.047022417 0.12298255 -0.0037038671
-0.046468686 0.12300326 -0.0030415829
-0.04592184 0.1230232 -0.0024836564
-0.045381799 0.12304305 -0.0020280327
-0.044837635 0.12306251 -0.0015101505
-0.04430186 0.12308192 -0.0011188803
-0.043772109 0.12310186 -0.00081965356
-0.043245081 0.12312151 -0.0005594485
-0.042719919 0.12314025 -0.0003286436
-0.042198818 0.12316028 -0.00015893581
-0.041680906 0.12317935 -3.6394071e-05
-0.041161023 0.12319814 0.00011466708
-0.040640526 0.12321753 0.00027565096
-0.040119726 0.12323675 0.0004423263
-0.039597228 0.12325606 0.0006321001
-0.039072864 0.12327527 0.00085181417
-0.038551308 0.12329499 0.0010288837
-0.038032148 0.12331423 0.0011693358
-0.037513047 0.1233336 0.0013101114
-0.036997821 0.12335302 0.0013916576
-0.036483437 0.12337218 0.0014604898
-0.035970833 0.12339121 0.0015031536
-0.035458114 0.12341014 0.0015472741
-0.034945119 0.12342904 0.0015944835
-0.034431726 0.1234477 0.0016473467
-0.03392005 0.12346745 0.0016754632
-0.033410866 0.12348653 0.0016672401
-0.032902654 0.12350517 0.001642824
-0.032394677 0.123524 0.0016150143
-0.031889085 0.12354328 0.0015511219
-0.031385131 0.12356251 0.0014632941
-0.030881574 0.12358088 0.0013690836
-0.030377645 0.12360019 0.0012793676
-0.029873945 0.12361854 0.0011887284
-0.029370837 0.12363719 0.0010863065
-0.028865783 0.12365674 0.0010146998
-0.028361078 0.12367552 0.00093828631
-0.027856996 0.1236947 0.00085237692
-0.027352776 0.12371372 0.00076806295
-0.026850201 0.1237317 0.00065908988
-0.02635121 0.12375079 0.00049615826
-0.025851408 0.12376953 0.00034423298
-0.025351264 0.123789 0.00020052004
-0.024855001 0.12380675 -5.7146171e-06
-0.024359429 0.1238258 -0.0002200797
-0.023864049 0.12384414 -0.00043733284
-0.023369474 0.12386283 -0.00066743413
-0.022877596 0.1238812 -0.00093758141
-0.022387624 0.12390046 -0.0012353421
-0.021896899 0.12391871 -0.0015242556
-0.021405449 0.12393729 -0.001800734
-0.020913957 0.12395583 -0.0020770831
-0.020426704 0.12397395 -0.0024170235
-0.019936437 0.12399314 -0.0027105836
-0.019452993 0.12401143 -0.0031076097
-0.018971043 0.12402968 -0.0035287219
-0.018491631 0.12404823 -0.0039852411
-0.018013597 0.12406591 -0.0044652987
-0.017533598 0.12408418 -0.0049143331
-0.017054584 0.12410299 -0.0053782584
-0.016574759 0.12412056 -0.0058300393
-0.016093306 0.12413906 -0.0062568542
-0.015614742 0.12415732 -0.0067291707
-0.015135009 0.12417568 -0.0071812691
-0.014653986 0.12419441 -0.0076151779
-0.010541802 0.12436231 -0.016632555
-0.010043713 0.12438255 -0.017054288
-0.0095503544 0.12440242 -0.017589921
-0.0090629617 0.12442189 -0.018265907
-0.0085748127 0.12444168 -0.018927058
-0.0080734286 0.12446164 -0.019268265
-0.0075646173 0.12448128 -0.019432567
-0.0070507103 0.1245012 -0.019476036
-0.0065404302 0.12452042 -0.019604513
-0.0023793047 0.1246774 -0.018748367
-0.0018746447 0.12469726 -0.019011946
-0.0013631397 0.1247163 -0.019112814
-0.00083131145 0.12473562 -0.018726557
-0.0002885781 0.12475453 -0.018079175
0.0002460166 0.1247743 -0.017624648
0.00077542919 0.12479384 -0.017294919
0.0013035326 0.12481295 -0.016999539
0.0018270409 0.12483253 -0.016811028
0.0023527856 0.1248517 -0.016568478
0.0029035858 0.12487057 -0.015727203
0.0034671831 0.12488921 -0.014580013
0.0040150299 0.12490907 -0.01380922
0.0045718839 0.12492707 -0.012823374
0.0051430217 0.12494624 -0.011493568
0.0056996797 0.12496545 -0.010511773
0.0062570502 0.12498423 -0.0095147518
0.0067986655 0.12500289 -0.0088930372
0.007342482 0.12502256 -0.008217304
0.0078789219 0.12504159 -0.0077216933
0.008412715 0.12506102 -0.0072869211
0.0089416141 0.1250802 -0.0069696158
0.0094717862 0.12509918 -0.0066242795
0.010002021 0.12511916 -0.0062738368
0.010534459 0.12513788 -0.0058731427
0.011065628 0.12515701 -0.0055028871
0.011596545 0.12517728 -0.0051356908
0.012127467 0.12519646 -0.0047710976
0.012658407 0.12521565 -0.0044051651
0.013186145 0.12523502 -0.0041162558
0.013711259 0.12525406 -0.0038913812
0.014234859 0.12527338 -0.0037014002
0.014754574 0.12529351 -0.0036039113
0.015272428 0.12531257 -0.0035523777
0.015788021 0.12533255 -0.003553279
0.016304662 0.12535197 -0.0035306981
0.016824039 0.1253714 -0.0034429498
0.017343964 0.12539136 -0.003340211
0.017863952 0.12541018 -0.0032377087
0.018383473 0.12542953 -0.003145756
0.018902782 0.12544914 -0.0030587432
0.019421984 0.12546872 -0.0029745426
0.019940326 0.12548813 -0.0029100941
0.020457635 0.12550782 -0.0028720077
0.020972647 0.12552743 -0.0028868779
0.021486981 0.12554777 -0.0029184346
0.022001622 0.12556674 -0.0029435821
0.022512717 0.12558639 -0.0030533813
0.023022596 0.12560603 -0.0031923091
0.023533573 0.12562577 -0.0033049043
0.024046283 0.12564561 -0.0033752522
0.024559027 0.12566566 -0.003445399
0.025071044 0.12568517 -0.0035332204
0.025582924 0.12570401 -0.0036258996
0.026094116 0.12572446 -0.0037315146
0.026605835 0.12574351 -0.0038272222
0.027116753 0.12576315 -0.0039409054
0.027625119 0.12578338 -0.0041159755
0.028131561 0.12580325 -0.0043372624
0.02863542 0.12582295 -0.0046201507
0.029137097 0.12584272 -0.00495537
0.029636126 0.12586282 -0.0053535085
0.030139068 0.12588243 -0.0056599928
0.030639851 0.12590191 -0.0060166698
0.031140774 0.12592228 -0.0063695097
0.031638004 0.12594144 -0.0068127969
0.032133494 0.12596181 -0.0072945058
0.032629516 0.12598121 -0.0077664452
0.03311966 0.12600198 -0.0083775893
0.033608086 0.12602168 -0.0090308674
0.034097448 0.12604134 -0.0096621094
0.034591224 0.12606166 -0.010184892
0.035088096 0.12608196 -0.010635071
0.035587423 0.12610091 -0.011028192
0.036085293 0.12612134 -0.011452751
0.036577154 0.12614143 -0.012024885
0.053396244 0.12679054 -0.016771786
0.054004237 0.12680905 -0.01456045
0.054564916 0.12682755 -0.013484757
0.055128612 0.12684682 -0.012332549
0.055664159 0.1268656 -0.011857177
0.056867331 0.12687372 0.0046121785
0.057397507 0.12689362 0.0049594017
0.057932358 0.12691291 0.0054211291
0.058464784 0.12693189 0.0058199903
0.058992289 0.12695149 0.0061032148
0.059519131 0.1269706 0.0063702725
0.060045667 0.12699017 0.0066300705
0.060569707 0.12700926 0.0068302834
0.06109022 0.1270285 0.0069469027
0.061605278 0.12704818 0.0069313096
0.062112991 0.12706797 0.0067416942
0.066808976 0.12727165 -0.0042957375
0.067323513 0.12729169 -0.004321917
0.067837335 0.12731068 -0.0043687271
0.068351902 0.1273309 -0.0043961219
0.068867333 0.12735021 -0.0044016344
0.069380671 0.12736951 -0.0044569578
0.069893822 0.12738913 -0.0045196693
0.070406191 0.12740919 -0.0045962408
0.070918858 0.12742831 -0.0046704216
0.071432114 0.12744878 -0.0047260514
0.071945436 0.12746818 -0.004786266
0.07245598 0.12748812 -0.0049049733
0.072966054 0.12750766 -0.0050402498
0.073475704 0.12752664 -0.0051847752
0.073985435 0.12754652 -0.0053271949
0.074495681 0.12756684 -0.0054566339
0.075003721 0.12758628 -0.0056409789
0.075510085 0.12760541 -0.0058625285
0.076016821 0.12762517 -0.0060766488
0.076526016 0.12764558 -0.0062318407
0.077032462 0.12766474 -0.0064543942
0.077536136 0.12768431 -0.0067410842
0.078039669 0.12770432 -0.0070332736
0.078541525 0.12772483 -0.0073628295
0.079039916 0.12774476 -0.0077774189
0.079534203 0.12776464 -0.0082887746
0.080025472 0.12778428 -0.0088736089
0.080520406 0.12780465 -0.0093707461
0.081014559 0.12782441 -0.0098859947
0.08150503 0.1278442 -0.010492448
0.081995256 0.12786399 -0.01110125
0.083442353 0.12792435 -0.013496751
0.083930954 0.12794481 -0.014144479
0.08442983 0.1279642 -0.014546481
0.08493834 0.12798417 -0.01471792
0.085454047 0.12800319 -0.01471751
0.085978195 0.12802307 -0.014514547
0.086513966 0.12804249 -0.014031622
0.08707504 0.12806159 -0.012943923
0.087674156 0.1280795 -0.010945734
0.088237859 0.12809803 -0.0097962543
0.088780992 0.12811758 -0.0091387024
0.089315332 0.12813632 -0.0086919758
0.089847878 0.12815607 -0.0082874335
0.090386666 0.12817462 -0.0077337613
0.090919942 0.12819448 -0.0073118601
0.091447458 0.12821408 -0.0070261462
0.091972299 0.1282331 -0.0068072136
0.09249498 0.12825257 -0.0066409977
0.093014814 0.12827171 -0.0065431464
0.093530849 0.1282922 -0.0065296758
0.094048604 0.12831144 -0.0064820703
0.094563164 0.12833063 -0.0065115131
0.095073029 0.12835035 -0.0066484855
0.09557122 0.12837034 -0.0070663346
0.096074469 0.12839049 -0.0073638763
0.096583404 0.12841019 -0.0075275935
0.097093239 0.12842992 -0.00766645
0.097601473 0.12844926 -0.0078447638
0.098107353 0.12846875 -0.0080803866
-0.049038943 0.1236381 -0.010404236
-0.04844451 0.12365897 -0.0091287391
-0.047672201 0.12368186 -0.0051762043
-0.047106154 0.12370247 -0.0043293769
-0.046550389 0.12372203 -0.0036381057
-0.046004649 0.12374263 -0.0030956932
-0.045465238 0.12376185 -0.0026507336
-0.044925872 0.12378111 -0.002204997
-0.044389032 0.12380099 -0.0017969618
-0.043858465 0.12382038 -0.0014851149
-0.043326642 0.12384015 -0.0011530763
-0.042797212 0.12385947 -0.00085844274
-0.042270176 0.1238789 -0.00059815054
-0.041750208 0.12389878 -0.00044565927
-0.041229934 0.12391735 -0.00028847056
-0.04070852 0.12393719 -0.00011210899
-0.040188946 0.12395611 3.4004144e-05
-0.039669905 0.12397553 0.00017254551
-0.039150279 0.12399542 0.00032138449
-0.038628854 0.12401437 0.00049591949
-0.038110599 0.12403405 0.00062424393
-0.037589107 0.12405299 0.0007989083
-0.037071358 0.12407199 0.00091894279
-0.036556721 0.12409184 0.00099200988
-0.036041968 0.12411074 0.0010668271
-0.035527136 0.12412953 0.001141011
-0.035010397 0.12414908 0.0012472185
-0.034496844 0.12416872 0.0013028523
-0.033984106 0.12418769 0.0013478742
-0.033473805 0.12420715 0.0013548003
-0.032966878 0.12422563 0.0013104455
-0.032458469 0.12424515 0.0012910275
-0.031952247 0.12426411 0.001236056
-0.031447906 0.12428302 0.0011534411
-0.030944221 0.12430235 0.0010623063
-0.030442256 0.12432075 0.00094298768
-0.029936707 0.12433995 0.00087972352
-0.029429737 0.12435944 0.00083778502
-0.028921105 0.12437876 0.00081965455
-0.028412532 0.12439725 0.00080098334
-0.027906163 0.12441614 0.0007482958
-0.027402785 0.12443552 0.00065252179
-0.026900474 0.12445486 0.00053966499
-0.026400039 0.124474 0.00039849346
-0.025900815 0.12449209 0.00023800916
-0.025401475 0.1245119 8.2206461e-05
-0.024904922 0.12453056 -0.00011778499
-0.024408791 0.12454928 -0.0003241123
-0.023912197 0.12456778 -0.00052300037
-0.023417084 0.1245873 -0.0007448041
-0.022923646 0.12460569 -0.00099172106
-0.022429418 0.12462462 -0.001225915
-0.021935606 0.12464377 -0.0014656869
-0.021442778 0.12466254 -0.001721971
-0.020949885 0.12468119 -0.0019769135
-0.020459838 0.12469968 -0.002274571
-0.019969679 0.12471903 -0.002569834
-0.019485356 0.12473787 -0.0029533415
-0.019002583 0.12475643 -0.0033609949
-0.018519692 0.1247751 -0.003766034
-0.018039122 0.1247941 -0.0042057475
-0.017556397 0.12481293 -0.0046140524
-0.017075522 0.12483066 -0.0050509498
-0.01659348 0.12484971 -0.005468444
-0.016109921 0.12486792 -0.0058627874
-0.015630487 0.12488659 -0.0063208304
-0.015155381 0.12490578 -0.0068423217
-0.014677621 0.1249244 -0.0073257424
-0.01419755 0.12494283 -0.007773512
-0.010089543 0.12511826 -0.017134845
-0.0095921792 0.12513812 -0.01757364
-0.0091042789 0.12515905 -0.018236289
-0.0086106453 0.12517948 -0.01876484
-0.0081038103 0.12519933 -0.018976698
-0.0075926227 0.12521882 -0.019084899
-0.0070789158 0.12523858 -0.019130563
-0.0065703895 0.1252587 -0.019301794
-0.0014129549 0.12545557 -0.019283352
-0.00088250847 0.12547557 -0.018930197
-0.00034193983 0.12549442 -0.018335028
0.00019388989 0.12551293 -0.017851576
0.00072344579 0.12553252 -0.017518997
0.0012490372 0.12555195 -0.017281918
0.0017689138 0.12557182 -0.017180976
0.0022858165 0.12559082 -0.017152853
0.0028216254 0.12561023 -0.016669175
0.0033750292 0.12562878 -0.015765723
0.0039383997 0.12564752 -0.01462392
0.0044922512 0.1256655 -0.013711235
0.0050576325 0.12568428 -0.012519284
0.0056249253 0.12570238 -0.011283905
0.0061833686 0.1257208 -0.010260177
0.0067303739 0.12573943 -0.0095097199
0.0072768871 0.12575868 -0.0087734237
0.0078139752 0.12577684 -0.0082593132
0.0083498619 0.12579633 -0.0077758105
0.0088792965 0.12581588 -0.0074456157
0.0094149718 0.12583458 -0.0069671823
0.0099493545 0.12585364 -0.0065191397
0.010482435 0.12587275 -0.0061038332
0.011015066 0.12589237 -0.0056980299
0.011546202 0.12591137 -0.0053266278
0.01207591 0.12593095 -0.0049900897
0.012605226 0.12595056 -0.0046630893
0.013132432 0.12596968 -0.0043873359
0.013657492 0.12598948 -0.0041619632
0.014182651 0.12600844 -0.0039358111
0.014704862 0.12602811 -0.0037789461
0.015223017 0.12604779 -0.0037189664
0.015737751 0.12606774 -0.0037415505
0.016252469 0.12608688 -0.0037652836
0.016772471 0.1261066 -0.0036609443
0.017293369 0.12612659 -0.0035357457
0.017813513 0.12614538 -0.0034301388
0.01833432 0.12616549 -0.0033059109
0.018853638 0.12618497 -0.0032186033
0.019372605 0.12620486 -0.0031395438
0.019890564 0.12622467 -0.0030840465
0.020406934 0.12624422 -0.0030671477
0.02092316 0.12626371 -0.0030542626
0.021437781 0.12628374 -0.0030786926
0.021951657 0.12630351 -0.0031216927
0.022464944 0.12632298 -0.0031792
0.022977863 0.12634283 -0.0032452552
0.023490887 0.12636238 -0.0033088946
0.024004539 0.12638246 -0.0033567962
0.024518052 0.12640262 -0.0034073838
0.025031691 0.12642172 -0.0034577108
0.025544051 0.12644185 -0.0035361992
0.026055302 0.12646149 -0.0036432336
0.02656664 0.12648161 -0.0037463838
0.027076863 0.12650098 -0.003876663
0.027585834 0.12652151 -0.0040359879
0.028093098 0.12654088 -0.0042389026
0.028597616 0.1265617 -0.0045039961
0.02910088 0.12658179 -0.0048010563
0.029603533 0.12660153 -0.0051130485
0.030105453 0.12662187 -0.0054423017
0.03060854 0.12664218 -0.0057422156
0.031109776 0.12666234 -0.0060880976
0.03161094 0.12668248 -0.0064361012
0.032106739 0.12670191 -0.0069127157
0.032603942 0.12672289 -0.0073535712
0.033094518 0.12674333 -0.0079539716
0.033582143 0.12676369 -0.008625973
0.034070425 0.12678429 -0.0092814118
0.034562845 0.12680507 -0.0098375566
0.035060603 0.12682439 -0.010267514
0.035560042 0.12684524 -0.010653971
0.036060967 0.12686561 -0.01100674
0.036557667 0.12688527 -0.011462968
0.037052274 0.12690574 -0.011966569
0.037544873 0.12692606 -0.012519457
0.052762393 0.12752561 -0.018562097
0.053367257 0.12754226 -0.016429115
0.053955819 0.12756045 -0.014683495
0.054515898 0.12757833 -0.013618602
0.05507553 0.12759687 -0.012569218
0.055613246 0.12761563 -0.012039638
0.056816451 0.12761496 0.0044160942
0.057344738 0.1276339 0.0047184778
0.05787744 0.12765327 0.0051289108
0.058408745 0.12767223 0.0055005141
0.058935553 0.12769251 0.0057691392
0.05946238 0.12771167 0.0060366634
0.059986193 0.12773091 0.006228637
0.060508974 0.1277501 0.0064000897
0.061027326 0.12777056 0.006464052
0.061542936 0.12778968 0.0064638006
0.062058028 0.12780942 0.0064467564
0.066245042 0.12800094 -0.0044180816
0.066763304 0.12802038 -0.0043565137
0.067279585 0.12803999 -0.0043429239
0.067794934 0.12805937 -0.0043504378
0.068310328 0.12807958 -0.0043569058
0.068825379 0.12809937 -0.0043714298
0.069339447 0.1281189 -0.0044072894
0.069853358 0.12813871 -0.0044501824
0.0703675 0.12815845 -0.0044884533
0.070880689 0.12817794 -0.0045492807
0.071392551 0.12819873 -0.0046408223
0.071904793 0.128218 -0.0047207065
0.072414756 0.12823759 -0.0048574125
0.072924368 0.12825765 -0.0050023347
0.073432945 0.12827753 -0.0051710885
0.073941186 0.12829776 -0.0053473478
0.07444869 0.12831782 -0.0055436501
0.074956678 0.1283374 -0.0057304492
0.075465001 0.12835754 -0.0059032263
0.075973943 0.12837724 -0.006065513
0.076484151 0.12839754 -0.0061956113
0.076990999 0.12841718 -0.0064068316
0.077495009 0.12843761 -0.0066848695
0.07799802 0.1284579 -0.0069882143
0.078500316 0.12847807 -0.0073097236
0.078998879 0.12849773 -0.0077182865
0.079495341 0.12851843 -0.0081763109
0.079989448 0.12853837 -0.0086943749
0.08048024 0.1285588 -0.0092919422
0.080971196 0.12857985 -0.0098824082
0.081460625 0.12860027 -0.010509877
0.081948414 0.12862077 -0.011178149
0.082430519 0.12864119 -0.011981235
0.082917608 0.12866203 -0.012666563
0.08340206 0.12868257 -0.013412983
0.083887838 0.12870362 -0.014128808
0.084382705 0.12872371 -0.01462571
0.084886655 0.12874335 -0.014907357
0.085398473 0.1287632 -0.015000423
0.085919701 0.12878263 -0.014865802
0.086455196 0.12880169 -0.014391938
0.087021105 0.12881997 -0.013189614
0.087607205 0.12883756 -0.011503484
0.088166997 0.12885669 -0.010444787
0.088719651 0.12887482 -0.0095605198
0.08925686 0.12889412 -0.0090445587
0.089788385 0.12891288 -0.0086685866
0.090322562 0.12893203 -0.0082245516
0.090853184 0.12895148 -0.0078662569
0.091381274 0.12897137 -0.007565001
0.091906495 0.12899028 -0.0073386673
0.092431113 0.12900978 -0.0071271937
0.09295141 0.12902924 -0.0070151361
0.093467012 0.12904949 -0.0070169959
0.093982309 0.12906894 -0.0070254887
0.094494723 0.12908912 -0.0071030576
0.095000111 0.12910831 -0.0073509235
0.095498696 0.12912875 -0.0077575529
0.096004844 0.12914908 -0.0079851924
0.09651579 0.12916866 -0.0080982009
0.097026132 0.12918904 -0.0082259374
0.097534575 0.12920821 -0.0084016751
-0.049087547 0.1243612 -0.010497613
-0.048518412 0.12438092 -0.0096042724
-0.047941044 0.12440084 -0.0085868472
-0.047194012 0.12442268 -0.0050169239
-0.046642393 0.12444173 -0.004387009
-0.046095259 0.1244615 -0.003825316
-0.045558855 0.12448153 -0.0034237548
-0.045027457 0.12450062 -0.0030994336
-0.044488396 0.12452018 -0.0026592307
-0.043955643 0.12454028 -0.0023133606
-0.04342211 0.12455907 -0.0019555832
-0.042888664 0.12457886 -0.0016001667
-0.04235933 0.12459812 -0.0013053534
-0.041830674 0.12461774 -0.0010219244
-0.041306477 0.12463693 -0.00080602034
-0.040784054 0.12465618 -0.00061506429
-0.040263105 0.12467637 -0.00044758752
-0.039744947 0.1246952 -0.00032188784
-0.03922629 0.12471467 -0.00018802469
-0.038705628 0.12473416 -2.5230293e-05
-0.038188294 0.12475343 8.8242457e-05
-0.03766853 0.12477234 0.00023784133
-0.037146021 0.12479248 0.00043043448
-0.036626115 0.12481132 0.00058195455
-0.036109917 0.12483116 0.00067870301
-0.035594858 0.12484987 0.0007571741
-0.035079941 0.12486969 0.00083488232
-0.034564313 0.12488894 0.00092186907
-0.034050819 0.12490853 0.0009794652
-0.033539537 0.12492742 0.0010010771
-0.033029813 0.12494618 0.00099921541
-0.032520521 0.1249661 0.00099286321
-0.032012574 0.12498508 0.00096461584
-0.031506456 0.12500393 0.00090884115
-0.03100354 0.12502363 0.00080607203
-0.030501299 0.12504297 0.00069219345
-0.029994758 0.12506162 0.00064297504
-0.029485062 0.12508151 0.00064160983
-0.028973002 0.12510084 0.00067503261
-0.028462796 0.12511931 0.00068107073
-0.027957553 0.12513876 0.00061317929
-0.027455214 0.12515803 0.00050032488
-0.026953353 0.12517738 0.00038113975
-0.026452607 0.12519649 0.00024415876
-0.025954306 0.12521628 7.1949558e-05
-0.025456896 0.12523499 -0.00011489904
-0.024957586 0.12525389 -0.00027243752
-0.024460448 0.12527308 -0.00046333531
-0.023963192 0.12529227 -0.00065232423
-0.023465669 0.12531124 -0.00083679933
-0.022968125 0.12533022 -0.0010212774
-0.022470448 0.12534915 -0.0012033817
-0.021973258 0.12536846 -0.0013939322
-0.021479504 0.12538749 -0.001635043
-0.020987488 0.12540691 -0.0019031886
-0.020496435 0.12542555 -0.0021841249
-0.020007223 0.1254444 -0.0024942332
-0.019521996 0.12546362 -0.002864456
-0.019038301 0.1254828 -0.0032570248
-0.018551694 0.12550229 -0.0036060531
-0.018063638 0.12552072 -0.0039327554
-0.017576391 0.1255399 -0.0042720707
-0.017087592 0.12555899 -0.0045892745
-0.016602792 0.12557836 -0.0049646264
-0.016122218 0.12559749 -0.0054051001
-0.015642866 0.12561615 -0.0058631711
-0.015168774 0.12563494 -0.0064013032
-0.014693083 0.12565383 -0.0069146343
-0.014217309 0.12567259 -0.0074261986
-0.013745963 0.12569195 -0.0080046374
-0.009146736 0.1258956 -0.018237058
-0.0086431038 0.12591629 -0.018524835
-0.0081313178 0.12593617 -0.018617416
-0.0076141036 0.1259557 -0.018579422
-0.0071022809 0.12597539 -0.018670823
-0.0065985559 0.12599611 -0.018956138
-0.00093269139 0.12621513 -0.019110132
-0.00039704592 0.12623374 -0.018632082
0.00014043238 0.1262528 -0.018109877
0.00067040743 0.12627195 -0.017768728
0.0011922349 0.12629104 -0.017621305
0.0017065117 0.12631144 -0.017654436
0.0022231548 0.1263316 -0.017630197
0.0027555753 0.12635055 -0.017230222
0.0033023157 0.12636942 -0.01648597
0.0038533923 0.12638713 -0.015638923
0.0044240979 0.12640478 -0.014322086
0.0049858415 0.12642215 -0.013220176
0.0055451128 0.1264409 -0.012176706
0.0060994858 0.12645841 -0.011250846
0.0066550411 0.12647684 -0.010296079
