# .PCD v0.7 - Point Cloud Data file format
VERSION 0.7
FIELDS x y z
SIZE 4 4 4
TYPE F F F
COUNT 1 1 1
WIDTH 1345
HEIGHT 1
VIEWPOINT 0 0 0 1 0 0 0
POINTS 1345
DATA ascii
0.060102675 0.10543818 0.027738696
0.060592059 0.10549115 0.028034277
0.061118748 0.10553691 0.028305825
0.061600566 0.10559124 0.028606335
0.062019847 0.10565789 0.028946819
-0.063469157 0.10596769 0.0076036891
-0.064772502 0.10639194 0.0091992496
-0.06567128 0.1067305 0.010491611
-0.066234872 0.10699892 0.011532424
-0.066545129 0.10721375 0.012383508
-0.066806912 0.10741819 0.013198261
-0.067036763 0.1076156 0.013989029
-0.067213103 0.10780197 0.014739673
-0.067364737 0.10798352 0.015471719
-0.067603692 0.10818252 0.016269501
-0.067809522 0.10837538 0.017042199
-0.067872852 0.10853838 0.017707992
-0.067827284 0.10867787 0.018292299
-0.067769557 0.10881546 0.018867401
-0.067744374 0.10895916 0.019466989
-0.067649394 0.10908815 0.020014282
-0.067583278 0.10922352 0.020583121
-0.06750448 0.10935697 0.021142289
-0.067433566 0.1094905 0.021707749
-0.067377374 0.10962839 0.022283927
-0.067284614 0.10975771 0.022832951
-0.067173734 0.10988423 0.023368061
-0.06701386 0.10999925 0.023866866
-0.066897467 0.11012404 0.024398006
-0.066743985 0.11024103 0.024901289
-0.06654568 0.11034921 0.025370868
-0.066351846 0.11045712 0.025844121
-0.06617628 0.11056968 0.026330795
-0.065978453 0.11067704 0.026801078
-0.065733224 0.11077505 0.027235497
-0.065498844 0.1108748 0.027678229
-0.065237164 0.11096823 0.028100582
-0.064946979 0.11105654 0.028501561
-0.06465371 0.11114424 0.028899981
-0.064342663 0.1112282 0.029285228
-0.064031273 0.11131216 0.029669985
-0.063717678 0.11139482 0.030053493
-0.06342867 0.11148314 0.030455217
-0.063121274 0.11156771 0.030843254
-0.062771425 0.11164379 0.031199191
-0.062440287 0.1117228 0.031569388
-0.062089175 0.11179864 0.03192452
-0.061722904 0.11187016 0.032268461
-0.061360031 0.11194318 0.032614637
-0.060970314 0.1120102 0.032941002
-0.060581837 0.1120775 0.03326821
-0.060212288 0.11214948 0.033609372
-0.059797999 0.11221174 0.033917163
-0.059376031 0.11227181 0.034219269
-0.058959536 0.11233265 0.034525607
-0.058506403 0.11238693 0.034804109
-0.058045417 0.11243911 0.035076994
-0.057570528 0.11248818 0.035339344
-0.05708364 0.11253528 0.035592694
-0.056561943 0.11257415 0.035820019
-0.055983189 0.11260125 0.036004614
-0.055312272 0.11260942 0.036119979
-0.054577708 0.11260377 0.036187667
-0.053937614 0.1126186 0.036326159
-0.053294744 0.11263204 0.036462646
-0.052624058 0.11264011 0.036578219
-0.051896673 0.11263657 0.036651079
-0.044935856 0.11221386 0.035761382
-0.044454996 0.11226188 0.036019329
0.057355504 0.105073 0.022614855
0.05772737 0.10514895 0.022985809
0.057959832 0.10525184 0.023446105
0.057930227 0.10540547 0.0240745
0.05788872 0.10556128 0.024710463
0.058023479 0.10568321 0.025233498
0.058295742 0.10577833 0.025668183
0.058636472 0.10586028 0.026058979
0.059008081 0.10593633 0.026430028
0.059399538 0.10600837 0.026788382
0.059812833 0.10607622 0.027132612
0.060254607 0.10613867 0.027458703
0.060761206 0.1061886 0.027743177
0.06125845 0.10624016 0.028033666
0.061713886 0.10629997 0.028350962
0.0621254 0.10636829 0.028696384
-0.063314438 0.10659861 0.007320195
-0.063734561 0.10683608 0.0082536219
-0.06512022 0.10727598 0.0099114375
-0.066042006 0.10761902 0.011221156
-0.06636402 0.10783564 0.012081129
-0.06666787 0.10804843 0.012927531
-0.066789806 0.10822354 0.013637385
-0.066911757 0.10839859 0.014347121
-0.067035168 0.10857391 0.015058168
-0.06720078 0.10875762 0.01580091
-0.067396805 0.10894798 0.016566278
-0.067474961 0.10911331 0.017243437
-0.067478925 0.10926437 0.017864665
-0.067385942 0.10939368 0.018413395
-0.06733574 0.10953247 0.018994229
-0.067282841 0.10967086 0.019572917
-0.067223176 0.10980718 0.020146787
-0.067154393 0.10994221 0.020713441
-0.067033052 0.11006614 0.021240966
-0.066963941 0.11020002 0.021807725
-0.066851333 0.11032636 0.022341564
-0.06677179 0.11045866 0.022900449
-0.066677839 0.11058768 0.023448575
-0.06655404 0.11071119 0.023974068
-0.066392466 0.11082697 0.024471208
-0.066231877 0.11094195 0.024969392
-0.066064164 0.1110559 0.025462085
-0.065881342 0.11116734 0.025943246
-0.065701112 0.11127819 0.026426593
-0.065481111 0.11138123 0.026880112
-0.065247849 0.11148208 0.027323484
-0.064981192 0.11157483 0.027742067
-0.064685225 0.11166214 0.028138552
-0.064400464 0.11175117 0.02854347
-0.064109102 0.11183915 0.028943397
-0.063784033 0.11192001 0.029318133
-0.063449517 0.11199941 0.029685538
-0.06314452 0.1120844 0.030075429
-0.06285198 0.11217219 0.030474471
-0.062506154 0.11224886 0.030833414
-0.062162556 0.11232584 0.031194143
-0.061798915 0.11239885 0.031539921
-0.061415497 0.11246785 0.031870712
-0.061044458 0.11253861 0.032211091
-0.060685672 0.11261231 0.032560471
-0.060295954 0.11268026 0.032886487
-0.059900802 0.11274645 0.03320859
-0.059500556 0.11281182 0.033526886
-0.059087791 0.11287441 0.033835832
-0.058658864 0.11293323 0.034132566
-0.058202099 0.11298601 0.034408618
-0.057736494 0.11303747 0.034677926
-0.057243392 0.11308364 0.034926388
-0.056791238 0.11313819 0.03520574
-0.056284148 0.11318016 0.035443995
-0.055741873 0.11321585 0.035655651
-0.055052117 0.11322024 0.035756838
-0.054336105 0.11321931 0.035838265
-0.053728934 0.11324119 0.036001373
-0.053120382 0.11326176 0.036163699
-0.052465085 0.11327418 0.036290418
-0.051718649 0.11326578 0.0363493
0.057497717 0.10577459 0.022341428
0.057859991 0.10585248 0.022718342
0.058103941 0.10595322 0.023171276
0.058113281 0.10609929 0.023774698
0.058093484 0.10625079 0.024396844
0.058220189 0.10637427 0.024924863
0.058479171 0.1064721 0.025368141
0.058796935 0.1065586 0.02577368
0.059167877 0.10663484 0.026145076
0.059576672 0.10670386 0.026492307
0.059987921 0.10677229 0.026837831
0.060440518 0.1068328 0.027156904
0.060927704 0.10688658 0.027453735
0.061427355 0.10693805 0.027742574
0.061857894 0.10700287 0.028075773
0.062287524 0.10706773 0.028409526
-0.063306585 0.10740839 0.0077656298
-0.064599469 0.10782805 0.0093539609
-0.065792084 0.10822762 0.010866866
-0.066132754 0.10844803 0.011740854
-0.066528454 0.10867991 0.012656218
-0.066639632 0.1088523 0.013358078
-0.066684902 0.10901158 0.014010346
-0.066706285 0.10916434 0.014645127
-0.066814616 0.10933635 0.015344696
-0.066969246 0.10951837 0.016079029
-0.0671027 0.10969514 0.016797673
-0.067172647 0.10985927 0.017468551
-0.067137524 0.11000134 0.018060602
-0.067087457 0.11014016 0.018641539
-0.067076862 0.11028711 0.01925209
-0.067017004 0.11042333 0.019825693
-0.066960484 0.11056012 0.02040194
-0.066855356 0.11068765 0.020941434
-0.066748902 0.11081485 0.021479953
-0.066631004 0.11093937 0.022009961
-0.06649147 0.11105951 0.022523755
-0.066359282 0.11118078 0.023043096
-0.066200763 0.11129697 0.023542561
-0.066037059 0.11141148 0.024038352
-0.06586051 0.11152395 0.024524322
-0.065701082 0.11164007 0.025023131
-0.065516561 0.11175043 0.025503203
-0.06533365 0.11186088 0.025984548
-0.065138116 0.11196956 0.026456188
-0.064897209 0.11206827 0.02689399
-0.064640328 0.11216341 0.027319772
-0.064364806 0.11225492 0.027731622
-0.064117745 0.11235268 0.028164666
-0.063821509 0.1124398 0.028560895
-0.063487634 0.11251932 0.02892888
-0.063153967 0.11259785 0.029297277
-0.062850773 0.11268407 0.029688166
-0.062537864 0.11276769 0.030071821
-0.062195033 0.11284488 0.030433137
-0.061824419 0.11291686 0.030773556
-0.061462279 0.11299006 0.031120475
-0.061087321 0.11306029 0.031457674
-0.060727108 0.11313469 0.03180581
-0.060367681 0.11320835 0.032154653
-0.059977423 0.11327624 0.032480333
-0.059581451 0.11334228 0.032801811
-0.059179664 0.11340741 0.033118818
-0.058767602 0.11346997 0.033428345
-0.058340903 0.11353026 0.033726614
-0.057903334 0.11358792 0.034016777
-0.057463031 0.11364425 0.034305174
-0.056980614 0.11369307 0.034561489
-0.056493275 0.11374018 0.034814451
-0.055986475 0.1137832 0.035052661
-0.055410739 0.11381195 0.035239208
-0.054711867 0.11381467 0.03533354
-0.054062929 0.11382801 0.035465162
-0.053473674 0.11385366 0.035641667
-0.052894719 0.11388168 0.035825904
-0.052251142 0.11389594 0.035961632
0.05754859 0.10649381 0.022126423
0.0579754 0.1065595 0.022461819
0.058202893 0.10666341 0.022925384
0.058243029 0.10680339 0.023509044
0.058264241 0.10694725 0.024104778
0.058376849 0.1070733 0.024641937
0.058644306 0.10716958 0.025079826
0.058975298 0.10725375 0.025476852
0.059357207 0.10732798 0.025841236
0.059743989 0.10740145 0.026202401
0.060120028 0.10747679 0.026570488
0.06058377 0.10753535 0.026882336
0.061078396 0.10758793 0.027174355
0.061560389 0.10764315 0.027474536
0.062009573 0.10770444 0.027795678
0.062413722 0.10777451 0.028145783
-0.063092873 0.10802727 0.0074378103
-0.063844636 0.1083335 0.0086202715
-0.065462962 0.10881997 0.010453123
-0.065881878 0.10905632 0.01138597
-0.066270858 0.10928717 0.012296075
-0.066467166 0.10947658 0.013062019
-0.06648095 0.10962911 0.013690727
-0.066444442 0.10977007 0.014281975
-0.066517264 0.10993458 0.014955048
-0.066653639 0.11011194 0.015675908
-0.066876262 0.11030822 0.016461214
-0.066950336 0.11047205 0.017135495
-0.066980064 0.11062799 0.017776147
-0.066995725 0.11077994 0.018406428
-0.066974893 0.11092512 0.019009134
-0.066957638 0.11107108 0.019614689
-0.066915512 0.111211 0.020201581
-0.066836238 0.11134331 0.020760627
-0.066745579 0.11147401 0.021310931
-0.066612348 0.11159512 0.021829583
-0.066442221 0.11170854 0.022320397
-0.066240638 0.11181518 0.0227878
-0.066035062 0.11192233 0.023251666
-0.065835297 0.11202925 0.023720587
-0.065614596 0.11213206 0.024173377
-0.065397337 0.11223636 0.024628744
-0.06514737 0.11233271 0.025059905
-0.064909369 0.11243284 0.025499573
-0.064695492 0.11253653 0.025957756
-0.064473554 0.11264022 0.026409544
-0.064232796 0.11273891 0.026847372
-0.064004526 0.11284047 0.027294535
-0.063747883 0.1129358 0.027720487
-0.063457593 0.11302397 0.028121335
-0.063137904 0.11310666 0.028499879
-0.062827811 0.11319168 0.02888553
-0.062550411 0.1132828 0.029295912
-0.062233236 0.11336596 0.029676247
-0.061894428 0.11344354 0.030040758
-0.061556116 0.11352254 0.030405229
-0.061198182 0.11359712 0.030755091
-0.060844745 0.11367176 0.031108577
-0.06048793 0.11374667 0.031459276
-0.060125735 0.11382 0.031806011
-0.059762213 0.11389399 0.032151598
-0.0593834 0.11396351 0.032485899
-0.058970783 0.11402702 0.032794621
-0.058537234 0.11408537 0.03308792
-0.058110308 0.11414558 0.033385959
-0.057666004 0.11420218 0.033671085
-0.057197519 0.11425315 0.033938233
-0.056717589 0.11430231 0.034196507
-0.056188092 0.1143409 0.034417737
-0.055663057 0.11438018 0.034642298
-0.055041384 0.11439997 0.03479426
-0.054399617 0.11441542 0.034931142
-0.053793084 0.11443715 0.035094623
-0.053218998 0.11446698 0.035282273
-0.052632429 0.11449403 0.035460535
-0.051997222 0.11451053 0.035602417
0.055933144 0.10724303 0.021787159
0.056604818 0.10725756 0.021946287
0.057516433 0.10722911 0.021964751
0.058058906 0.10727265 0.022226
0.058297787 0.10737456 0.022682123
0.058334261 0.10751537 0.023268079
0.058388483 0.10765257 0.023842696
0.058550522 0.10776927 0.024348192
0.058786683 0.10787177 0.024806062
0.059099134 0.10795944 0.025214862
0.059485614 0.10803308 0.025576284
0.059880864 0.108105 0.025931982
0.06026531 0.10817898 0.026294658
0.060740724 0.10823546 0.026599027
0.061229359 0.10828947 0.02689472
0.06168206 0.10835042 0.027213687
0.062096257 0.10841877 0.027557224
0.062553853 0.10847861 0.027872959
-0.063002512 0.10867099 0.0072027436
-0.063429192 0.10890955 0.0081412671
-0.064711198 0.10932479 0.0097219888
-0.065609589 0.1096603 0.011014858
-0.066006958 0.10989244 0.011931428
-0.066200078 0.11008142 0.012694955
-0.066228151 0.11023709 0.013334323
-0.066191882 0.11037805 0.013925611
-0.066297323 0.11054958 0.014623204
-0.066516265 0.11074357 0.0154062
-0.06673789 0.11093875 0.016191039
-0.066828996 0.11110714 0.016877826
-0.066894501 0.11126964 0.017545499
-0.066921055 0.11142409 0.018183913
-0.066896945 0.11156791 0.018784387
-0.066885114 0.11171449 0.019394048
-0.066872984 0.1118612 0.020003401
-0.066832215 0.11200231 0.020591229
-0.066768587 0.1121381 0.021161947
-0.066661343 0.11226512 0.021699833
-0.066488087 0.11237821 0.022188278
-0.066292018 0.11248577 0.022659821
-0.066074163 0.1125899 0.023114737
-0.065843388 0.11269103 0.02355993
-0.065592289 0.11278717 0.023990171
-0.06533885 0.11288399 0.024418399
-0.065057278 0.11297458 0.024825566
-0.064777628 0.11306534 0.025234181
-0.064510897 0.11315888 0.025652513
-0.064250872 0.1132538 0.026075793
-0.064002082 0.11335124 0.02650751
-0.063766405 0.11345176 0.026949063
-0.063502327 0.11354585 0.027369328
-0.063223436 0.11363669 0.027778579
-0.06294775 0.11372818 0.028190291
-0.062649891 0.11381504 0.028585302
-0.062357739 0.11390396 0.028984366
-0.062072828 0.11399393 0.029388918
-0.061747979 0.11407485 0.029763781
-0.061430931 0.11415795 0.030144293
-0.061100781 0.11423891 0.030514928
-0.06076514 0.11431811 0.030881474
-0.060424816 0.11439653 0.031244501
-0.060065042 0.11447023 0.031593088
-0.059690554 0.11454156 0.031930503
-0.059290018 0.11460782 0.032248307
-0.058873173 0.11466953 0.032554086
-0.058454104 0.11473206 0.032857891
-0.05798915 0.11478361 0.033127714
-0.057508636 0.11483274 0.033385646
-0.057034429 0.11488377 0.033647995
-0.05649415 0.11492065 0.033860859
-0.055978891 0.1149624 0.03409275
-0.055394385 0.11498973 0.034272712
-0.054765951 0.11500819 0.034419339
-0.054153115 0.11502916 0.034578178
-0.053554811 0.11505421 0.034747425
-0.052989267 0.11508548 0.03494167
-0.05240031 0.11511194 0.035118107
-0.051791549 0.11513446 0.035279613
0.055432495 0.10792245 0.021329883
0.055940267 0.10796987 0.021599537
0.056547027 0.10799757 0.021802414
0.057493594 0.1079625 0.021797093
0.058081765 0.10799766 0.022028852
0.058355536 0.10809301 0.022462612
0.058425557 0.10822734 0.023027094
0.058479957 0.10836463 0.023601586
0.058692366 0.1084716 0.024074685
0.058947973 0.10857027 0.024520004
0.059240144 0.10866211 0.024941914
0.059639383 0.10873343 0.025295017
0.060084272 0.10879605 0.025618874
0.06050662 0.10886291 0.025957182
0.060941704 0.10892742 0.026287232
0.061392698 0.1089888 0.026607176
0.061794233 0.10905966 0.026958806
0.062207855 0.10912821 0.027302677
-0.062852263 0.10930348 0.0069224299
-0.063283324 0.10954186 0.0078644399
-0.063916683 0.10982199 0.0089585083
-0.065220088 0.11024136 0.010555445
-0.065628052 0.11047512 0.011480175
-0.065914869 0.11068346 0.012314004
-0.065951481 0.11083938 0.012960228
-0.065925226 0.11098392 0.01355873
-0.06607154 0.11116276 0.014287183
-0.066401958 0.11138066 0.015153619
-0.066575974 0.11156563 0.015902875
-0.066658631 0.11173174 0.016583439
-0.06676428 0.11190231 0.017281322
-0.066789895 0.11205669 0.017919011
-0.066794932 0.11220695 0.0185412
-0.066760659 0.11234916 0.019133996
-0.066751152 0.11249613 0.019745402
-0.06673941 0.11264291 0.020355048
-0.066702291 0.1127835 0.020945752
-0.066612601 0.11291438 0.021496838
-0.066484421 0.11303628 0.022019343
-0.066334739 0.11315482 0.022525335
-0.066125274 0.11326026 0.022986645
-0.065908477 0.11336476 0.023442285
-0.065670177 0.11346366 0.023882076
-0.065395743 0.11355629 0.024294406
-0.065110102 0.11364612 0.02469846
-0.064828768 0.11373665 0.025105838
-0.064544767 0.1138268 0.02551112
-0.06426622 0.11391772 0.025920646
-0.063993588 0.11401054 0.026334366
-0.063720778 0.1141023 0.026748234
-0.063457996 0.11419769 0.027169261
-0.063204184 0.11429337 0.027597437
-0.062935248 0.11438674 0.02801398
-0.062648624 0.11447648 0.028417382
-0.062376752 0.11456955 0.028831599
-0.062098578 0.11466053 0.0292414
-0.061781898 0.11474364 0.029622262
-0.061453387 0.11482479 0.029994093
-0.061114565 0.11490363 0.030358128
-0.06075798 0.11497851 0.030709071
-0.060394522 0.11505253 0.031054633
-0.060017016 0.11512337 0.03138968
-0.059622575 0.11519063 0.031712066
-0.059219919 0.11525559 0.032028552
-0.05879977 0.11531796 0.032331493
-0.058357492 0.11537488 0.032618057
-0.057872195 0.11542327 0.032872315
-0.057400718 0.11547458 0.033136811
-0.056889102 0.11551795 0.033371162
-0.056350954 0.11555536 0.033585649
-0.055785604 0.1155875 0.033779677
-0.055184893 0.11561116 0.033947486
-0.05456008 0.11563132 0.034096811
-0.053913586 0.11564604 0.034230139
-0.053314347 0.11567095 0.034398649
-0.052752703 0.11570361 0.034595627
-0.052134059 0.11572468 0.034749564
-0.051534858 0.11574861 0.034918454
0.055104453 0.10856719 0.020756336
0.055548824 0.1086275 0.021068688
0.056054819 0.10867549 0.021339439
0.056599662 0.1087156 0.021584172
0.057440355 0.10870181 0.02164894
0.058089949 0.10872562 0.021841232
0.058382344 0.10881749 0.022263039
0.058508825 0.10894088 0.022791214
0.058600731 0.10907099 0.023341609
0.058809862 0.10917874 0.023816764
0.059105694 0.10926989 0.024236307
0.059424501 0.10935681 0.024641022
0.059838925 0.10942528 0.024984427
0.060295489 0.10948594 0.025300687
0.060748745 0.10954698 0.025619
0.061183184 0.10961176 0.025949486
0.061596088 0.10968067 0.026293837
0.061946772 0.10976137 0.0266781
0.062319227 0.10983804 0.027048402
-0.062583864 0.10991104 0.0065535274
-0.06318529 0.11018441 0.0076235901
-0.06368795 0.11043756 0.0086194184
-0.064413786 0.11073589 0.0097831953
-0.065248296 0.11105779 0.011028197
-0.06558013 0.11127485 0.01189593
-0.065657452 0.11144017 0.012572486
-0.065659285 0.11158892 0.013192549
-0.065801814 0.11176811 0.013917898
-0.066169173 0.11199267 0.014812271
-0.066395372 0.1121887 0.015600677
-0.066483319 0.11235555 0.016285203
-0.066549987 0.11251815 0.016953813
-0.066568837 0.11267055 0.017586619
-0.06658785 0.11282384 0.018219346
-0.066573635 0.1129701 0.018827064
-0.066558823 0.11311536 0.019434629
-0.066559643 0.11326484 0.020053647
-0.066505924 0.11340323 0.020631742
-0.066429958 0.11353613 0.021193344
-0.066345423 0.11366758 0.021748405
-0.066248849 0.1137964 0.022294421
-0.066083312 0.11391154 0.022788467
-0.065900758 0.11402211 0.023270173
-0.065678895 0.11412563 0.023722056
-0.065433845 0.11422383 0.024156503
-0.065202311 0.11432481 0.024601262
-0.064931378 0.11441793 0.025016347
-0.064657643 0.11451059 0.025429226
-0.064393431 0.11460463 0.025849421
-0.064103603 0.11469393 0.026250195
-0.063818455 0.11478382 0.026654629
-0.063544393 0.11487641 0.027067363
-0.063277483 0.11497013 0.027485564
-0.063003868 0.11506286 0.027898557
-0.062721923 0.11515331 0.028305419
-0.062445883 0.11524557 0.028716572
-0.062126946 0.11532834 0.029095592
-0.061793096 0.11540782 0.029463563
-0.061455749 0.11548783 0.029828632
-0.061101057 0.11556303 0.030180931
-0.060711507 0.11563199 0.030506736
-0.06030494 0.1156964 0.030820165
-0.059911143 0.11576385 0.031143004
-0.059508435 0.11582971 0.031459186
-0.059118178 0.11589862 0.031784486
-0.058668461 0.11595431 0.032065351
-0.058217749 0.11601 0.032345463
-0.057742674 0.11606085 0.032607239
-0.057247829 0.11610777 0.032854158
-0.056730416 0.1161492 0.033084299
-0.056176715 0.11618411 0.03328706
-0.055619545 0.11621843 0.0334871
-0.055008296 0.11624058 0.033646706
-0.054351471 0.11625377 0.03377207
-0.053697258 0.11626732 0.033899438
-0.05308013 0.11628956 0.034054268
-0.052467782 0.11631162 0.034213241
-0.051845334 0.11633191 0.034364294
-0.051272698 0.1163629 0.034552861
0.055277981 0.10926084 0.020456608
0.055687707 0.10932806 0.020792354
0.056159128 0.10938302 0.021086473
0.05674535 0.10941556 0.02130351
0.057582553 0.10940388 0.021375252
0.058127701 0.10944769 0.021634672
0.058397513 0.10954401 0.022070821
0.058578707 0.10965717 0.022563975
0.058745813 0.10977286 0.023065994
0.058949396 0.10988177 0.023544732
0.059265755 0.1099692 0.023950992
0.059644282 0.11004484 0.024317304
0.060095057 0.11010659 0.024637269
0.060550798 0.11016756 0.024954051
0.06098114 0.11023322 0.025287079
0.0613783 0.11030531 0.025641451
0.06172806 0.11038631 0.026026219
0.06207921 0.11046696 0.026410172
-0.063070223 0.11082422 0.0073696617
-0.063599855 0.11108156 0.0083861463
-0.064060554 0.11132554 0.009350677
-0.064669922 0.11159997 0.010426897
-0.065181985 0.11185455 0.011429979
-0.065301657 0.1120275 0.012138539
-0.065328225 0.11218197 0.012777011
-0.065481082 0.11236272 0.013510247
-0.065832749 0.11258388 0.014392918
-0.066066325 0.11278102 0.015186922
-0.066207945 0.11295915 0.01591176
-0.066286579 0.11312355 0.016589459
-0.066275328 0.11327036 0.017199608
-0.066267699 0.11341766 0.017812382
-0.066315219 0.11357627 0.018466581
-0.066296831 0.11372192 0.019071126
-0.066286758 0.1138689 0.019682169
-0.06625402 0.11401044 0.020276226
-0.066189393 0.114146 0.02084625
-0.066139281 0.11428491 0.021427121
-0.066036016 0.11441246 0.021968076
-0.065924287 0.11453786 0.022502789
-0.065762147 0.11465365 0.02299954
-0.065554425 0.1147603 0.023461884
-0.065353647 0.11486702 0.023929864
-0.06516616 0.11497782 0.024407469
-0.064922079 0.11507615 0.024842756
-0.064666405 0.11517253 0.025269242
-0.064423546 0.11527193 0.025705233
-0.064159751 0.11536614 0.02612571
-0.063863948 0.11545438 0.026522007
-0.063568279 0.11554272 0.026918413
-0.06327796 0.11563172 0.027318895
-0.062997758 0.11572247 0.027727069
-0.062715381 0.11581285 0.028133679
-0.062413722 0.11590027 0.028525438
-0.062060088 0.11597569 0.028878588
-0.061702855 0.11605158 0.029228598
-0.061337814 0.11612529 0.029572953
-0.060960297 0.11619611 0.029908117
-0.0605615 0.11626364 0.030226862
-0.060129933 0.11632318 0.030521492
-0.059739187 0.11639207 0.030846467
-0.059332624 0.11645646 0.031159764
-0.058905855 0.11651763 0.031457607
-0.058449071 0.11657239 0.031733204
-0.058013208 0.11663222 0.032024141
-0.057548378 0.11668466 0.032293763
-0.057053749 0.11673155 0.032540787
-0.056486178 0.11676437 0.03273287
-0.055974547 0.11680778 0.032967191
-0.055383753 0.11683497 0.033142086
-0.054782357 0.11685961 0.033308987
-0.054136988 0.11687642 0.033442598
-0.053458322 0.11688532 0.033551421
-0.052746423 0.11688696 0.03363556
-0.052108832 0.11690506 0.033775035
-0.051559407 0.11694056 0.033980895
0.055469248 0.10995148 0.020144803
0.055885557 0.11001723 0.020476073
0.056372579 0.11006942 0.020759678
0.057045702 0.11008694 0.020928504
0.057739932 0.11010274 0.021091996
0.058175419 0.11016839 0.02142141
0.058417402 0.11027004 0.02187554
0.058643013 0.11037455 0.022340106
0.058877878 0.11047694 0.022798823
0.059151348 0.11057351 0.023232449
0.059506584 0.11065339 0.02361365
0.059921294 0.11072192 0.023956807
0.060376238 0.11078317 0.02427407
0.060786057 0.11085331 0.024620192
0.061158903 0.11093003 0.024990061
0.061514761 0.11101006 0.025371078
0.061862785 0.11109204 0.025756901
-0.062802255 0.11143189 0.0070011541
-0.06337285 0.11169751 0.008048404
-0.063835353 0.11194165 0.0090143159
-0.064157233 0.11215629 0.0098747136
-0.064667881 0.11241073 0.010876739
-0.064869493 0.11259992 0.011646938
-0.064907759 0.11275721 0.012294118
-0.065077677 0.1129407 0.013040451
-0.065433308 0.11316247 0.013926191
-0.065618873 0.11334924 0.014684196
-0.06577307 0.11353029 0.015418407
-0.065893516 0.11370318 0.016127599
-0.065936208 0.1138611 0.016778111
-0.065931767 0.11400894 0.017393405
-0.065912291 0.11415437 0.017997196
-0.065948829 0.11431041 0.018643208
-0.065943837 0.11445823 0.019258024
-0.065937638 0.11460556 0.019871969
-0.065905273 0.11474814 0.020466186
-0.065827861 0.11488082 0.021026593
-0.065712616 0.11500567 0.021558683
-0.065611213 0.11513358 0.022101097
-0.065484017 0.11525674 0.022623997
-0.065311626 0.11536973 0.023113148
-0.065133587 0.11548208 0.02359795
-0.06496641 0.11559704 0.024090765
-0.064749643 0.11570134 0.024546456
-0.064517543 0.11580238 0.024990726
-0.064291447 0.1159054 0.025439303
-0.064024955 0.11599915 0.025857817
-0.063726455 0.11608699 0.02625192
-0.063425049 0.11617339 0.026644196
-0.063126624 0.11626123 0.027038462
-0.062839448 0.11635094 0.027441464
-0.062522858 0.11643492 0.027822075
-0.062195633 0.11651654 0.028194884
-0.061841976 0.11659305 0.028547645
-0.061461616 0.11666439 0.028880198
-0.061080441 0.11673454 0.029212506
-0.060703423 0.11680638 0.029547701
-0.060311668 0.11687401 0.029872125
-0.059897047 0.11693822 0.030179149
-0.059466213 0.11699874 0.030474043
-0.059032932 0.11705914 0.030766889
-0.058582924 0.11711482 0.03104762
-0.058154564 0.11717584 0.031344224
-0.057714079 0.1172341 0.031632055
-0.057270613 0.11729278 0.031917226
-0.056765743 0.11733703 0.032156665
-0.05623316 0.11737726 0.032374885
-0.055691436 0.11741482 0.032586519
-0.055084851 0.11743869 0.032749582
-0.054520629 0.11747203 0.032944206
-0.053841509 0.11748173 0.033052426
-0.053107094 0.11747999 0.033119153
-0.052421018 0.11748764 0.033222441
-0.051796686 0.11750872 0.033371825
-0.051183306 0.11753146 0.033529703
0.055803727 0.11061304 0.019736461
0.056221705 0.11067956 0.020066502
0.056703933 0.11073311 0.02035632
0.057301242 0.11076823 0.020581823
0.057839159 0.11081398 0.020845629
0.058193658 0.11089404 0.021227406
0.058464784 0.11099079 0.021662651
0.058732193 0.11108707 0.022100419
0.059027061 0.11117885 0.02252046
0.059363034 0.11126329 0.022913847
0.059772063 0.11133345 0.023260554
0.060211759 0.11139761 0.023587471
0.060629558 0.11146571 0.023928681
0.061004575 0.11154228 0.02429712
0.0613598 0.11162227 0.024678405
0.061672766 0.11171078 0.025086844
0.06198556 0.11179917 0.025495274
-0.062480412 0.1120293 0.0065918341
-0.062976703 0.11227956 0.0075833942
-0.0635297 0.11254142 0.0086174291
-0.063860297 0.11275832 0.0094843246
-0.064087838 0.11295357 0.010273851
-0.064400166 0.11316579 0.011127232
-0.064525574 0.11334039 0.01184006
-0.064676329 0.11351994 0.012571865
-0.065018475 0.11373865 0.013447638
-0.065196767 0.11392424 0.014200026
-0.065316796 0.11409717 0.014909
-0.065410525 0.11426493 0.015598007
-0.065460891 0.1144241 0.016254356
-0.065474138 0.11457561 0.016882936
-0.065484643 0.11472665 0.017509351
-0.065449595 0.11486875 0.018101465
-0.065510556 0.11502956 0.018766006
-0.065546274 0.11518541 0.019411411
-0.065526411 0.11533093 0.020014906
-0.065437078 0.11546069 0.020566458
-0.065347463 0.11559155 0.021117648
-0.065264553 0.11572338 0.021673936
-0.0651443 0.11584738 0.022202123
-0.064959779 0.11595873 0.022682035
-0.06479311 0.11607365 0.023175282
-0.064633697 0.11618975 0.023673989
-0.06443955 0.11629856 0.024146784
-0.064214334 0.11640161 0.024596041
-0.063987464 0.11650353 0.025044154
-0.063725412 0.11659896 0.025465827
-0.063429534 0.11668719 0.025862062
-0.063147321 0.11677861 0.026268421
-0.062862337 0.11686848 0.026673006
-0.062541366 0.11695189 0.027050238
-0.062183712 0.11702771 0.027400099
-0.06185893 0.11710961 0.02777472
-0.061542667 0.11719379 0.028155606
-0.061179157 0.1172687 0.028500836
-0.060786512 0.1173372 0.028824434
-0.060387749 0.11740369 0.029143505
-0.059998479 0.11747366 0.029469354
-0.059555572 0.11753149 0.029755199
-0.059097711 0.11758696 0.030029615
-0.058680452 0.11764979 0.030334773
-0.058245104 0.11770968 0.030626243
-0.057798654 0.11776692 0.030909223
-0.057374712 0.1178295 0.031209135
-0.056914557 0.11788379 0.031482052
-0.05637379 0.11792266 0.031694058
-0.055856161 0.11796509 0.031923752
-0.055318527 0.11800423 0.032138254
-0.054768104 0.11803976 0.032343376
-0.054163367 0.11806473 0.032507543
-0.053458925 0.11806957 0.032596711
-0.052739605 0.11807135 0.032674629
-0.052099012 0.11808968 0.032811802
-0.051462602 0.11810801 0.032952208
-0.050798368 0.11812107 0.033071566
0.055568419 0.11123966 0.019100361
0.056000717 0.11130309 0.019420715
0.056458607 0.11136132 0.019723939
0.05694712 0.11141591 0.02001773
0.057471763 0.11146528 0.020289913
0.05790529 0.11153034 0.020620853
0.058243416 0.11161453 0.021012887
0.058560517 0.11170144 0.02141884
0.058899555 0.1117855 0.021810252
0.05923783 0.11186869 0.022202477
0.05963764 0.11194108 0.022554832
0.060051855 0.11201052 0.022898106
0.060440037 0.11208424 0.023258213
0.06078665 0.11216643 0.023644993
0.061116003 0.11225185 0.024042699
0.061451286 0.11233643 0.024436763
0.061787292 0.11242086 0.024830135
-0.062657237 0.11287805 0.0071757189
-0.063073948 0.11311135 0.0081075896
-0.063521847 0.11335116 0.0090628322
-0.063721299 0.11354101 0.0098312013
-0.063895971 0.11372528 0.010581142
-0.064059824 0.11390783 0.011322785
-0.064202771 0.114085 0.012049026
-0.064550042 0.11430472 0.012928532
-0.064821869 0.11450863 0.013751539
-0.064903557 0.11467464 0.014431272
-0.064938396 0.11483048 0.015076116
-0.065009445 0.11499368 0.015748125
-0.064978719 0.1151356 0.016343722
-0.06500946 0.1152906 0.016985415
-0.065001592 0.1154379 0.017597992
-0.064965844 0.11557899 0.018189829
-0.064960435 0.11572663 0.018804347
-0.064978704 0.11587985 0.019436542
-0.064955175 0.11602369 0.020037366
-0.064946264 0.11616977 0.020649441
-0.064822569 0.11629342 0.021175023
-0.064726293 0.11642316 0.021721078
-0.064585 0.11654309 0.022233564
-0.064410403 0.11665576 0.022720998
-0.064242378 0.11677063 0.023213195
-0.064032406 0.11687601 0.023674086
-0.063821912 0.1169823 0.024134262
-0.0636127 0.11708784 0.024595801
-0.063374937 0.11718897 0.025035433
-0.063107908 0.11728265 0.02545348
-0.062807754 0.11737025 0.025846491
-0.062499903 0.1174567 0.026233496
-0.062179144 0.11754005 0.026610903
-0.061845709 0.11762066 0.026978927
-0.061513659 0.11770138 0.027347965
-0.061181843 0.11778219 0.027717346
-0.060809352 0.11785568 0.028055768
-0.060424536 0.11792539 0.02838525
-0.060010504 0.1179896 0.028692706
-0.059586916 0.11805233 0.028992768
-0.05916667 0.11811559 0.029295402
-0.058745839 0.1181787 0.029597521
-0.058309466 0.11823849 0.029888181
-0.057858154 0.11829504 0.030167557
-0.057409536 0.11835191 0.030449061
-0.056977239 0.11841235 0.030742748
-0.056500822 0.11846402 0.031003248
-0.055994015 0.11850999 0.031240739
-0.055491965 0.11855572 0.031482104
-0.054957587 0.1185956 0.031699073
-0.054390714 0.11862953 0.031891327
-0.053759277 0.11864951 0.032035332
-0.05306334 0.11865553 0.032130983
-0.052349918 0.11865893 0.032213431
-0.05174147 0.11868449 0.032374401
-0.05106036 0.11869384 0.032481167
-0.050313178 0.11869017 0.032538135
0.055597112 0.11196242 0.018898221
0.056117374 0.11200914 0.019159112
0.056616679 0.11206055 0.019438241
0.05707908 0.11212093 0.019750522
0.057522554 0.1121847 0.020074923
0.057955243 0.11225085 0.020406315
0.058339186 0.11232619 0.020768935
0.058707632 0.11240349 0.021141754
0.059079863 0.11248137 0.021511853
0.059452146 0.11255923 0.021881865
0.059850428 0.11263064 0.022235606
0.060262296 0.1127015 0.022580158
0.060631186 0.11277875 0.022952655
0.060969826 0.11286297 0.023344466
0.061281148 0.11295149 0.023753792
0.061602183 0.11303888 0.024156883
-0.059464797 0.11289271 0.0046079759
-0.062441718 0.11364624 0.0074647865
-0.063004762 0.11390971 0.0085066147
-0.063350841 0.11412801 0.0093855727
-0.063539982 0.11431533 0.010146272
-0.063652664 0.1144871 0.010849574
-0.063801661 0.11466533 0.011580384
-0.064049095 0.11486463 0.012384994
-0.064346507 0.11507361 0.01322718
-0.06454964 0.11526404 0.013998337
-0.064601898 0.11542363 0.014656243
-0.064621568 0.11557606 0.015289617
-0.064643145 0.11572888 0.015924469
-0.064596042 0.11586805 0.016507681
-0.064540103 0.11600494 0.017084269
-0.064456195 0.1161366 0.017639864
-0.064387009 0.11627148 0.01820636
-0.064323246 0.1164072 0.018777004
-0.064265087 0.11654381 0.019351996
-0.064256221 0.11669094 0.019963814
-0.064256251 0.11683944 0.02058243
-0.064198241 0.11697597 0.021157486
-0.064106509 0.11710638 0.021707036
-0.063945398 0.11722229 0.022204552
-0.063802823 0.117342 0.022715993
-0.063588828 0.11744681 0.023173759
-0.063368216 0.11755152 0.023626292
-0.063136965 0.11765266 0.024071215
-0.062925965 0.11775894 0.024531068
-0.062672481 0.11785572 0.024959182
-0.062353652 0.11793943 0.025338074
-0.062031049 0.11802265 0.025714112
-0.061764795 0.11811735 0.026132515
-0.061452709 0.1182031 0.026516307
-0.06108446 0.11827638 0.026858216
-0.060726788 0.11835214 0.027207978
-0.060324326 0.11841909 0.027524004
-0.05995379 0.11849301 0.027863856
-0.059571937 0.11856408 0.028195431
-0.059097476 0.11861614 0.02845736
-0.058658317 0.11867546 0.028745823
-0.058245376 0.11874074 0.029053736
-0.057810824 0.11880077 0.029345836
-0.057375636 0.11886077 0.029637199
-0.056938134 0.11892141 0.029926756
-0.056509528 0.11898243 0.030223254
-0.056074273 0.1190433 0.030514499
-0.055607367 0.1190965 0.030782109
-0.055128369 0.11914766 0.031040743
-0.05457142 0.11918407 0.031240311
-0.053966768 0.11920911 0.031404477
-0.053380821 0.11923908 0.031582523
-0.052714657 0.11925282 0.031700145
-0.052011125 0.1192577 0.031789962
-0.051294744 0.11926153 0.031869773
-0.050610017 0.11927044 0.03197379
-0.049828365 0.11926045 0.03200477
0.055187024 0.11262269 0.01838016
0.055677868 0.11267534 0.018660884
0.05620214 0.11272041 0.018919285
0.05669738 0.11277411 0.019204056
0.057157345 0.11283482 0.019517982
0.057611089 0.1128972 0.019835616
0.058059022 0.11296036 0.020157238
0.058503233 0.11302502 0.020480875
0.058902677 0.11309742 0.020833598
0.059288468 0.11317247 0.021195048
0.059691682 0.11324333 0.021545462
0.060059544 0.11332184 0.021918414
0.060404934 0.11340495 0.022305749
0.060777295 0.11348189 0.022675976
0.061118525 0.11356568 0.023065981
-0.059407234 0.1135474 0.00439646
-0.059340194 0.11368167 0.0049648476
-0.062256079 0.11442081 0.007776239
-0.062872693 0.11469446 0.0088586295
-0.063144431 0.11489744 0.0096817259
-0.063232914 0.1150645 0.010366765
-0.063352183 0.11523722 0.011075042
-0.063739717 0.11546405 0.011985168
-0.064073101 0.11568032 0.012854433
-0.064282805 0.11587183 0.013630648
-0.064396337 0.11604273 0.014334898
-0.064410821 0.1161943 0.014964302
-0.064437136 0.11634872 0.015602626
-0.064386964 0.1164867 0.016183592
-0.064339891 0.11662588 0.016766777
-0.064247414 0.11675625 0.01731574
-0.064122915 0.11687973 0.017840691
-0.064014882 0.11700559 0.01837826
-0.063878417 0.11712725 0.018894173
-0.063750476 0.11724927 0.019416738
-0.063646376 0.11737667 0.019957066
-0.063557476 0.11750764 0.020508857
-0.063431695 0.11763093 0.021032726
-0.06330809 0.11775453 0.021558387
-0.063235566 0.11788896 0.022122378
-0.063085243 0.11800648 0.022628136
-0.062886626 0.11811554 0.023097239
-0.062669575 0.11821976 0.023552651
-0.062451925 0.11832393 0.024007732
-0.062203631 0.11842255 0.024439553
-0.061902639 0.11851005 0.024831869
-0.061609592 0.11859968 0.025229968
-0.061292257 0.11868378 0.025610054
-0.060925044 0.118758 0.025952481
-0.060563017 0.11883319 0.026298894
-0.0601958 0.1189075 0.026641335
-0.059809051 0.11897782 0.026969114
-0.059392456 0.1190426 0.027274296
-0.058991924 0.11910993 0.027591752
-0.058593366 0.11917733 0.027910797
-0.058221634 0.11925106 0.028249789
-0.057838313 0.11932193 0.028580124
-0.057472344 0.11939654 0.028923515
-0.057089258 0.11946733 0.029254116
-0.056648869 0.11952756 0.029541338
-0.056216516 0.11958795 0.029835034
-0.055763163 0.11964517 0.030112652
-0.055277593 0.11969545 0.030366149
-0.054796778 0.11974645 0.030623237
-0.054227948 0.11977994 0.030814001
-0.05366274 0.11981403 0.031007599
-0.053040057 0.11983721 0.031157758
-0.052355926 0.11984722 0.031261962
-0.05162311 0.11984763 0.031329256
-0.050927579 0.11985489 0.031425025
-0.050249815 0.11986676 0.031533819
-0.049514599 0.11986679 0.031599481
-0.048805173 0.11987187 0.031684581
0.055301212 0.11332896 0.018120207
0.05579358 0.11338043 0.01840019
0.056316551 0.11342665 0.018659147
0.056783848 0.11348694 0.018966243
0.057276778 0.11354142 0.019258799
0.057760112 0.11359902 0.019557333
0.058213793 0.11366145 0.019875078
0.058650151 0.1137271 0.020203993
0.059058253 0.11379835 0.020550987
0.059431653 0.11387507 0.020920502
0.059811272 0.11395186 0.021285808
0.060172059 0.11403121 0.021663435
0.060497031 0.11411813 0.022063842
0.060866371 0.11419638 0.022435909
-0.059340343 0.1141996 0.0041780765
-0.059275519 0.11433518 0.0047478513
-0.061598152 0.11495163 0.007113853
-0.062273368 0.11523639 0.0082404073
-0.062778354 0.11548705 0.0092388652
-0.062914774 0.11566338 0.0099600712
-0.062989116 0.11582618 0.010634784
-0.063420072 0.11606258 0.011577394
-0.063824669 0.11629182 0.012500555
-0.063996226 0.11647552 0.013248191
-0.064200491 0.11666533 0.014020341
-0.064205319 0.11681451 0.014642778
-0.064257443 0.11697396 0.015300535
-0.064222187 0.11711504 0.015892709
-0.064181998 0.11725537 0.016481088
-0.0641132 0.11739034 0.017047932
-0.063993499 0.11751451 0.017576627
-0.063875437 0.11763992 0.018106222
-0.063734025 0.11775976 0.018618505
-0.063574314 0.11787593 0.019117145
-0.063380256 0.11798564 0.019589646
-0.063199595 0.11809762 0.020072473
-0.063006103 0.11820638 0.02054571
-0.062817231 0.11831709 0.021022204
-0.062622353 0.11842667 0.021494122
-0.062436324 0.11853763 0.021972859
-0.062261883 0.11865055 0.022460327
-0.062094569 0.11876547 0.022953082
-0.06186736 0.11886817 0.023400798
-0.061606076 0.11896471 0.023822783
-0.061321601 0.11905575 0.024227431
-0.061022047 0.11914347 0.024620868
-0.06071347 0.11922958 0.025007388
-0.06041396 0.11931839 0.025400566
-0.060101498 0.11940309 0.025784397
-0.059772275 0.11948526 0.026155377
-0.059437998 0.11956654 0.026522508
-0.059082672 0.11964376 0.02687371
-0.05873327 0.11972176 0.027229574
-0.058376685 0.11979778 0.027580176
-0.058028646 0.11987697 0.027936656
-0.057669196 0.11995263 0.028285066
-0.057297997 0.12002634 0.028624548
-0.056908734 0.12009624 0.028950365
-0.056493133 0.12016109 0.029256297
-0.056031462 0.12021614 0.029527767
-0.05554878 0.12026782 0.029783163
-0.055059146 0.1203174 0.030033519
-0.054519314 0.12035748 0.03024604
-0.05396501 0.12039408 0.03044771
-0.053366471 0.12042104 0.030616278
-0.052703045 0.12043614 0.030735753
-0.052027427 0.12044825 0.03084621
-0.051279407 0.12044641 0.030902172
-0.050634593 0.12046424 0.03103585
-0.049930081 0.12047105 0.031124461
-0.04925666 0.12048358 0.031236582
-0.048638921 0.12050759 0.031390402
0.055428855 0.11403245 0.017851328
0.055952717 0.11407862 0.018109754
0.056463439 0.11412839 0.018380495
0.056979645 0.11417879 0.018658044
0.057479013 0.11423337 0.018946296
0.057918787 0.1142986 0.019272855
0.058364149 0.11436305 0.019595884
0.058807969 0.11442682 0.019920135
0.059251286 0.11449153 0.020244475
0.059636801 0.11456764 0.02060576
0.060005188 0.11464602 0.020978427
0.060367614 0.11472508 0.021354919
-0.059091963 0.11481503 0.003823217
-0.059130743 0.11497142 0.004470998
-0.059205517 0.11513529 0.0051457719
-0.061669912 0.11577859 0.0076187877
-0.06228479 0.11605096 0.0087000467
-0.062522039 0.11624679 0.0094973398
-0.062657252 0.11642302 0.010217653
-0.063012078 0.11664266 0.011103314
-0.063509002 0.11689117 0.012095812
-0.06365487 0.11706894 0.012824163
-0.063845918 0.11725562 0.013586625
-0.063938469 0.11742334 0.01427478
-0.06397067 0.11757775 0.014917742
-0.06396018 0.11772454 0.015528451
-0.063915908 0.11786424 0.016113773
-0.063897729 0.11800898 0.016718773
-0.063829586 0.11814313 0.017286308
-0.063731834 0.11827254 0.017831204
-0.063604504 0.11839551 0.01835401
-0.063485652 0.11851978 0.018883342
-0.063298494 0.11863068 0.019361164
-0.063100755 0.11873899 0.019831149
-0.062884852 0.11884435 0.020287359
-0.062661439 0.11894773 0.020737914
-0.062430933 0.11905001 0.021183072
-0.062198423 0.11915199 0.021626726
-0.061968785 0.11925433 0.022072576
-0.061746184 0.11935764 0.022523832
-0.061484382 0.11945424 0.022945333
-0.061239909 0.11955329 0.023380104
-0.060994517 0.1196522 0.023814248
-0.060735974 0.11974926 0.024238175
-0.060488354 0.11984783 0.024670539
-0.0602074 0.1199393 0.02507793
-0.05991045 0.12002852 0.025473099
-0.059592798 0.12011322 0.025852757
-0.059271976 0.12019677 0.02622997
-0.058955822 0.12028182 0.026610743
-0.058617957 0.12036274 0.026975146
-0.058279164 0.12044333 0.027338864
-0.057934701 0.12052213 0.02769834
-0.057566222 0.12059629 0.028039906
-0.057188969 0.12066918 0.028374657
-0.056786329 0.12073694 0.028690251
-0.05635215 0.12079813 0.028982218
-0.055882741 0.12085174 0.029247874
-0.05541306 0.12090649 0.029512886
-0.05487353 0.12094644 0.029725567
-0.054326553 0.12098426 0.029932931
-0.053762458 0.1210195 0.030127054
-0.053119332 0.12103873 0.0302618
-0.052441947 0.12105151 0.030370682
-0.051746652 0.12105959 0.030466253
-0.051017608 0.12106164 0.030536408
-0.050338473 0.12107326 0.03064418
-0.049670726 0.12108779 0.030760251
-0.049076807 0.12111735 0.030931998
0.055591401 0.11472917 0.017558834
0.056169748 0.11476503 0.017780362
0.05674566 0.11480421 0.018016757
0.057252042 0.11485787 0.018300314
0.05771609 0.11491897 0.018611187
0.058144186 0.11498562 0.018945569
0.058597025 0.11504915 0.019263586
0.059030216 0.11511611 0.019594345
0.059426725 0.11518897 0.0199489
-0.058922481 0.11559588 0.0041459417
-0.059156705 0.11579136 0.0049409503
-0.061016928 0.11631219 0.0069596441
-0.061639369 0.11658496 0.0080469009
-0.06200384 0.11680707 0.0089396331
-0.062262483 0.1170071 0.0097531145
-0.062639058 0.11723122 0.010655128
-0.063113838 0.11747424 0.011631286
-0.063296422 0.11765973 0.012387149
-0.063425899 0.11783399 0.013103261
-0.063544631 0.11800567 0.013811498
-0.06358026 0.11816163 0.014456856
-0.063568518 0.11830732 0.015066804
-0.063531116 0.11844896 0.015657157
-0.063537687 0.11859834 0.016280826
-0.063539013 0.11874712 0.016900502
-0.063480303 0.11888371 0.017474966
-0.063364893 0.11900951 0.018006705
-0.06330207 0.11914536 0.018578019
-0.063160807 0.11926509 0.019090449
-0.063002586 0.11938151 0.019590128
-0.062810242 0.11949161 0.020064045
-0.062590912 0.1195965 0.020517526
-0.062372804 0.11970074 0.020972159
-0.062132478 0.11980133 0.021409826
-0.061875384 0.11989856 0.021834942
-0.061649658 0.12000149 0.022283774
-0.061389964 0.12009731 0.022707202
-0.061150525 0.12019818 0.023145517
-0.060918789 0.12030025 0.023589814
-0.060667556 0.12039817 0.02401948
-0.060422994 0.12049729 0.024454102
-0.06014872 0.12059082 0.024866305
-0.059836552 0.1206766 0.025250133
-0.059515812 0.12076101 0.025627246
-0.059188001 0.12084431 0.025999226
-0.058858246 0.12092636 0.02636973
-0.058514155 0.12100618 0.026729297
-0.058171947 0.12108544 0.027090525
-0.057807602 0.12116126 0.02743502
-0.057412587 0.12123032 0.027756456
-0.057003677 0.12129719 0.028067155
-0.056573596 0.12135883 0.028362332
-0.056132745 0.12141894 0.028649244
-0.055660248 0.12147316 0.028912194
-0.05516918 0.12152359 0.029161235
-0.054642972 0.12156665 0.029383883
-0.054103356 0.12160653 0.029596524
-0.053497262 0.12163339 0.029759035
-0.052849732 0.12165187 0.029890461
-0.052223478 0.12167551 0.030037621
-0.051506601 0.12168027 0.030116681
-0.050727099 0.12167258 0.030148773
-0.05000921 0.12167629 0.030227369
-0.049339548 0.12169135 0.030341867
-0.04862234 0.12169614 0.030420722
-0.045901574 0.12159552 0.030229324
0.056978513 0.1154903 0.01768453
0.057446551 0.11555089 0.017992752
0.057914298 0.11561151 0.018301183
0.058351614 0.11567704 0.01862959
0.058769956 0.1157469 0.018969806
-0.058862537 0.11625022 0.0039325845
-0.059125546 0.11645087 0.004749353
-0.059857335 0.11674535 0.0059189401
-0.060995046 0.11712077 0.0073940735
-0.061517321 0.11737318 0.008405976
-0.061756801 0.11756931 0.0092049306
-0.062203653 0.11780707 0.01015996
-0.062636942 0.11804193 0.011104926
-0.062817007 0.11822593 0.011859231
-0.062963381 0.11840384 0.012588043
-0.063049167 0.1185694 0.013271299
-0.063099846 0.11872767 0.013928145
-0.063127473 0.11888127 0.014567642
-0.063128248 0.11902986 0.015186911
-0.063124284 0.11917774 0.015802516
-0.0630752 0.11931674 0.016384194
-0.063096657 0.11946947 0.017018922
-0.063061669 0.11961062 0.017611353
-0.062989503 0.11974405 0.018175898
-0.06288138 0.11987108 0.018713139
-0.062769264 0.11999734 0.019247359
-0.062632725 0.12011798 0.019763328
-0.062450599 0.12023057 0.020244753
-0.062256031 0.12034034 0.02071692
-0.062047269 0.12044703 0.021178447
-0.061794151 0.1205447 0.021606617
-0.061555192 0.12064555 0.022045337
-0.061325874 0.12074797 0.022491425
-0.061093573 0.12084995 0.022935219
-0.060858391 0.12095146 0.023376957
-0.060617242 0.12105089 0.023814218
-0.060347296 0.12114623 0.02422951
-0.060056362 0.12123625 0.024629263
-0.05973364 0.12132045 0.025004912
-0.059393816 0.12140086 0.025367834
-0.059046987 0.12147926 0.025725519
-0.058686793 0.12155659 0.02607296
-0.058324907 0.12163281 0.026419166
-0.057964716 0.12170922 0.026766755
-0.057566088 0.12177769 0.02708536
-0.057156578 0.12184452 0.027395755
-0.056738149 0.1219091 0.027699441
-0.056264389 0.12196307 0.027961439
-0.055786736 0.12201549 0.02822062
-0.055314541 0.12206967 0.028483937
-0.054812536 0.12211844 0.028724577
-0.054317199 0.12216721 0.028970459
-0.0537703 0.12220707 0.029177362
-0.053185698 0.12223805 0.0293561
-0.05259816 0.12226956 0.029532393
-0.05195722 0.12229003 0.02966851
-0.05127221 0.12230182 0.029771425
-0.050500702 0.12229528 0.029809592
-0.049704153 0.1222849 0.029828532
-0.048834797 0.12225956 0.029792836
-0.048120707 0.12226568 0.029873908
-0.047330953 0.12225648 0.029898077
-0.04650031 0.12223879 0.029891483
-0.045718458 0.12223082 0.029921703
-0.058826458 0.11690904 0.0037371865
-0.059031922 0.11709803 0.0045107128
-0.05953192 0.11734598 0.0055058785
-0.060128428 0.11761265 0.006573807
-0.06091588 0.11791766 0.0077854088
-0.061165944 0.11811543 0.0085924752
-0.061523035 0.11833557 0.0094798747
-0.06207253 0.1185931 0.010512398
-0.062268637 0.11878043 0.011278713
-0.062424105 0.11895975 0.012014471
-0.062512919 0.11912583 0.012700071
-0.062534273 0.11927765 0.013335002
-0.062580273 0.11943504 0.013988337
-0.062557369 0.11957906 0.014589754
-0.062592238 0.11973491 0.015234552
-0.062565222 0.11987733 0.015833089
-0.062566236 0.12002592 0.016452484
-0.062593549 0.12017962 0.017091759
-0.062574282 0.12032405 0.017695945
-0.062500939 0.12045734 0.018259607
-0.062410612 0.12058809 0.018810153
-0.062288288 0.12071192 0.019336749
-0.062142 0.12083088 0.019845411
-0.061952163 0.12094235 0.020320904
-0.061783563 0.12105703 0.020812687
-0.061573002 0.12116342 0.021272801
-0.061355919 0.12126862 0.021727992
-0.061147742 0.12137526 0.022190018
-0.060915682 0.12147737 0.022634052
-0.060680307 0.12157875 0.023075521
-0.060424004 0.12167604 0.023501223
-0.060119379 0.12176386 0.023890533
-0.059785891 0.12184537 0.02425823
-0.059452068 0.12192775 0.024625486
-0.059092794 0.12200436 0.024973631
-0.058740817 0.12208299 0.025327202
-0.058396876 0.12216285 0.025686957
-0.058021374 0.12223586 0.026023038
-0.057629589 0.12230637 0.026346713
-0.05723368 0.12237631 0.026667282
-0.05683041 0.12244414 0.026982371
-0.056393594 0.12250578 0.027272087
-0.055907365 0.12255691 0.02752479
-0.055398095 0.12260454 0.027759839
-0.054922879 0.12265825 0.02802071
-0.054428179 0.12270814 0.028266942
-0.05391204 0.12275363 0.02849707
-0.053381134 0.12279591 0.028716084
-0.05284705 0.12283873 0.028932432
-0.052260105 0.12287029 0.029109102
-0.051601335 0.12288701 0.029231926
-0.050925408 0.12290105 0.029341545
-0.050212413 0.12290746 0.029423459
-0.049349867 0.12288403 0.029392689
-0.048499595 0.12286352 0.029371049
-0.047753934 0.12286284 0.029428449
-0.047050774 0.12287184 0.029517563
-0.046283033 0.12286676 0.029558238
-0.04557468 0.12287503 0.029643431
-0.058688171 0.11754737 0.0034649763
-0.058817513 0.11772174 0.0041810242
-0.059224475 0.11795039 0.0051062759
-0.059686318 0.11819056 0.0060728318
-0.06014521 0.11842907 0.0070373151
-0.06063154 0.11867408 0.0080221742
-0.06088081 0.1188717 0.0088286577
-0.061398931 0.11912248 0.0098376647
-0.061737172 0.11933777 0.010711199
-0.061803363 0.11949937 0.011379692
-0.061893713 0.11966565 0.012066417
-0.06188206 0.1198114 0.012676407
-0.061993107 0.1199819 0.013378687
-0.061979011 0.12012725 0.013986849
-0.061981361 0.12027594 0.014607355
-0.062016208 0.12043084 0.015252383
-0.062027343 0.12058198 0.015879299
-0.062038731 0.12073216 0.016506692
-0.06202618 0.12087772 0.017115995
-0.061996721 0.12102071 0.017712303
-0.061958335 0.12116126 0.01830218
-0.061846886 0.1212869 0.01883713
-0.061706763 0.12140791 0.019350143
-0.06154405 0.1215234 0.019846447
-0.061401166 0.12164407 0.020357352
-0.061224811 0.12175664 0.020843381
-0.061044022 0.1218695 0.021325877
-0.060844507 0.12197839 0.021794247
-0.060610376 0.12208008 0.022236645
-0.060339052 0.12217406 0.022651192
-0.060036961 0.12226237 0.023042317
-0.059755549 0.12235571 0.023448858
-0.059430584 0.1224395 0.023822848
-0.059070341 0.12251584 0.024170322
-0.058720153 0.12259483 0.024525288
