# .PCD v0.7 - Point Cloud Data file format
VERSION 0.7
FIELDS x y z
SIZE 4 4 4
TYPE F F F
COUNT 1 1 1
WIDTH 1318
HEIGHT 1
VIEWPOINT 0 0 0 1 0 0 0
POINTS 1318
DATA ascii
0.078691781 0.09069974 0.023540512
0.079288661 0.0906986 0.023173176
0.079830691 0.090694107 0.022792224
0.080304295 0.090685375 0.022394039
0.080735579 0.090673991 0.021985181
0.081115663 0.090659492 0.021563649
0.081396297 0.090638854 0.02111714
0.081689239 0.090618938 0.020673674
0.081949994 0.090597011 0.020222113
0.082204521 0.090574756 0.019769065
0.082518384 0.090556107 0.019330975
0.082831845 0.090537526 0.018892676
0.083126545 0.090517737 0.018449664
0.083435997 0.090498939 0.018010337
0.083666429 0.090475172 0.017551277
0.083858773 0.090449013 0.017082579
0.084087014 0.090425156 0.016622923
0.084296465 0.09040007 0.016158633
0.084464237 0.090372443 0.015683856
0.084617808 0.090343967 0.015205516
0.084729925 0.090312861 0.014716694
0.084813848 0.090280145 0.01422095
0.084867656 0.090245396 0.013717563
0.084854677 0.090206653 0.013197559
0.084859237 0.09016899 0.012681807
0.08483173 0.090129308 0.012158047
0.084782615 0.090088353 0.011628982
0.084752366 0.090048425 0.011104511
0.084720567 0.090008505 0.01057979
0.084683925 0.089968279 0.010053686
0.084643438 0.089927852 0.0095267585
0.084581599 0.089885972 0.0089943893
0.084465116 0.089840792 0.0084484471
0.084359109 0.089796253 0.0079050036
0.084186599 0.089747615 0.0073449477
0.084011674 0.089698881 0.0067842375
0.083842218 0.089650497 0.0062250309
0.083571389 0.08959581 0.0056402446
0.083292469 0.089540616 0.0050535281
-0.052412167 0.085032284 0.022863567
-0.051569968 0.085049659 0.022580821
-0.048022043 0.085255153 0.0231172
-0.046615962 0.085311741 0.023005202
-0.044831868 0.085394688 0.023007594
-0.043121748 0.085472427 0.022987615
-0.042153656 0.085498661 0.022743065
-0.041320205 0.085515477 0.022457633
-0.040397089 0.085538559 0.02219943
-0.039344262 0.085570589 0.021980479
-0.038703367 0.08557409 0.021636833
-0.038304746 0.085560665 0.021219753
-0.037995417 0.085541107 0.020775769
-0.037752073 0.085516959 0.020311773
-0.03744261 0.085497387 0.019867804
-0.037030853 0.085484922 0.019454792
-0.036591116 0.085474342 0.019050248
-0.036172841 0.085462369 0.018639218
-0.035760667 0.085449979 0.018226337
-0.035495613 0.085427262 0.017768979
-0.035241988 0.085403882 0.017308068
-0.03511741 0.085371427 0.016808111
0.038779825 0.090608507 0.036259923
0.039491903 0.090614259 0.035921481
0.040597241 0.090644129 0.035681605
0.041826483 0.090681538 0.035472784
0.042728595 0.090699017 0.035181984
0.04344089 0.090704732 0.034843627
0.044103943 0.090707608 0.034492943
0.044682816 0.090705223 0.034121182
0.045223694 0.09070053 0.033739842
0.045710102 0.090692572 0.033344913
0.04617032 0.090682931 0.032943383
0.046591695 0.090670995 0.032532163
0.046973798 0.090656601 0.032111019
0.047312964 0.090639591 0.031679172
0.047616817 0.09062048 0.0312385
0.047904547 0.090600364 0.030793805
0.048136402 0.090576671 0.030334994
0.048268519 0.090547085 0.029851209
0.048356254 0.090514705 0.029356427
0.048367329 0.090477578 0.028842367
0.048330884 0.090437643 0.028316405
0.048288669 0.090397254 0.027788941
0.048206333 0.090354532 0.027251512
0.048043303 0.090306848 0.026693851
0.047831651 0.09025614 0.026123941
0.047554083 0.09020143 0.025537539
0.047120307 0.090137132 0.024912059
0.046578724 0.090064108 0.024255209
0.046159368 0.08998955 0.023611169
0.045772709 0.089917339 0.022976197
0.070345476 0.091179974 0.025563151
0.070585981 0.091156885 0.025106691
0.073926687 0.091323398 0.025426924
0.074699715 0.091332927 0.025103811
0.075345725 0.091334656 0.024748851
0.075995579 0.091336749 0.024394795
0.076906294 0.091354676 0.024106171
0.077724218 0.091366954 0.023794234
0.078370377 0.09136875 0.023439333
0.078931957 0.09136533 0.023063224
0.079464823 0.091360167 0.022679869
0.079921886 0.091350265 0.02227762
0.080346748 0.09133859 0.021867216
0.080739498 0.091324806 0.021448787
0.08105427 0.091306351 0.021010816
0.081398234 0.091289669 0.020580087
0.081727415 0.091272041 0.020145804
0.08205992 0.091254599 0.019712307
0.082419664 0.091238908 0.019285593
0.082750931 0.091221385 0.018851757
0.083059862 0.091202572 0.018412374
0.083373815 0.091183946 0.017974138
0.083610073 0.091160692 0.017516501
0.083810076 0.091135129 0.017049808
0.084051654 0.091112211 0.016593534
0.084252313 0.091086693 0.016126949
0.084409192 0.091058485 0.015649382
0.084553048 0.09102957 0.015168654
0.084692895 0.0910004 0.014686805
0.084799185 0.090969205 0.014196617
0.084867433 0.09093561 0.013696925
0.084902972 0.090899989 0.013188939
0.08491534 0.090863079 0.01267527
0.084887013 0.090823576 0.012151307
0.084846228 0.09078332 0.011624233
0.084804446 0.09074305 0.011096902
0.084783807 0.090703979 0.010574954
0.084746718 0.090664022 0.010048782
0.084695578 0.09062314 0.0095191235
0.084634483 0.090581596 0.0089869434
0.084545836 0.090538427 0.0084479041
0.084475532 0.090496436 0.0079135317
0.084372431 0.090452448 0.0073708049
0.084253758 0.090407416 0.006824255
0.084062204 0.090357922 0.0062594078
0.083834291 0.09030626 0.005685423
0.083547264 0.090250917 0.0050966898
0.083265126 0.090195991 0.0045091822
-0.052368242 0.085779823 0.022854876
-0.051364962 0.08580818 0.022620972
-0.048256762 0.085981824 0.023024227
-0.046569768 0.086057425 0.022997379
-0.044864923 0.086134218 0.022975843
-0.043612115 0.086179823 0.022817388
-0.04262764 0.086206861 0.022577845
-0.04180916 0.08622244 0.022287946
-0.041008249 0.086236849 0.021992747
-0.040167965 0.086254016 0.021709409
-0.039419752 0.086264752 0.021398328
-0.038959775 0.086255565 0.020999834
-0.038551226 0.086242914 0.020585835
-0.038269661 0.086221479 0.020133466
-0.037933044 0.086203836 0.019697677
-0.037510004 0.086192116 0.019288152
-0.037136693 0.086177051 0.018863466
-0.036798589 0.086159445 0.018428143
-0.036502495 0.086138986 0.017980091
-0.036217339 0.086117782 0.017528776
-0.03599887 0.086091988 0.01705721
-0.035802402 0.086064681 0.016579051
0.039081447 0.091328427 0.03631467
0.039718334 0.091329515 0.035957441
0.040664308 0.091349319 0.035677627
0.041834779 0.091382675 0.035454087
0.04269794 0.091397449 0.03515356
0.043431293 0.091404386 0.034820475
0.044145629 0.091410175 0.034482602
0.044756472 0.091409564 0.034118868
0.045286167 0.091404192 0.033734739
0.045773182 0.091396153 0.033339925
0.046235301 0.091386579 0.032938868
0.046663664 0.091375113 0.032529421
0.047051892 0.091360994 0.032109845
0.047394194 0.09134426 0.031678796
0.047716811 0.091326289 0.031242754
0.048009243 0.091306515 0.030799221
0.048257235 0.091284029 0.030344494
0.048416734 0.091256119 0.029867634
0.048511744 0.091224372 0.029374663
0.048516836 0.091187254 0.028859027
0.048494685 0.091148362 0.028336603
0.048472393 0.091109455 0.027814198
0.048402794 0.091067769 0.02727994
0.048298631 0.091023959 0.026737012
0.04805186 0.090971529 0.026158303
0.047803957 0.090918943 0.025579326
0.047433447 0.090859033 0.02496969
0.046843644 0.090785794 0.024305031
0.046368301 0.090708919 0.023648281
0.045992419 0.090637945 0.023016274
-0.0040448448 0.086702988 0.0057620145
-0.0038577251 0.086675018 0.005281012
0.07052207 0.091844775 0.025070015
0.070873991 0.09182851 0.024641357
0.074108392 0.091986917 0.024934981
0.074927464 0.091999002 0.024623327
0.075616449 0.092003278 0.024279118
0.076244816 0.092003748 0.023919765
0.077026352 0.092013597 0.023598794
0.077967048 0.092033058 0.023317676
0.078571543 0.092032209 0.022952292
0.079114228 0.0920275 0.022571396
0.079573229 0.092017859 0.022169534
0.080030054 0.092007995 0.021767214
0.080442831 0.091995522 0.021353837
0.080820993 0.091980912 0.020931721
0.08123593 0.091968462 0.020518858
0.081620306 0.091954239 0.020098358
0.081975833 0.09193822 0.019670542
0.082357168 0.091923825 0.019249253
0.082701862 0.091907255 0.018818866
0.083001137 0.091887802 0.018377014
0.083297864 0.091868341 0.017934509
0.083544686 0.091845751 0.017479446
0.083774403 0.091822147 0.017020259
0.083987862 0.091797501 0.016556926
0.084184781 0.09177199 0.016089372
0.084343508 0.09174411 0.015612327
0.084491879 0.091715589 0.015132692
0.084658012 0.091688164 0.014657433
0.084783718 0.091658205 0.0141721
0.084874719 0.091626249 0.013678093
0.084924504 0.091591679 0.013173731
0.084949404 0.0915557 0.012663092
0.08495295 0.091518372 0.012147218
0.084927127 0.091479376 0.011623816
0.08487314 0.091438562 0.011093508
0.084852144 0.091399759 0.01057135
0.084808663 0.091359608 0.010043623
0.084744811 0.091318265 0.009510858
0.084693983 0.091277659 0.0089812651
0.084622547 0.091235764 0.0084464801
0.084559321 0.091194525 0.0079138419
0.084491447 0.091152832 0.0073799789
0.084387273 0.091109015 0.006837042
0.084254906 0.091063462 0.0062869955
0.084024921 0.091012046 0.0057125478
0.083736986 0.09095715 0.0051235515
0.083448261 0.090902105 0.0045343577
-0.052295055 0.086529329 0.022855062
-0.051603746 0.086536013 0.022526722
-0.048375349 0.086716689 0.0229665
-0.046703726 0.086790718 0.022934932
-0.044972088 0.086868659 0.022921551
-0.043910068 0.08690083 0.022705439
-0.042978704 0.086923949 0.02244975
-0.042238913 0.08693403 0.022136036
-0.041506015 0.086943567 0.021820303
-0.040779952 0.086952589 0.021502461
-0.039972719 0.086967289 0.021209158
-0.039478652 0.086960383 0.020821098
-0.039072037 0.086947612 0.020406514
-0.038785454 0.086926527 0.019955587
-0.038486484 0.086906277 0.019508447
-0.038087092 0.086893097 0.019091699
-0.037691973 0.086879432 0.018673569
-0.037358664 0.086861528 0.018236887
-0.037093315 0.086839117 0.017779499
-0.036879648 0.086812973 0.017306589
-0.036709569 0.086783916 0.016820338
-0.036698464 0.086743966 0.016286049
0.03933705 0.092045352 0.036357932
0.039887071 0.09204106 0.035978876
0.040735386 0.092054628 0.035674658
0.041780367 0.092080019 0.035419684
0.042667095 0.092095934 0.03512504
0.043421682 0.092103943 0.034797262
0.044177532 0.09211199 0.034469858
0.044818453 0.092113137 0.034113586
0.045334969 0.092106901 0.033726215
0.045817617 0.092098556 0.033330288
0.046288982 0.092089556 0.032931574
0.046723001 0.092078246 0.032523483
0.047092006 0.092063099 0.032099105
0.047455497 0.092047736 0.031673349
0.047806371 0.092031509 0.031244364
0.048105977 0.092012107 0.030802712
0.048351198 0.09198954 0.030347262
0.048531756 0.091963127 0.029875711
0.048643328 0.09193252 0.029386807
0.048666712 0.091896698 0.028875772
0.048660554 0.091858983 0.028357424
0.04864794 0.09182097 0.027837474
0.048600256 0.091780834 0.027308635
0.048499081 0.091737553 0.026766468
0.048305869 0.09168864 0.026201133
0.048079591 0.09163776 0.025627587
0.047745556 0.091580518 0.025027059
0.047233474 0.091512464 0.024381943
0.04668422 0.091435954 0.023715101
0.046107162 0.091350645 0.023027238
-0.0043305582 0.087457329 0.0061920523
-0.0040209745 0.087437838 0.0057481071
-0.0037359702 0.087416649 0.0052967113
-0.0034393473 0.087396331 0.0048488565
0.070547551 0.092500821 0.024538878
0.073721558 0.092653908 0.024817321
0.074565575 0.092667289 0.024512026
0.075268924 0.092672162 0.024171449
0.075890079 0.092672087 0.023810234
0.076507881 0.092671931 0.023448218
0.077449933 0.092691101 0.023167431
0.078257069 0.092702262 0.022852872
0.07883139 0.092699364 0.02247994
0.07934314 0.092692815 0.022091333
0.079835266 0.092685148 0.021697756
0.080273703 0.092674106 0.021290857
0.080697924 0.09266226 0.020880245
0.081137225 0.092651293 0.020473529
0.081550121 0.09263885 0.020060077
0.081896946 0.09262237 0.019630201
0.082267582 0.092607319 0.019206274
0.082612485 0.092590772 0.018775806
0.082908005 0.092571199 0.018332977
0.083178341 0.092550062 0.017883942
0.083415508 0.092527069 0.017426573
0.083655819 0.092504203 0.016969956
0.083884656 0.092480652 0.016510352
0.084087655 0.092455558 0.01604443
0.084278986 0.09242972 0.015575596
0.084435135 0.092401825 0.015097821
0.08460027 0.092374474 0.014622307
0.084748805 0.092346035 0.014142732
0.084870592 0.092316113 0.013656413
0.0849327 0.092282496 0.013155088
0.084986031 0.092248462 0.012651628
0.085005924 0.092212386 0.012139754
0.084999591 0.092174754 0.011621403
0.084947035 0.092134275 0.011091342
0.084913492 0.092095062 0.01056607
0.08487466 0.092055388 0.010039582
0.084829137 0.092015415 0.0095113264
0.084774122 0.091974802 0.0089806113
0.084693685 0.091932677 0.0084437057
0.084608421 0.091890343 0.007905419
0.084540978 0.091849074 0.007371672
0.084454104 0.091806509 0.0068330704
0.084335685 0.091762111 0.0062865056
0.084120676 0.091711976 0.0057158084
0.083902031 0.091661565 0.0051441994
0.083596468 0.091605984 0.0045507918
0.083272487 0.091549255 0.0039527859
-0.051911455 0.087259486 0.022411574
-0.048578259 0.087445997 0.022883173
-0.047199536 0.087499358 0.022762958
-0.04531059 0.087587558 0.022797309
-0.044224981 0.087620981 0.022588361
-0.043342829 0.087640442 0.022317786
-0.042699941 0.087643795 0.021974742
-0.042098563 0.087644182 0.021619163
-0.041558143 0.087640494 0.021245088
-0.040995583 0.087638311 0.020877752
-0.040177517 0.08765348 0.02058775
-0.039763622 0.087641127 0.020175394
-0.039359596 0.087628119 0.019760028
-0.039071552 0.087607212 0.019309547
-0.038873546 0.087580219 0.018831827
-0.038521539 0.087563604 0.01840077
-0.0381939 0.087545469 0.017962229
-0.037944004 0.08752197 0.017500196
-0.037665442 0.087500401 0.017046906
-0.037432231 0.087475747 0.016579747
-0.037387218 0.087438308 0.016055688
-0.037465192 0.087392472 0.01549442
0.039598819 0.092762262 0.036402751
0.040003516 0.092749275 0.035987318
0.040838689 0.092761889 0.035679772
0.041717056 0.092776962 0.03538302
0.042636581 0.092794493 0.035096604
0.043427058 0.092804469 0.034777835
0.04415286 0.092810504 0.034442868
0.044835765 0.092814013 0.034097187
0.045362107 0.092808217 0.033712268
0.045844205 0.092799865 0.033316195
0.046304051 0.092790112 0.032914609
0.046741363 0.092779055 0.032507293
0.047106318 0.092763647 0.032081943
0.047468148 0.092748083 0.031655725
0.047839504 0.092733137 0.031231932
0.048148654 0.092714429 0.030792616
0.048379786 0.092691138 0.030333672
0.048597973 0.092667006 0.029871486
0.048753094 0.092639171 0.029393584
0.048816297 0.092605911 0.02889251
0.04881455 0.092568725 0.028375193
0.048802152 0.092530988 0.027855296
0.048755396 0.092491098 0.027326774
0.04868849 0.092450179 0.026793152
0.048526302 0.092403494 0.026235573
0.048308559 0.092353441 0.025664221
0.048038531 0.092300385 0.025079731
0.047730576 0.09224502 0.024485718
-0.0049858196 0.088186443 0.0065101907
-0.0045197513 0.088177674 0.0061136158
-0.0040665912 0.088167965 0.0057131411
-0.0036737104 0.088154249 0.0052944063
-0.0032555566 0.088142186 0.0048833485
-0.0028048262 0.088132374 0.0044821361
0.070294514 0.093140729 0.023937959
0.074103087 0.093329929 0.02437548
0.074828029 0.093335949 0.024040345
0.075490892 0.093338259 0.023689609
0.076085836 0.093336537 0.023321845
0.076877207 0.093346477 0.023003343
0.077924043 0.093371563 0.022748847
0.078602463 0.093374901 0.022401921
0.079141945 0.093369871 0.022020318
0.079657078 0.093363449 0.021632496
0.080138996 0.093355007 0.021236457
0.080577329 0.093344048 0.020829488
0.080986366 0.093331277 0.020415135
0.081405565 0.093319133 0.020003304
0.081762746 0.093303338 0.019575942
0.082109079 0.09328676 0.019145869
0.082434401 0.093269095 0.018710613
0.082734659 0.093249857 0.018269017
0.082990482 0.093227975 0.017816216
0.083230391 0.093205236 0.017359536
0.083498135 0.093184032 0.016909711
0.083753169 0.093162209 0.016456861
0.08396928 0.09313798 0.015994102
0.084194228 0.093114264 0.015533675
0.084384173 0.093088523 0.015064441
0.084549323 0.093061231 0.014588927
0.08471182 0.09303391 0.014112841
0.084846005 0.093004808 0.013629632
0.084923446 0.092972405 0.013132183
0.084986076 0.092939079 0.012630972
0.085035264 0.092904918 0.012126469
0.08503893 0.092868038 0.011610576
0.084990874 0.092828162 0.011081669
0.084970221 0.092789903 0.010559697
0.08495149 0.092751734 0.010038182
0.084906459 0.092712067 0.0095100449
0.084828883 0.092670456 0.0089736963
0.084752664 0.092628822 0.0084378086
0.08466886 0.092586793 0.0078999102
0.084594429 0.092545383 0.0073644756
0.084502935 0.092502818 0.0068246373
0.084378555 0.09245842 0.0062766499
0.084189564 0.092410184 0.0057124025
0.083968028 0.092359945 0.0051400797
0.083616078 0.092301995 0.004534997
0.083246127 0.092243046 0.0039254613
0.083004534 0.092191555 0.0033480853
-0.051965922 0.088000275 0.022373095
-0.050904542 0.088031739 0.022156801
-0.047681011 0.088209532 0.022595368
-0.04629964 0.08826267 0.022476017
-0.044722032 0.088329025 0.022415999
-0.043724161 0.088356212 0.022180557
-0.043080907 0.088359438 0.021837573
-0.042556301 0.088354543 0.021458771
-0.042108543 0.088344537 0.021056652
-0.041792776 0.088325471 0.020614646
-0.041349154 0.088315248 0.02021122
-0.040707842 0.088318229 0.019867796
-0.040210769 0.088311449 0.0194805
-0.039786369 0.088299923 0.019071449
-0.039594088 0.088272564 0.018591881
-0.039458077 0.08824145 0.018095389
-0.039211474 0.088217735 0.017632298
-0.039030701 0.088189617 0.017149333
-0.038777176 0.088166475 0.01668841
-0.03840632 0.088151261 0.016263075
-0.038262758 0.088120617 0.015768804
-0.038354598 0.088073999 0.015203263
0.040035348 0.093452454 0.035974473
0.040840764 0.093462989 0.035659466
0.041657671 0.093474224 0.035347328
0.042563356 0.093490593 0.03505747
0.043370128 0.093501255 0.03474278
0.044086743 0.093506627 0.034405529
0.044775743 0.093510367 0.03406132
0.045333184 0.093506329 0.033684216
0.045830995 0.093498714 0.033292104
0.046269137 0.093487702 0.032885056
0.046711963 0.093476921 0.032479141
0.047095191 0.093462624 0.032058384
0.047443006 0.093446292 0.031628702
0.047811203 0.09343113 0.031204116
0.048135415 0.093413353 0.03076854
0.048389263 0.093391486 0.030315224
0.048620876 0.093368344 0.029856462
0.048791204 0.093341455 0.029382322
0.048912682 0.093311854 0.028895929
0.04897489 0.093278751 0.02839458
0.048973292 0.093241759 0.027877394
0.048914988 0.093201526 0.027345892
0.048842706 0.093160532 0.026810966
0.048720405 0.093116544 0.026263408
0.048507437 0.093067244 0.025693286
0.048227888 0.093013927 0.025106307
0.047923848 0.092959233 0.024513267
0.047721177 0.092910528 0.023945648
-0.0051401178 0.088909298 0.0064422968
-0.0046777059 0.088900261 0.0060446328
-0.0041223192 0.088897437 0.0056751175
-0.0035943699 0.088892907 0.0052972999
-0.0030712062 0.08888787 0.0049180272
-0.0026483317 0.088876158 0.0045083826
-0.002215611 0.088865057 0.004101723
0.073548943 0.093987748 0.024216015
0.074353576 0.09399832 0.023900811
0.075068861 0.094003558 0.023563206
0.075686291 0.094003014 0.023201022
0.076454654 0.094011366 0.022876758
0.077346414 0.094026998 0.022583365
0.078205973 0.094040796 0.022281952
0.078879982 0.09404359 0.021934018
0.079435959 0.094039455 0.021556567
0.079954907 0.09403313 0.021169703
0.080412537 0.094023265 0.020767517
0.080821231 0.09401048 0.020353105
0.081226766 0.093997605 0.019937925
0.081569925 0.093980916 0.019506983
0.081885397 0.093962722 0.019069277
0.082175598 0.093942903 0.018625092
0.08247605 0.093923748 0.018183548
0.082756683 0.093903497 0.017737031
0.083043829 0.093883604 0.017292127
0.083340943 0.09386421 0.016849745
0.083618701 0.093843766 0.016402531
0.083865896 0.093821451 0.015947588
0.084121987 0.093799703 0.015494923
0.084323898 0.093774781 0.015028661
0.084488615 0.093747638 0.014553159
0.0846567 0.093720727 0.014078429
0.084794253 0.093692034 0.013596041
0.084897995 0.093661301 0.013105188
0.08496207 0.093628228 0.012604374
0.085021272 0.093594894 0.012102396
0.085036173 0.093558937 0.011589198
0.08501339 0.09352079 0.011066708
0.085004896 0.093483463 0.01054776
0.084991366 0.093445927 0.010027448
0.0849462 0.093406469 0.0094993226
0.084867254 0.093364924 0.0089626489
0.084819138 0.093325347 0.0084337955
0.084750295 0.093284436 0.007899656
0.084661424 0.093242399 0.0073605175
0.084567338 0.09320011 0.0068200855
0.084445968 0.093156107 0.006272791
0.084311798 0.093111418 0.0057223225
0.084095255 0.093061879 0.0051512937
0.08364594 0.092998624 0.0045218035
0.083302468 0.092941694 0.0039188457
0.083070755 0.092891179 0.0033439964
0.082861751 0.092842057 0.0027747613
-0.052076578 0.088737369 0.022317618
-0.050855838 0.088779308 0.022149637
-0.0482237 0.088915989 0.022409115
-0.047156543 0.088947594 0.022194594
-0.045700271 0.089005321 0.022097982
-0.044436779 0.08905001 0.021942869
-0.043611728 0.089065306 0.021655113
-0.043066479 0.089061834 0.021282475
-0.04263794 0.089050464 0.020874582
-0.042395469 0.089026615 0.020410322
-0.042192571 0.089000039 0.019933969
-0.041803189 0.088985987 0.01951427
-0.041320886 0.088978343 0.019122593
-0.040747773 0.088976607 0.018758435
-0.040338323 0.088964052 0.018344767
-0.040103748 0.088939615 0.017878074
-0.039998502 0.088906474 0.017372254
-0.039875302 0.088874616 0.016871817
-0.039743114 0.088843338 0.016374134
-0.039497741 0.088819668 0.015910722
-0.039164301 0.088801973 0.015473953
-0.039100669 0.088766083 0.014955529
0.040131297 0.094159327 0.03597774
0.040792834 0.094161212 0.035626691
0.041573815 0.094170064 0.035305537
0.042428531 0.094183259 0.035002936
0.043235615 0.094193704 0.03468832
0.043969113 0.094199836 0.034355287
0.044600774 0.09420003 0.033996731
0.04520721 0.094198808 0.033631839
0.045754857 0.09419404 0.033252265
0.046212945 0.094184145 0.032850217
0.046652649 0.094173215 0.032443549
0.047017884 0.09415783 0.032018192
0.047386166 0.094142802 0.031593677
0.047731616 0.094126329 0.031163394
0.048064392 0.094109081 0.030729882
0.048374463 0.094090573 0.030290741
0.048603177 0.094067305 0.029831287
0.048790734 0.094041601 0.029361401
0.048941597 0.09401384 0.028882384
0.049036559 0.093982831 0.028389327
0.049085524 0.09394908 0.02788474
0.049050152 0.093910463 0.027359068
0.048953593 0.093868293 0.026817981
0.0488296 0.093824498 0.026270043
0.048618887 0.093775593 0.025700409
0.048389632 0.093725674 0.025126047
0.048042618 0.093668871 0.024522241
0.047776733 0.093616836 0.023938764
-0.0055340151 0.089656383 0.0068395766
-0.0052289944 0.089636721 0.0063942308
-0.0047464762 0.089628913 0.0060026562
-0.0041291662 0.089630291 0.0056518754
-0.0034724898 0.089634314 0.005313057
-0.0028871619 0.089633457 0.0049526184
-0.0024332111 0.089623749 0.0045523946
-0.0020240883 0.089611076 0.0041385763
-0.0015767271 0.089601077 0.0037363612
0.073653996 0.094648056 0.023704883
0.074598268 0.094666421 0.023424566
0.07523866 0.094667137 0.023068272
0.076053903 0.094678029 0.022755738
0.076850414 0.094687842 0.02243847
0.077591419 0.094694406 0.022107288
0.078384712 0.094704017 0.021789245
0.079022899 0.094704628 0.021432381
0.079629004 0.094703317 0.021067414
0.080109611 0.094694741 0.020670928
0.080512881 0.094681643 0.020255215
0.080922514 0.09466888 0.01984106
0.081289083 0.094653666 0.019416034
0.081608981 0.094635703 0.018979333
0.081924334 0.094617531 0.018541496
0.082223877 0.094598383 0.018099759
0.082550764 0.094580807 0.017664757
0.0828868 0.094563782 0.017232157
0.083195761 0.094545163 0.016792763
0.083489269 0.094525702 0.016349401
0.083733067 0.09450338 0.015893694
0.084006995 0.094482727 0.015445498
0.084215418 0.09445823 0.014980853
0.084390417 0.094431937 0.014507853
0.084567279 0.094405621 0.014035393
0.084704891 0.094377048 0.013552938
0.084820747 0.094347149 0.013065195
0.084899366 0.094315231 0.012568054
0.084976733 0.094283089 0.01207053
0.085020006 0.094249137 0.011564524
0.085028023 0.094213001 0.011049713
0.085016564 0.094175771 0.01052999
0.08500728 0.094138637 0.010010717
0.084971607 0.094099894 0.0094850417
0.084904939 0.094059534 0.0089514665
0.084866151 0.094020687 0.0084248744
0.084814981 0.093981087 0.0078951819
0.08473736 0.09393996 0.0073588914
0.084659725 0.093898989 0.0068225926
0.084529892 0.09385483 0.0062732236
0.084403336 0.093810767 0.0057246299
0.084202409 0.093762524 0.0051574674
0.083772719 0.093700938 0.0045328811
0.083400369 0.093642637 0.0039226613
0.083109409 0.093589142 0.0033329739
0.082840115 0.093536898 0.0027485827
0.082627431 0.093487881 0.0021784382
-0.052211899 0.089472987 0.02225465
-0.050840523 0.089524589 0.0221323
-0.049102664 0.089600585 0.022120964
-0.047761612 0.089650109 0.021989431
-0.046813842 0.089673325 0.021738764
-0.045416921 0.089726597 0.021624237
-0.04459288 0.089741692 0.021336094
-0.043993212 0.089741759 0.020979993
-0.043406654 0.089740962 0.020619962
-0.043022763 0.0897265 0.020198494
-0.042757571 0.089704275 0.019741111
-0.042438108 0.089685574 0.01930014
-0.042095799 0.089668408 0.018866073
-0.041725636 0.089653224 0.018440463
-0.041277155 0.089643203 0.018038616
-0.041058231 0.089617804 0.01756718
-0.040815294 0.089594029 0.017102979
-0.040581923 0.089569628 0.016635954
-0.040389352 0.089542486 0.016156517
-0.040164255 0.089517511 0.015686996
-0.039909113 0.089494556 0.015226543
-0.039986387 0.089449413 0.014665374
0.040288612 0.09486948 0.035996366
0.040720798 0.094858043 0.035587855
0.0414497 0.094863713 0.035253678
0.042257387 0.094873898 0.034939229
0.043044031 0.09488298 0.034619547
0.04380329 0.094890282 0.034292977
0.044411093 0.094889112 0.033928413
0.045034263 0.094888635 0.033567756
0.045611497 0.09488561 0.03319554
0.046116546 0.094878331 0.032805234
0.04656142 0.094867587 0.032399863
0.046919946 0.094851904 0.031972941
0.047285728 0.09483663 0.031547721
0.047634155 0.094820417 0.031118222
0.04796635 0.094803274 0.030684568
0.048312213 0.094786793 0.030254431
0.048567332 0.094765179 0.029801503
0.048762411 0.094740108 0.029333547
0.048944686 0.094714247 0.028862376
0.049057666 0.094684474 0.028373834
0.049130533 0.094652288 0.027875204
0.049105562 0.094614498 0.027352106
0.048998479 0.094571978 0.026808433
0.048896812 0.094529763 0.026266031
0.048740666 0.094484411 0.025710046
0.048553519 0.094437294 0.025146313
0.048260588 0.094384059 0.024556089
0.047952574 0.09433002 0.023961976
-0.0055816765 0.090386577 0.0068039899
-0.0052444371 0.090369113 0.006368381
-0.0047183973 0.090364158 0.0059899953
-0.0039918846 0.090372741 0.0056723258
-0.0032872846 0.090379767 0.0053479974
-0.0027014103 0.090378836 0.0049877595
-0.0022073416 0.090371884 0.0045996611
-0.0018199175 0.090357803 0.0041793021
-0.0014280282 0.09034393 0.0037602738
-0.0011406173 0.090323143 0.0033096026
0.074074104 0.095326826 0.023272652
0.074796811 0.095332079 0.022936877
0.075635016 0.095344096 0.022630095
0.076504722 0.095357776 0.022331163
0.077119485 0.095356941 0.021968402
0.077781871 0.095358767 0.021617621
0.078533471 0.095365763 0.021289028
0.079201311 0.095367953 0.020939607
0.079702437 0.095360443 0.02054837
0.080121323 0.095348202 0.020136401
0.080520645 0.095334865 0.019719653
0.080939621 0.095322706 0.019307755
0.081326216 0.095308654 0.018887922
0.081725329 0.09529534 0.018471047
0.08204931 0.095277674 0.018035319
0.08238779 0.095260777 0.017603371
0.082761392 0.095246024 0.017180074
0.08307974 0.095228061 0.016743004
0.083359212 0.095207833 0.016296223
0.083612338 0.095186055 0.015842784
0.083861798 0.095164038 0.015388492
0.08407867 0.095140241 0.014925982
0.084273234 0.095115118 0.014457837
0.084444523 0.095088691 0.013983932
0.084592193 0.095060751 0.013504148
0.084729627 0.095032386 0.013021691
0.084838286 0.095002286 0.012532058
0.084934905 0.094971523 0.01203945
0.0849967 0.094938725 0.011538028
0.085042223 0.094905056 0.011032602
0.08503364 0.094868228 0.01051359
0.085029364 0.094831653 0.0099955993
0.08500427 0.094793826 0.0094724996
0.084939897 0.094753817 0.0089394934
0.084904358 0.094715357 0.0084138121
0.084859356 0.09467648 0.0078856666
0.084790871 0.094636112 0.0073516374
0.084712043 0.094595306 0.0068150056
0.08462204 0.094553724 0.0062755924
0.084495947 0.094510071 0.0057271221
0.084289029 0.094461806 0.0051583787
0.083886832 0.094402373 0.0045407843
0.083502248 0.094343811 0.0039275107
0.083228543 0.094291732 0.003342083
0.082944304 0.094238982 0.0027539281
0.08272478 0.094189972 0.0021820904
-0.05251668 0.090197451 0.02214032
-0.050895669 0.090265036 0.022093631
-0.049540803 0.090315051 0.021966327
-0.048446737 0.090347871 0.021760106
-0.047680002 0.090358898 0.021454562
-0.046182353 0.090418354 0.021370497
-0.04536308 0.090432912 0.021080978
-0.044818103 0.090429254 0.020708352
-0.044247933 0.090427205 0.020343337
-0.043705825 0.090423346 0.01996978
-0.043380786 0.090405077 0.019530516
-0.043014981 0.090389542 0.01910352
-0.042642843 0.090374388 0.018678576
-0.042306744 0.090356864 0.018242598
-0.041969832 0.090339459 0.017806944
-0.041723151 0.090315938 0.017343916
-0.041588694 0.090285145 0.016846877
-0.04145674 0.090254046 0.016349137
-0.041284401 0.090225682 0.015863523
-0.041173179 0.090193242 0.015359546
-0.040959325 0.090167597 0.014886603
-0.041011877 0.090124309 0.014332842
0.040335357 0.095573187 0.035987314
0.04063005 0.095553927 0.035544306
0.041246887 0.095553055 0.035182025
0.042041283 0.095562257 0.034864254
0.042787589 0.095568746 0.034534458
0.043568812 0.095577188 0.034213379
0.044195648 0.095576845 0.033853628
0.044840533 0.095577493 0.033498436
0.045402925 0.095573477 0.033122536
0.045956992 0.095568918 0.032744501
0.046422001 0.095559396 0.032344185
0.046803635 0.095545076 0.031923048
0.047180038 0.095530428 0.031500459
0.047542278 0.095514983 0.031074319
0.047888972 0.095498636 0.030644447
0.048199434 0.095480308 0.030205358
0.048494138 0.095461056 0.029762328
0.048727199 0.095438175 0.029303961
0.048923481 0.095413245 0.028836206
0.04906521 0.095385179 0.028354917
0.049145207 0.095353663 0.027858086
0.049132988 0.095316842 0.027338225
0.049058516 0.095276535 0.026802696
0.048962194 0.095234998 0.026261654
0.048875406 0.095193885 0.025723085
0.048723601 0.095149055 0.025168199
0.048485424 0.095099449 0.024591554
0.048230555 0.095048755 0.024010826
-0.0055412366 0.09112265 0.0067950618
-0.0051805032 0.091106802 0.0063666082
-0.0045458721 0.091109 0.0060211001
-0.0037237273 0.091123797 0.0057324036
-0.0030569688 0.091128185 0.005396652
-0.0025007995 0.091125257 0.0050273994
-0.0020281768 0.091116749 0.0046328204
-0.0016722025 0.091100566 0.004202906
-0.0013037038 0.091085173 0.0037768104
-0.000999504 0.091065586 0.0033311893
-0.00068648864 0.091046534 0.0028882746
0.074126676 0.095984541 0.022748299
0.075074315 0.096002527 0.022468921
0.076106131 0.096025303 0.022210702
0.076784223 0.096027873 0.021863725
0.07736668 0.096024945 0.021492891
0.078043699 0.096027538 0.021145727
0.078785509 0.096033677 0.02081475
0.079383612 0.09603174 0.020447794
0.079861134 0.096022889 0.020050589
0.080301657 0.096011899 0.019644212
0.08073692 0.096000642 0.019236393
0.081132919 0.095987134 0.01881874
0.081547856 0.095974676 0.018405866
0.081924513 0.095960014 0.017983425
0.082266688 0.095943451 0.01755238
0.082627967 0.095927939 0.017126039
0.082942963 0.095909745 0.016688146
0.083206967 0.095888741 0.016237475
0.083463028 0.095867269 0.015784733
0.083698705 0.095844664 0.015326949
0.083919317 0.09582103 0.014865411
0.084129468 0.095796973 0.014401212
0.084302619 0.095770739 0.013927682
0.084461063 0.095743656 0.013450607
0.084648043 0.095718212 0.012980593
0.084791586 0.095690273 0.012499684
0.084895104 0.095660061 0.012008821
0.084979415 0.095628746 0.011513105
0.085035771 0.095595904 0.011010317
0.085047707 0.095560476 0.010496464
0.085057214 0.095524944 0.0099819675
0.085033074 0.095487356 0.0094591314
0.084967077 0.095447533 0.0089257369
0.084924117 0.095409073 0.0083980924
0.084880024 0.095370352 0.0078701321
0.084806189 0.095330074 0.0073347939
0.08473444 0.095289871 0.006799974
0.0846591 0.095249467 0.0062641758
0.084550127 0.09520714 0.005720037
0.084370166 0.095160753 0.0051580891
0.084081888 0.095108218 0.0045689573
0.083755344 0.095053442 0.0039702393
0.083504915 0.095003024 0.0033906228
0.083219245 0.094950624 0.0028022001
0.083001837 0.094902098 0.0022308019
-0.05327002 0.090892561 0.021890059
-0.05108507 0.090996914 0.022014249
-0.049901988 0.09103509 0.021834958
-0.048909254 0.091060869 0.021597955
-0.048233129 0.091065817 0.021265116
-0.046876781 0.091115445 0.021138273
-0.045831315 0.091144629 0.0209173
-0.045276374 0.091141619 0.020547692
-0.044852238 0.091129929 0.020138357
-0.04434358 0.09112376 0.0197547
-0.044029184 0.091104835 0.019312218
-0.043723971 0.091085345 0.018866912
-0.043331396 0.091071554 0.018448066
-0.042981241 0.091054931 0.018016487
-0.04267361 0.091035597 0.017571829
-0.04235309 0.091017082 0.017131194
-0.042241 0.090984873 0.016627472
-0.042223547 0.090946384 0.016094916
-0.04225187 0.090904914 0.01554865
-0.042235203 0.090866454 0.015015893
-0.042152077 0.090832263 0.014503302
-0.042143892 0.09079323 0.013967991
0.040260337 0.09627004 0.035947721
0.040546142 0.096250325 0.035502464
0.04103658 0.09624213 0.035108544
0.041768018 0.096247554 0.034775019
0.042504445 0.096253291 0.034442689
0.043250062 0.096259497 0.034112714
0.043930788 0.096262105 0.033766489
0.04458509 0.096263155 0.033413608
0.045181803 0.096260913 0.03304632
0.045743398 0.096256793 0.03267023
0.046255257 0.096249878 0.032281652
0.04666606 0.096237183 0.031867746
0.047060486 0.096223548 0.031449784
0.047421504 0.096208073 0.031023316
0.047777034 0.096192263 0.030595642
0.048096925 0.096174464 0.030158948
0.048391093 0.096155174 0.02971578
0.048655082 0.096134245 0.029265117
0.048858125 0.096109785 0.028799102
0.049035057 0.096083872 0.028326552
0.049130619 0.096053399 0.027833674
0.049133379 0.096017726 0.02731755
0.049089685 0.095979363 0.026789717
0.049025141 0.095939822 0.026256628
0.048980586 0.095901459 0.025728662
0.048847791 0.095858045 0.025178496
0.04865947 0.095811605 0.024614472
0.048406038 0.095761411 0.024033993
0.047985949 0.095701769 0.023411889
-0.0054701348 0.091860764 0.0067954333
-0.0050371462 0.091849618 0.0063888775
-0.0043242234 0.091856919 0.0060670897
-0.0035366775 0.091869205 0.0057679457
-0.0028845784 0.091872476 0.0054277428
-0.0023427762 0.091868564 0.0050541377
-0.0019172342 0.091856912 0.0046453103
-0.001558504 0.091840938 0.0042162379
-0.0011887606 0.091825642 0.0037904975
-0.00087255426 0.091806844 0.0033485428
-0.0005159775 0.091790758 0.002918805
-0.00020006298 0.091771945 0.0024767448
0.073794499 0.096621037 0.022127476
0.075686514 0.096691951 0.022084858
0.076390386 0.096695855 0.021744441
0.076967061 0.096692502 0.021372106
0.077568442 0.096690662 0.021005914
0.078260884 0.096693821 0.020662658
0.079029158 0.096701369 0.020338345
0.079626247 0.096699253 0.019971132
0.080101624 0.096690178 0.019573405
0.080553114 0.09667974 0.019169744
0.080960467 0.096666954 0.018754926
0.081377789 0.096654601 0.018342659
0.081770733 0.096640974 0.017924283
0.082123175 0.096624918 0.017495759
0.082428515 0.096606269 0.017055381
0.082709447 0.096586347 0.016608991
0.08296679 0.096565008 0.016156577
0.083217651 0.096543215 0.015702594
0.083472833 0.09652175 0.015249728
0.083711281 0.096499309 0.01479266
0.08395496 0.096477203 0.014336799
0.084176481 0.096453875 0.01387544
0.084356502 0.096428111 0.013403746
0.08453469 0.096402317 0.012931585
0.084697947 0.096375644 0.012455598
0.084820732 0.096346721 0.011969515
0.084910989 0.09631595 0.01147528
0.08496885 0.096283436 0.010972951
0.085010707 0.096249826 0.010466533
0.085045621 0.096215986 0.0099584404
0.085031331 0.096179284 0.0094379876
0.084985077 0.096140794 0.0089094983
0.084953606 0.096103176 0.0083847633
0.084899336 0.09606415 0.0078542763
0.084811613 0.096023403 0.007315502
0.084744379 0.095983736 0.0067817657
0.084660187 0.095943071 0.0062437612
0.084550023 0.09590102 0.0056992914
0.084395766 0.095856391 0.0051437491
0.084213182 0.095810197 0.0045811436
0.08397536 0.095760889 0.0040046829
0.08380948 0.095715664 0.0034462935
0.083599031 0.095667869 0.0028766273
0.083353236 0.095618099 0.0022981721
-0.053272519 0.091598161 0.021329567
-0.050372191 0.091748424 0.021670572
-0.049456865 0.091768749 0.021410149
-0.048746042 0.091775849 0.021087732
-0.048248637 0.091768928 0.020700667
-0.04747856 0.091779768 0.020396262
-0.045898024 0.091843739 0.020337448
-0.045372427 0.09183865 0.01995891
-0.045004122 0.091823384 0.019532777
-0.044656113 0.09180662 0.019100398
-0.044436429 0.091781549 0.018629164
-0.044199299 0.09175764 0.018163245
-0.044026166 0.091729462 0.017677959
-0.044002041 0.091691621 0.017147504
-0.043946058 0.091655888 0.016626697
-0.043691132 0.091633111 0.016166162
-0.043322962 0.091617778 0.015739888
-0.043138869 0.091590397 0.015257884
-0.043024939 0.091558345 0.014754681
-0.042846326 0.091530629 0.014271031
-0.04290415 0.091487408 0.013715691
-0.043089919 0.091435812 0.013121692
0.040472325 0.096947312 0.035463188
0.040873613 0.096934088 0.035046924
0.04149479 0.096933246 0.034685712
0.042211872 0.096937612 0.034348629
0.042935234 0.096942417 0.034013059
0.043594748 0.096943647 0.033661515
0.044284098 0.096946545 0.033317383
0.044894677 0.096944958 0.032953538
0.045469504 0.096941493 0.032580812
0.046029046 0.096937075 0.032204151
0.046495933 0.096927531 0.031804301
0.046912808 0.096915193 0.031391889
0.047282998 0.09690024 0.030967828
0.047621749 0.096883558 0.030535858
0.047974519 0.096867651 0.030107476
0.048263419 0.096848145 0.029663011
0.048518725 0.096826777 0.029210147
0.048749283 0.096803993 0.028751049
0.048938695 0.096778937 0.028281674
0.049063616 0.096750289 0.027796093
0.049104009 0.096716903 0.027289364
0.049100645 0.096681006 0.026771687
0.049097996 0.096645236 0.02625414
0.049051292 0.096607037 0.02572551
0.048940394 0.096565165 0.025180887
0.048783667 0.096520811 0.024624754
0.048552707 0.096472196 0.024049968
0.048230685 0.09641856 0.02345239
0.047852058 0.096360341 0.022837862
-0.0052972645 0.092605375 0.0068266657
-0.0047986661 0.09259852 0.0064399545
-0.0041356129 0.092602432 0.0061031072
-0.0034135422 0.092610233 0.0057841274
-0.0027838999 0.092611991 0.0054371282
-0.0022717863 0.092605986 0.0050545409
-0.0018416913 0.092594758 0.0046470822
-0.0014607669 0.092580199 0.004224733
-0.0010907437 0.092564926 0.0037990678
-0.00072580046 0.092549369 0.0033718818
-0.00036568494 0.092533521 0.002943228
-3.150994e-06 0.092517793 0.0025152776
0.00031616507 0.092499211 0.0020742852
0.073122174 0.097239278 0.021421444
0.075976193 0.097363159 0.021619949
0.076565534 0.097360432 0.021250848
0.077115312 0.097355574 0.020871781
0.077644214 0.09734951 0.020487469
0.07838586 0.097355269 0.020156443
0.079224348 0.097366489 0.01984968
0.079813763 0.09736377 0.019480672
0.08028394 0.097354352 0.019081585
0.08070007 0.097342022 0.018669046
0.081104398 0.097329006 0.018253539
0.081519365 0.097316571 0.017840594
0.081852168 0.097299427 0.01740722
0.082145676 0.097280212 0.016963851
0.082418293 0.097259849 0.016515322
0.082673535 0.097238481 0.016062524
0.082942784 0.097217858 0.015613148
0.083220243 0.097197741 0.01516577
0.083482683 0.097176686 0.014714721
0.083768368 0.097157083 0.014269415
0.084027573 0.097135916 0.013817511
0.08423169 0.097111665 0.013351821
0.084397912 0.097085305 0.012876616
0.084554285 0.097058401 0.01239894
0.084690064 0.097030357 0.011916102
0.084791064 0.097000398 0.01142457
0.084877744 0.096969619 0.010929409
0.084955618 0.096938275 0.010432066
0.085013077 0.096905865 0.0099296011
0.085028827 0.096871048 0.009416651
0.085004598 0.096834056 0.0088937879
0.084969446 0.096796528 0.0083680758
0.0849085 0.096757382 0.0078358864
0.084822327 0.09671694 0.0072974991
0.084731773 0.096676283 0.0067579369
0.084652081 0.096636154 0.0062210192
0.084548637 0.096594818 0.0056782817
0.084426388 0.096552312 0.0051307548
0.084289387 0.096509047 0.004579613
0.084119692 0.096463911 0.0040201661
0.08397828 0.096420303 0.0034678492
0.083799124 0.096374661 0.0029060845
0.083578467 0.096326731 0.0023339563
0.083367199 0.096279316 0.0017641538
-0.05345308 0.092331775 0.021252766
-0.052877788 0.092329904 0.020889342
-0.050282188 0.09245915 0.021138147
-0.049391434 0.092477739 0.020870302
-0.04881262 0.092476062 0.020507846
-0.048346836 0.092466988 0.020111188
-0.047854073 0.092459738 0.019722745
-0.047133625 0.092467323 0.019403297
-0.046339665 0.092479616 0.019106172
-0.045513693 0.092494026 0.018818643
-0.045190759 0.092475645 0.018378645
-0.045077398 0.092443831 0.017875314
-0.044996627 0.092409842 0.017361987
-0.044855688 0.092379652 0.01686684
-0.044681344 0.092351757 0.016381886
-0.044445857 0.092327811 0.015915502
-0.044180106 0.092305794 0.015458244
-0.043936707 0.092282347 0.014994159
-0.043837298 0.092249542 0.014486618
-0.043768488 0.092214778 0.01396961
-0.04373809 0.092177443 0.013440984
-0.043898307 0.09212783 0.012854651
0.040423948 0.097645894 0.035430249
0.040709823 0.097626291 0.034985051
0.041235063 0.097619906 0.034599826
0.041937899 0.097623371 0.034259118
0.042610686 0.097625211 0.03391093
0.043250136 0.097625114 0.033554319
0.043934189 0.097627521 0.033208955
0.044569883 0.097627349 0.032851394
0.045195293 0.09762647 0.032491282
0.045769408 0.097622834 0.032118283
0.046276234 0.097615369 0.031728487
0.046719957 0.097604543 0.0313228
0.047128111 0.097591765 0.030908249
0.047488634 0.097576231 0.030481737
0.047836173 0.097559988 0.030051976
0.048127491 0.097540691 0.029608171
0.048368655 0.097518675 0.029151727
0.048605546 0.097496375 0.028694261
0.048818905 0.097472802 0.028230906
0.048963062 0.097445376 0.02775012
0.049054153 0.09741497 0.027256124
0.049109392 0.097382642 0.026753061
0.049136307 0.097348705 0.026242882
0.04909784 0.097311117 0.025716387
0.049027324 0.097271845 0.025181875
0.048873097 0.097227886 0.024626315
0.048691906 0.09718243 0.024064083
0.048407312 0.097131357 0.023475807
0.048088629 0.097078353 0.02287906
0.047730818 0.097014397 0.022255685
-0.0045108115 0.09335053 0.0065060509
-0.0039802678 0.093345702 0.0061290385
-0.0033790106 0.093345441 0.0057734526
-0.0027774409 0.093345322 0.0054179677
-0.0022710371 0.093338877 0.0050336556
-0.0018106851 0.093329556 0.0046353727
-0.001408455 0.093316443 0.0042194678
-0.0010129031 0.093302906 0.0038015454
-0.00059130602 0.093291007 0.0033915066
-0.00019173637 0.0932777 0.0029748052
0.0001968586 0.093263596 0.0025547824
0.00052543392 0.09324576 0.0021165737
0.072763756 0.097911619 0.021310933
0.073089868 0.097894274 0.020875875
0.07604748 0.098022461 0.021100316
0.076722994 0.098024368 0.020752713
0.07722871 0.098016858 0.020362634
0.077766418 0.09801124 0.019980609
0.078484714 0.09801551 0.019643687
0.07930012 0.098025247 0.019331235
0.079889402 0.098022424 0.018962082
0.08033289 0.098011509 0.018556412
0.080753878 0.097999342 0.018145036
0.081159756 0.097986467 0.017729912
0.081511006 0.097970426 0.017301045
0.081795096 0.097950712 0.016855437
0.082094282 0.097931936 0.016413491
0.082409829 0.097913966 0.015975706
0.082710773 0.097895183 0.015534298
0.08299984 0.097875781 0.015089906
0.08329311 0.097856589 0.014646549
0.08355318 0.097835593 0.014194909
0.083821133 0.097814932 0.013745134
0.084070981 0.097793393 0.013290904
0.084258243 0.097768292 0.012820992
0.084434167 0.097742572 0.012348169
0.0845965 0.097716153 0.011872
0.084716275 0.097687393 0.011385114
0.084822983 0.097657874 0.010895086
0.084914684 0.097627513 0.010401154
0.084976092 0.097595505 0.0098996554
0.085021585 0.097562641 0.0093942117
0.085017338 0.09752702 0.0088762585
0.084984183 0.097489774 0.0083511323
0.084915951 0.097450644 0.0078171203
0.084816143 0.097409599 0.0072752214
0.084727317 0.097369328 0.0067360969
0.084648028 0.097329557 0.0061993818
0.084538177 0.097288072 0.0056549506
0.084439486 0.097247109 0.0051133074
0.084327072 0.097205594 0.0045683617
0.084212467 0.097163789 0.0040227021
0.084061593 0.097120039 0.0034679803
0.083911061 0.097076334 0.002913459
0.083713934 0.097029999 0.0023471471
0.083445847 0.096979864 0.0017630954
-0.053659312 0.093063951 0.021168228
-0.053264398 0.093050294 0.020750105
-0.05208509 0.093087278 0.020569727
-0.050531067 0.093148373 0.020502947
-0.049337804 0.093186229 0.020326767
-0.048900645 0.093175344 0.019921448
-0.048516016 0.093160979 0.019500241
-0.048066765 0.093150988 0.019098587
-0.047592513 0.093142487 0.018704496
-0.046986494 0.093142509 0.018350307
-0.04651688 0.093133688 0.017954923
-0.046075325 0.093123011 0.017550904
-0.045781806 0.09310282 0.017102055
-0.045605976 0.093075208 0.01661754
-0.04537797 0.093050785 0.016148865
-0.045239531 0.093020692 0.015652999
-0.045091946 0.092991091 0.015159898
-0.045002587 0.092957884 0.014649262
-0.044791017 0.092932373 0.014175514
-0.044623025 0.092904098 0.013688656
-0.04475775 0.0928564 0.013110057
-0.045076892 0.092796735 0.01247552
0.040349569 0.098343059 0.035390839
0.040595435 0.098321356 0.03493556
0.041003224 0.098308474 0.034520917
0.041667525 0.098309629 0.03417059
0.042316467 0.098309994 0.033816393
0.042921461 0.09830796 0.03345117
0.043530826 0.09830606 0.033087008
0.044189136 0.098306969 0.032735158
0.044839527 0.098307319 0.03238133
0.045422763 0.098304048 0.032010645
0.045979984 0.098299354 0.031633489
0.046465132 0.098290771 0.031238176
0.0468987 0.098279238 0.030829974
0.047299374 0.09826602 0.030413557
0.047648899 0.098249972 0.029984314
0.047956593 0.098231688 0.02954451
0.048231177 0.098211467 0.029096495
0.048456699 0.098188721 0.028636161
0.048671316 0.098165281 0.028173059
0.048838519 0.098139204 0.0276981
0.048969023 0.098111212 0.027213939
0.049065504 0.098081253 0.026721239
0.049108867 0.098048463 0.026215263
0.049107786 0.098013304 0.025698092
0.049086206 0.097976878 0.025175873
0.048974592 0.097935647 0.024630968
0.048844352 0.097893298 0.024081428
0.048609313 0.097845294 0.023505654
0.048316054 0.097794041 0.022915296
0.048030172 0.097738631 0.02231792
-0.0043405495 0.094094686 0.0065365178
-0.0038956187 0.09408424 0.0061335685
-0.0033519645 0.094080254 0.0057605258
-0.0027888215 0.094077505 0.0053933836
-0.0022630091 0.094072327 0.0050149527
-0.0018252396 0.094061419 0.0046098353
-0.0014161238 0.094048761 0.0041960357
-0.00095707545 0.094039276 0.0037973563
-0.00048662184 0.094030589 0.003402136
-5.0935916e-05 0.094019577 0.0029963728
0.00031230881 0.094003916 0.0025686733
0.00067334838 0.09398821 0.0021402824
0.0010503712 0.093973316 0.0017167561
0.07268241 0.098564416 0.020753052
0.073077321 0.098550819 0.020335142
0.076153278 0.098683961 0.020589285
0.076775685 0.098682806 0.020228419
0.077284321 0.09867546 0.019839123
0.077800676 0.098668493 0.019451648
0.078481004 0.098670639 0.019105349
0.079341799 0.098682545 0.018804174
0.079873815 0.098676495 0.018420711
0.08034341 0.098666936 0.018021517
0.080762208 0.098654725 0.017609555
0.081150517 0.098640762 0.017190088
0.081504166 0.098624945 0.016761817
0.081806198 0.098606281 0.016320668
0.082143232 0.098589562 0.015888318
0.082497671 0.098573744 0.015460306
0.082793981 0.098554783 0.015017651
0.083082542 0.098535471 0.014573124
0.083362952 0.098515622 0.014126535
0.083631784 0.098495103 0.01367701
0.083852053 0.098472007 0.013215399
0.084078148 0.09844923 0.012755208
0.084293544 0.098425783 0.012292297
0.084458962 0.098399743 0.011816874
0.084597424 0.09837205 0.011334802
0.084736109 0.098344475 0.010852656
0.084852248 0.098315693 0.010364875
0.084936127 0.098285109 0.0098690018
0.084987715 0.098252743 0.0093650296
0.085001722 0.098218374 0.0088516809
0.084970504 0.098181449 0.0083269961
0.084922254 0.098143682 0.0077981036
0.084826052 0.09810321 0.0072570252
0.084735423 0.098063067 0.0067175236
0.084634826 0.098022453 0.0061754058
0.084522441 0.097981066 0.0056303209
0.084427804 0.097940698 0.0050897743
0.084339887 0.097900733 0.0045507704
0.084269315 0.097861752 0.0040163156
0.084121972 0.097818524 0.0034624885
0.083978564 0.097775444 0.0029096368
0.083760798 0.097728401 0.0023381957
0.08348228 0.097678013 0.0017515472
0.083126009 0.097623259 0.0011453368
0.082802892 0.097570434 0.00054748211
-0.053855933 0.093758017 0.020548739
-0.052693859 0.093793534 0.020363122
-0.051623721 0.09382312 0.020149734
-0.050721418 0.093842015 0.019885458
-0.049771022 0.093863934 0.019635677
-0.049241371 0.09385895 0.019258402
-0.048808061 0.093847767 0.018851891
-0.048310574 0.093840793 0.018464893
-0.047821868 0.093833089 0.018075205
-0.047364615 0.093823522 0.017676063
-0.046990134 0.093808651 0.017251696
-0.046703734 0.09378805 0.016800664
-0.046539184 0.093759745 0.016312748
-0.046415061 0.093728773 0.015812621
-0.046322476 0.093695812 0.015302829
-0.046125717 0.093669496 0.014824617
-0.045978583 0.09363997 0.014331372
