# .PCD v0.7 - Point Cloud Data file format
VERSION 0.7
FIELDS x y z
SIZE 4 4 4
TYPE F F F
COUNT 1 1 1
WIDTH 1312
HEIGHT 1
VIEWPOINT 0 0 0 1 0 0 0
POINTS 1312
DATA ascii
0.080031738 0.077020884 0.026869647
0.079972729 0.076941162 0.026375402
0.07989908 0.076861292 0.025884183
0.079807177 0.076781042 0.025396558
0.079691961 0.07670027 0.02491376
0.079594545 0.076619804 0.024427289
0.079448052 0.076538555 0.02395078
0.079312183 0.076457396 0.023472076
0.079160959 0.076376006 0.022996556
0.079008207 0.076294564 0.022521259
0.078904271 0.076214045 0.022036059
0.078796081 0.07613343 0.021551844
0.078677863 0.076052621 0.021069625
0.078560285 0.075971872 0.02058721
0.078455754 0.075891301 0.020102205
0.078346126 0.07581073 0.019618163
0.078242645 0.075730242 0.019132979
0.078149304 0.07564988 0.018645728
0.078015558 0.075568832 0.018166564
0.0778438 0.07548701 0.017695172
0.077634417 0.075404435 0.0172313
0.077361137 0.075320877 0.016780442
0.076935261 0.075234264 0.016360261
0.076418854 0.075146079 0.015958536
0.072915092 0.074766345 0.014641851
0.072591253 0.074681707 0.014201119
0.072369739 0.074598998 0.013739707
0.072267599 0.074518561 0.013254202
0.072105862 0.074436888 0.012780739
0.07190343 0.074354559 0.012315555
0.0716317 0.074270874 0.011864253
0.071264699 0.074185483 0.011432256
0.070909016 0.074100293 0.010998056
0.070537969 0.074014731 0.010566853
0.070156649 0.073929101 0.01013775
0.06976144 0.07384304 0.0097114891
0.069405854 0.073757894 0.009277124
0.069043688 0.073672533 0.0088441912
0.068752095 0.073588468 0.008396931
0.068419583 0.073503688 0.00795798
0.068150997 0.07342013 0.00750612
0.067863502 0.073336154 0.0070581124
0.067500666 0.07325083 0.0066252728
0.058892708 0.072382927 0.0038090716
0.058488097 0.072296776 0.0033846917
0.058520894 0.072218783 0.0028719155
0.058727998 0.072144091 0.0023239502
0.058848009 0.072067767 0.0017935561
0.058940232 0.071990922 0.0012688141
0.059003893 0.071913533 0.00074978301
0.059138693 0.071837388 0.00021644005
0.059118528 0.071758457 -0.00028564531
0.059040718 0.071678437 -0.00077603123
0.058942586 0.071598053 -0.0012623158
0.058845565 0.071517587 -0.0017488515
0.058743961 0.071437076 -0.0022344796
0.058620978 0.071356237 -0.0027157264
0.05843642 0.071274258 -0.0031845504
0.058222946 0.071191728 -0.0036475589
0.057978109 0.07110849 -0.0041042785
0.057696067 0.071021438 -0.0045644068
0.057346936 0.070932582 -0.0050128177
0.056888964 0.070841007 -0.0054419679
0.056387722 0.070748292 -0.0058633131
0.056029532 0.070659168 -0.006310151
0.05570931 0.070571043 -0.0067637656
0.055283327 0.07048025 -0.00719848
0.054732107 0.070386142 -0.007611061
0.054242294 0.070293695 -0.0080344649
0.053878941 0.070204504 -0.0084803635
0.053460509 0.070113897 -0.0089165131
0.053016372 0.070022613 -0.0093479836
0.052623898 0.069932684 -0.0097887274
0.052254844 0.069843285 -0.010233628
0.051937614 0.069755308 -0.010687739
0.051751256 0.069670618 -0.011165222
0.051575221 0.069586225 -0.011644369
0.051423196 0.069502436 -0.012127907
0.05123052 0.06941767 -0.012604179
0.051072635 0.069333762 -0.013086569
0.050938055 0.06925045 -0.013573151
0.050726686 0.069165066 -0.014046135
0.050442506 0.069077894 -0.014506106
0.050169639 0.068991035 -0.014968099
0.049913224 0.068904556 -0.015433017
0.049678542 0.068818681 -0.01590181
0.049402434 0.068731695 -0.016363254
0.049074218 0.068643399 -0.016815381
0.048738096 0.068554863 -0.017266177
0.048436552 0.068467312 -0.017723078
0.048140071 0.068379797 -0.018180855
0.047862146 0.068292797 -0.018641952
0.047553983 0.068204977 -0.019097634
0.047123227 0.068114102 -0.019531608
0.046796937 0.068025783 -0.019984137
0.046484087 0.067937903 -0.020439032
0.046134744 0.067849077 -0.020887416
0.045760065 0.067759529 -0.021331292
0.045337375 0.067668848 -0.021766733
0.044916332 0.067578115 -0.022202358
0.044333033 0.067483224 -0.022609087
0.037049796 0.066737011 -0.024887716
0.036715541 0.066648513 -0.025338743
0.036184989 0.066554964 -0.025754906
0.035611197 0.066460401 -0.026163375
0.035168998 0.066369154 -0.026595257
0.034812827 0.066280141 -0.027042491
0.034555733 0.0661937 -0.027507324
0.034318466 0.066107661 -0.027975593
0.034054473 0.066021055 -0.028439205
0.033798862 0.065934643 -0.028904298
0.033464506 0.06584613 -0.02935536
0.033050288 0.065755635 -0.029792232
0.032590706 0.065663941 -0.030220956
0.032192096 0.065573819 -0.030660646
0.071706057 0.079661749 0.042134129
0.072048046 0.079589441 0.041558899
0.074668989 0.079558372 0.040523414
0.075583704 0.079496369 0.039832521
0.076264694 0.079430208 0.039188843
0.076703265 0.079359658 0.038594168
0.077213652 0.079290397 0.03798493
0.077657662 0.079219975 0.037389114
0.078106403 0.079149604 0.036792319
0.078464627 0.079077587 0.036213823
0.078801669 0.079005174 0.035639647
0.079079919 0.078931741 0.035077292
0.079428457 0.078859568 0.034500748
0.079678185 0.078785591 0.033944193
0.07990212 0.078711204 0.03339278
0.080131248 0.07863681 0.03284039
0.080287963 0.078561179 0.032302584
0.080415808 0.07848502 0.031770624
0.080529034 0.078408509 0.031241603
0.080584466 0.078331098 0.030724285
0.080627263 0.078253455 0.030209508
0.080601685 0.078174487 0.029708484
0.080546588 0.078094974 0.029213509
0.080454461 0.078014858 0.028726
0.080437891 0.077936135 0.028223183
0.080417164 0.077857263 0.027721219
0.080376305 0.077778004 0.027223317
0.080308661 0.077698365 0.026730863
0.080271445 0.077619202 0.026232256
0.080234498 0.077540085 0.025733626
0.080134504 0.077459775 0.02524766
0.080024406 0.077379316 0.02476375
0.079906605 0.077298671 0.02428136
0.079740018 0.077217199 0.023808891
0.079577133 0.077135794 0.023335641
0.079396114 0.077054098 0.02286604
0.07923153 0.076972596 0.022393167
0.079123236 0.076892205 0.021908933
0.079005606 0.076811627 0.021426469
0.078879148 0.076730907 0.020945851
0.078769587 0.076650426 0.020461913
0.078677669 0.07657028 0.019974368
0.078569598 0.076489814 0.019489994
0.078452617 0.076409236 0.019007526
0.078357555 0.076329075 0.018520536
0.078224652 0.076248161 0.018041195
0.07804922 0.076166593 0.017570578
0.077846453 0.076084338 0.017105345
0.077574775 0.076001063 0.016654029
0.077153869 0.07591489 0.01623299
0.076706588 0.075828359 0.015817178
0.076398827 0.075744376 0.01537312
0.072322018 0.075356849 0.014172018
0.071946047 0.075271621 0.013741801
0.071725212 0.075189084 0.013280238
0.071639001 0.075109154 0.01279152
0.071498998 0.075028136 0.01231364
0.071252637 0.074945189 0.011857332
0.070940129 0.07486099 0.011414253
0.070611991 0.074776709 0.010974376
0.070290178 0.074692354 0.010533218
0.069908656 0.074607052 0.010104204
0.069567211 0.074522361 0.0096669458
0.069224253 0.074437678 0.0092301415
0.068902835 0.074353412 0.008788879
0.068596557 0.074269399 0.0083445655
0.068281502 0.074185289 0.0079021249
0.068019569 0.074102066 0.0074488409
0.067716576 0.074018069 0.0070039071
0.057603523 0.073050715 0.0039850245
0.057372004 0.072968066 0.003525665
0.057341095 0.072889082 0.0030257336
0.057400223 0.072811678 0.0025076475
0.0577108 0.072738759 0.0019387715
0.057928335 0.072664239 0.0013886387
0.058074769 0.072588451 0.00085296959
0.058231842 0.072512805 0.00031509434
0.058378823 0.072436996 -0.00022070983
0.058387671 0.072358668 -0.00072860013
0.058354728 0.072279535 -0.0012281162
0.058297835 0.072200082 -0.0017227523
0.058212828 0.072120085 -0.0022117195
0.058173563 0.072040901 -0.0027099473
0.058032293 0.071959846 -0.0031876019
0.057859272 0.071878217 -0.0036587904
0.057669729 0.071793973 -0.0041344017
0.05738467 0.071706951 -0.004594272
0.057034418 0.071618252 -0.0050425422
0.056608338 0.071527578 -0.0054772994
0.05620617 0.07143753 -0.0059163957
0.055897146 0.071349807 -0.0063720564
0.055630766 0.071263254 -0.006835198
0.055236176 0.071173422 -0.0072756056
0.05478818 0.071082249 -0.0077064745
0.054338828 0.070991009 -0.0081371469
0.053916719 0.070900418 -0.0085727181
0.053412579 0.070807792 -0.0089935753
0.052832566 0.070713259 -0.0094010532
0.052351631 0.070621245 -0.0098261246
0.051898684 0.07052993 -0.010256075
0.051414866 0.070437752 -0.010680709
0.051039755 0.070348464 -0.01112456
0.050765876 0.070261665 -0.011586358
0.050539844 0.070176125 -0.012056774
0.050495319 0.070095196 -0.012559397
0.050460529 0.070014507 -0.013063685
0.050295532 0.069930516 -0.013544948
0.050005302 0.069843285 -0.014003852
0.04980078 0.069758229 -0.014478091
0.049643587 0.069674477 -0.014960706
0.049438719 0.069589429 -0.015434854
0.049196303 0.069503434 -0.015902273
0.048982222 0.069418207 -0.01637469
0.048784394 0.069333404 -0.016850119
0.04852508 0.069246985 -0.017314535
0.048192445 0.069158688 -0.017766001
0.04794554 0.069072634 -0.018232591
0.047741685 0.06898766 -0.018706948
0.047423016 0.068899736 -0.019160818
0.047025193 0.068809763 -0.019600688
0.046705857 0.068721816 -0.020054452
0.046398062 0.068634279 -0.02051026
0.046077605 0.068546236 -0.020963857
0.045684922 0.068456434 -0.02140459
0.045263566 0.068365984 -0.021840263
0.044827428 0.068275064 -0.022273254
0.037490159 0.067529902 -0.024542788
0.037026711 0.067438304 -0.02497099
0.036578033 0.067347035 -0.025401762
0.03602061 0.067253008 -0.025813222
0.035404835 0.067157671 -0.026214259
0.034944311 0.067066081 -0.026642989
0.034648389 0.066978738 -0.027100919
0.034398388 0.066892609 -0.027567048
0.03413805 0.066806123 -0.028031262
0.033892989 0.066720068 -0.028498296
0.033629954 0.066633612 -0.028962033
0.03331814 0.066545852 -0.029417144
0.032950208 0.066456668 -0.029862328
0.03253185 0.066366255 -0.030298475
0.032124661 0.066276103 -0.030736681
0.074148558 0.080300592 0.041051786
0.074949779 0.080236159 0.040383853
0.075810127 0.080172807 0.039703961
0.076448068 0.080105647 0.03906903
0.076907657 0.080035262 0.038470048
0.077453859 0.079966486 0.037853621
0.077891089 0.07989569 0.037259206
0.078345224 0.079825334 0.036661353
0.07871943 0.079753458 0.03607966
0.079085089 0.079681471 0.035499655
0.079394817 0.079608522 0.034930971
0.079720289 0.079535857 0.034359071
0.080000818 0.079462379 0.033796337
0.080248386 0.07938832 0.033240192
0.080448277 0.079313405 0.032693665
0.080570996 0.0792372 0.032162718
0.080740266 0.079161853 0.031622421
0.080840811 0.079085253 0.031095982
0.080900975 0.079007834 0.030577697
0.080938749 0.078930154 0.030063882
0.080906212 0.078851163 0.029564377
0.080843389 0.078771777 0.029070834
0.080789059 0.078692473 0.028575659
0.080746733 0.078613348 0.028078098
0.080719508 0.078534544 0.027577447
0.080694117 0.078455679 0.02707638
0.080614388 0.07837595 0.026586281
0.080587208 0.078297123 0.026085675
0.080541499 0.078217939 0.025588784
0.080447517 0.078137949 0.025101613
0.08034952 0.078057818 0.024615224
0.080197223 0.07797689 0.024139807
0.079997331 0.077895038 0.023674013
0.079812393 0.077813454 0.023205224
0.07963293 0.077731967 0.022735273
0.079462081 0.077650629 0.022263594
0.079339318 0.077570051 0.021782279
0.079196855 0.077489272 0.021304911
0.079066962 0.077408567 0.020824961
0.078966245 0.077328421 0.020339157
0.078864954 0.077248283 0.01985348
0.078756317 0.077168047 0.0193692
0.078643546 0.07708776 0.018885858
0.07853245 0.07700748 0.018402128
0.078407064 0.076926835 0.017921332
0.078249075 0.076845713 0.017447032
0.078072444 0.076764293 0.016976617
0.077793129 0.07668113 0.016526865
0.077400841 0.07659588 0.016099896
0.076934092 0.076509319 0.015688067
0.076617636 0.076425448 0.015245754
0.07162872 0.075946555 0.013722368
0.071285218 0.075862184 0.013285551
0.071116641 0.075780921 0.012813449
0.071005397 0.075700618 0.012329786
0.07086166 0.075619698 0.011852661
0.070604682 0.075536922 0.011398318
0.070281774 0.075452827 0.01095739
0.069964126 0.075368963 0.010515429
0.069657259 0.075285293 0.010071199
0.069319211 0.075200997 0.0096333139
0.069015063 0.075117275 0.0091886083
0.068710595 0.075033605 0.0087438961
0.068421155 0.074950203 0.0082962234
0.068165392 0.074867345 0.0078416457
0.067960054 0.074785352 0.0073770182
0.056003544 0.073714785 0.0042235926
0.05624634 0.073640652 0.0036683665
0.056480788 0.073566288 0.0031149327
0.056549758 0.073489189 0.0025947846
0.056688953 0.073413238 0.0020605449
0.056972861 0.073339798 0.0014971613
0.0572115 0.073265582 0.00094278739
0.057358336 0.073189802 0.00040691587
0.057441156 0.073112875 -0.00011595582
0.057568014 0.073036753 -0.00064760557
0.057636414 0.072959624 -0.0011676212
0.057623241 0.072881021 -0.0016711308
0.057556435 0.072801478 -0.0021638575
0.057510462 0.072722249 -0.0026606063
0.057486858 0.072642326 -0.0031659342
0.057409085 0.072560593 -0.0036626658
0.057233348 0.072476357 -0.0041420651
0.056969222 0.072389968 -0.0046056495
0.056663565 0.07230252 -0.0050619212
0.056372005 0.072215416 -0.0055206534
0.05608226 0.072128445 -0.0059797568
0.055808045 0.072041765 -0.0064415727
0.055523131 0.071954802 -0.0069015115
0.05516436 0.071866095 -0.007348259
0.054820992 0.071777724 -0.0077978862
0.05441219 0.071687609 -0.0082357787
0.053976491 0.071596891 -0.0086688697
0.053445112 0.071503788 -0.0090850536
0.052802254 0.071407959 -0.0094813695
0.052305084 0.071315683 -0.0099035399
0.051816266 0.071223579 -0.010327313
0.051212613 0.071128629 -0.010730625
0.050723165 0.071036674 -0.011154199
0.050286155 0.070945919 -0.011587085
0.049917795 0.070856854 -0.01203222
0.049625896 0.070769794 -0.01249086
0.049334694 0.070682652 -0.012949689
0.049180556 0.070599064 -0.013432886
0.049116105 0.070517644 -0.013932006
0.049003046 0.070435122 -0.014422449
0.048908375 0.070352949 -0.01491618
0.04883036 0.070271254 -0.015412874
0.048736926 0.070189111 -0.015906818
0.048610523 0.070106208 -0.016394865
0.048473522 0.070023 -0.016881119
0.048237085 0.069937289 -0.017349686
0.047942068 0.069850065 -0.017807845
0.047707524 0.069764465 -0.018276745
0.047471851 0.069678828 -0.01874538
0.047166839 0.069591321 -0.019201744
0.046833649 0.069503255 -0.019653114
0.046566814 0.069416799 -0.020116203
0.046290495 0.069329992 -0.020577651
0.045976125 0.069242425 -0.021032363
0.045588139 0.069152847 -0.021473993
0.045191437 0.06906312 -0.021914065
0.044796534 0.068973504 -0.022354484
0.036809456 0.068134673 -0.025019776
0.036118034 0.068037562 -0.025407491
0.035500363 0.067942314 -0.025808329
0.035000648 0.067849934 -0.026230069
0.034664325 0.067761756 -0.026680877
0.034382399 0.06767489 -0.027141299
0.034106191 0.06758821 -0.027602831
0.033847664 0.067501932 -0.028067429
0.033634406 0.067416854 -0.028540108
0.03340533 0.067331351 -0.029009957
0.033111777 0.067244142 -0.029468376
0.032768257 0.067155831 -0.029917857
0.032412659 0.067067109 -0.030365249
0.031938352 0.066975348 -0.030791547
0.074327439 0.080976754 0.040932748
0.075168274 0.080912724 0.040256891
0.075980499 0.08084809 0.039586756
0.076573506 0.080779843 0.038960874
0.077133089 0.080711037 0.038341794
0.077713169 0.080642536 0.037718549
0.078201324 0.080572546 0.037113801
0.078649372 0.080501832 0.036517214
0.0790684 0.080430597 0.035926491
0.079364978 0.08035738 0.035360422
0.07969477 0.080284655 0.034787726
0.080030292 0.080212139 0.034213778
0.080335103 0.080138914 0.033646125
0.080567285 0.080064617 0.033093084
0.080750421 0.079989441 0.03255
0.080903254 0.07991372 0.032012969
0.081060752 0.079838112 0.031474981
0.08111757 0.079760812 0.030957405
0.081174128 0.079683498 0.030439826
0.081211574 0.079605967 0.029926091
0.081189372 0.079527333 0.029424354
0.08115001 0.07944838 0.028926255
0.081097394 0.079369292 0.028430674
0.081045911 0.079290152 0.027934941
0.081034578 0.079211608 0.027431073
0.080988415 0.079132594 0.026934143
0.080892794 0.079052784 0.02644733
0.080878921 0.078974277 0.025944002
0.080827445 0.078895159 0.025448274
0.080749996 0.078815632 0.024957635
0.080647178 0.078735568 0.024472263
0.080468364 0.078654349 0.02400218
0.080254801 0.078572445 0.023539159
0.080069356 0.078491092 0.023070466
0.079896457 0.07840994 0.022599153
0.079722531 0.078328729 0.022128131
0.079561912 0.078247733 0.02165442
0.079407632 0.07816691 0.021179404
0.07928507 0.078086615 0.020697985
0.07918743 0.078006722 0.020211481
0.079052784 0.077926196 0.019732565
0.078943595 0.07784608 0.019248402
0.078834303 0.077766001 0.018764285
0.07872624 0.077685967 0.018279955
0.078594454 0.077605493 0.017800393
0.078424871 0.077524371 0.017328456
0.078251779 0.077443145 0.016857319
0.078026034 0.077361055 0.016396724
0.077649355 0.077276513 0.015966581
0.077150695 0.077189833 0.015561
0.076765746 0.077105112 0.015132582
0.070978515 0.076538116 0.013263895
0.070671506 0.076454632 0.012819704
0.070505492 0.076373629 0.012347053
0.07028719 0.07629168 0.011884999
0.070056081 0.0762095 0.011425507
0.06982854 0.076127432 0.010965264
0.06960912 0.076045521 0.010503367
0.069363914 0.075963095 0.010046733
0.069085963 0.075880155 0.009596657
0.068819277 0.075797401 0.0091443695
0.068583138 0.075715095 0.0086858626
0.068219647 0.075630836 0.0082530892
0.05343619 0.074669704 0.0066584796
0.053310294 0.074586838 0.0061702551
0.053108096 0.07450214 0.0056955805
0.05305418 0.074421123 0.0051946114
0.053482886 0.074352004 0.0046079499
0.05494754 0.074308708 0.0038372246
0.055462163 0.074241757 0.003235202
0.055841338 0.074170157 0.0026532703
0.055981714 0.074094191 0.0021187726
0.056188043 0.07401944 0.0015708867
0.056391776 0.073944665 0.0010236145
0.056574933 0.073869497 0.00048047205
0.056682155 0.073793054 -4.7277892e-05
0.056815159 0.073716998 -0.00058028905
0.056923259 0.073640443 -0.0011086992
0.056918625 0.073560558 -0.001618528
0.056904141 0.073480509 -0.0021265403
0.056857277 0.0733997 -0.0026287863
0.056869421 0.073320299 -0.0031414768
0.056849316 0.07323999 -0.0036484578
0.056722514 0.073157169 -0.0041365554
0.056546975 0.073073126 -0.0046159183
0.05633999 0.072988205 -0.005089717
0.056111153 0.072902843 -0.0055596051
0.055909172 0.07281816 -0.0060343128
0.055670246 0.072732478 -0.0065024276
0.055388719 0.072645843 -0.006963084
0.055087894 0.072558612 -0.0074202251
0.054773584 0.072471105 -0.0078749126
0.054379735 0.072381675 -0.0083155613
0.053957932 0.072291397 -0.0087511819
0.053385559 0.072197579 -0.0091601275
0.05277646 0.072102711 -0.0095625184
0.052374277 0.072012976 -0.010001643
0.051955197 0.071922928 -0.010437778
0.051257491 0.071825877 -0.010824422
0.050661832 0.071731314 -0.011229258
0.05018732 0.071639873 -0.011655561
0.04973048 0.07154876 -0.012084933
0.049244136 0.071457013 -0.012509201
0.048836861 0.071367145 -0.012947347
0.048588458 0.071281329 -0.013413839
0.048418861 0.071197428 -0.0138943
0.048274815 0.071114056 -0.014379266
0.048267338 0.07103426 -0.014888477
0.048239555 0.070953853 -0.015394187
0.048264448 0.070874691 -0.015909109
0.048221961 0.070793949 -0.01641215
0.048064455 0.070710301 -0.016894778
0.047794547 0.070623882 -0.017357422
0.047565129 0.070538513 -0.017827189
0.047337562 0.07045313 -0.018297398
0.04710646 0.070367672 -0.01876685
0.04685818 0.070281878 -0.019233406
0.04661746 0.070196182 -0.019701164
0.04640935 0.070111275 -0.020174816
0.046158805 0.07002531 -0.020640936
0.045832422 0.069937482 -0.02109346
0.045472324 0.06984894 -0.021540042
0.045099508 0.06975995 -0.021984443
0.036115084 0.068819456 -0.024983928
0.035327371 0.068720147 -0.025354644
0.034807034 0.068627521 -0.025772722
0.03448223 0.068539731 -0.026225571
0.034262482 0.068454556 -0.026697135
0.033982933 0.068367854 -0.02715807
0.033737328 0.068282083 -0.027625114
0.033510514 0.068196721 -0.028095378
0.033304635 0.068111919 -0.028569365
0.033100992 0.068027101 -0.029043764
0.032832619 0.067940749 -0.029506635
0.032557543 0.067854218 -0.029968346
0.032163095 0.067764796 -0.030408867
0.031733371 0.067674354 -0.030843087
0.074358582 0.081650451 0.040843599
0.075336315 0.081588112 0.040140089
0.076052643 0.081521578 0.039489392
0.076671503 0.081453554 0.038858332
0.077443741 0.081387877 0.038196318
0.07804215 0.081319451 0.037569389
0.078571767 0.081249975 0.036956321
0.07902021 0.081179097 0.036359623
0.079384334 0.081106916 0.035779998
0.079692274 0.081033774 0.035211641
0.079996824 0.080960475 0.034644064
0.080314875 0.080887593 0.034073684
0.080590084 0.080813892 0.033511959
0.080806457 0.080739222 0.032962147
0.081004083 0.08066427 0.032416083
0.081177376 0.080588907 0.031874925
0.081296712 0.080512732 0.031344716
0.081376091 0.080435887 0.030822469
0.081479035 0.080359474 0.030295519
0.081502683 0.08028166 0.029784644
0.0814633 0.080202863 0.029286424
0.081422806 0.080124125 0.028788365
0.081368968 0.08004503 0.02829311
0.081339203 0.079966426 0.027792977
0.081320763 0.079888009 0.027290445
0.081287004 0.079809286 0.026791126
0.081226863 0.079730138 0.026297158
0.081189722 0.07965143 0.025798419
0.081118688 0.079572149 0.025306595
0.081053704 0.079492956 0.024813561
0.080948807 0.079413116 0.024328567
0.080764845 0.079331987 0.023859493
0.080548331 0.079250298 0.023397043
0.080337003 0.079168655 0.022933569
0.080138154 0.079087354 0.022467515
0.079956099 0.079006195 0.021998122
0.079777241 0.07892517 0.02152798
0.079625636 0.078844599 0.021052454
0.07949762 0.078764297 0.020572091
0.079383723 0.078684345 0.020088864
0.079255655 0.07860408 0.019608609
0.079140902 0.078524075 0.019125538
0.07902316 0.078444056 0.018643163
0.078914084 0.078364149 0.018159
0.078769416 0.078283675 0.01768204
0.078616053 0.078202948 0.017206883
0.078453556 0.078122176 0.016733462
0.078217193 0.078040145 0.01627495
0.077896044 0.077956878 0.015833648
0.077417597 0.077870958 0.015423995
0.076921456 0.077784784 0.015017992
0.069319203 0.076957911 0.011996686
0.069277436 0.076879054 0.011498958
0.069314018 0.076801561 0.010985347
0.069167845 0.07672108 0.010508741
0.068982519 0.076639898 0.010039969
0.068795405 0.076558739 0.0095715486
0.054015331 0.075536795 0.0074916119
0.053711489 0.075449608 0.0070349467
0.053496007 0.075364709 0.0065626497
0.053293385 0.075280063 0.0060880366
0.053070486 0.075194955 0.0056170165
0.052904747 0.075111218 0.0051357928
0.052913532 0.07503178 0.0046236878
0.053107299 0.074956849 0.0040787375
0.053961303 0.074898198 0.0034165396
0.054487877 0.074831478 0.0028125271
0.054835074 0.074760281 0.0022402455
0.055077702 0.074686624 0.0016865868
0.055472914 0.074616723 0.0011058443
0.055797346 0.074545018 0.00053771836
0.055999096 0.074470282 -8.6356249e-06
0.056065138 0.074392334 -0.00053102267
0.056188446 0.074315667 -0.0010634677
0.056252796 0.07423763 -0.0015854593
0.056309536 0.074159309 -0.0021061401
0.056284491 0.074079074 -0.0026122299
0.056240004 0.073998332 -0.003114965
0.056235373 0.073918559 -0.0036247168
0.056192197 0.073837772 -0.0041276473
0.056099195 0.073755935 -0.0046216915
0.055931743 0.073672086 -0.0051025189
0.055742804 0.07358785 -0.0055796271
0.055553846 0.073503494 -0.006056631
0.055380326 0.073419645 -0.0065363939
0.055166841 0.073334776 -0.0070090774
0.054945529 0.073249683 -0.0074804169
0.054663867 0.073163062 -0.0079410085
0.054292176 0.073074289 -0.0083856015
0.053810254 0.072982818 -0.00881055
0.053276312 0.072890013 -0.0092263632
0.052812655 0.07279902 -0.0096546141
0.05245363 0.072710559 -0.010101501
0.052093439 0.072622068 -0.010548121
0.05146097 0.072526902 -0.010946479
0.050817598 0.072431393 -0.011342803
0.050290365 0.072338827 -0.011759807
0.049804669 0.072247282 -0.012184192
0.049242571 0.072153769 -0.012594956
0.048611429 0.072058663 -0.01299351
0.048100527 0.071966484 -0.013413389
0.047759198 0.071878426 -0.013863439
0.047583975 0.071794488 -0.014342809
0.047648657 0.071716353 -0.014864897
0.047684211 0.071637638 -0.015381761
0.047695942 0.07155823 -0.01589448
0.047638994 0.071477138 -0.01639495
0.047424078 0.071392216 -0.016867379
0.047225937 0.071307786 -0.017342752
0.047086593 0.071224682 -0.017828636
0.046938721 0.071141444 -0.018312981
0.046761408 0.071057379 -0.018792072
0.046599545 0.070973746 -0.019273922
0.046428632 0.070889868 -0.019754205
0.046239778 0.070805654 -0.020231282
0.045968071 0.070719302 -0.02069358
0.045624137 0.070631228 -0.021143122
0.045287818 0.070543289 -0.021593971
0.034573749 0.069483705 -0.024797866
0.034406614 0.069399983 -0.025278702
0.034168389 0.069314443 -0.025747027
0.033975948 0.069230065 -0.026223376
0.033765178 0.069145225 -0.026696647
0.033534754 0.069059908 -0.027166225
0.033269137 0.068973772 -0.027629701
0.033068281 0.068889178 -0.028104583
0.032895904 0.068805255 -0.028584596
0.032713998 0.068721138 -0.029062867
0.032495834 0.068636194 -0.029534791
0.032210127 0.068549544 -0.029994601
0.031813897 0.068460196 -0.030434873
0.031451367 0.068371601 -0.030881096
0.074483998 0.082325444 0.040735412
0.075254925 0.082259424 0.040073711
0.076065652 0.08219409 0.039403949
0.076867811 0.082128592 0.038735937
0.077819675 0.082065471 0.038037673
0.078378186 0.081996121 0.03741882
0.078881845 0.081926048 0.036811039
0.079321764 0.08185482 0.036216084
0.079616979 0.081781492 0.03565032
0.079956919 0.081708707 0.035075597
0.080246821 0.081635244 0.034510903
0.080532447 0.081561685 0.033947088
0.080797508 0.08148776 0.033387441
0.081027426 0.081413344 0.032834895
0.081210144 0.081338115 0.032291859
0.081378728 0.081262708 0.031751659
0.08152841 0.081187055 0.031215269
0.081669025 0.081111215 0.030680729
0.081773765 0.081034802 0.030153425
0.081765197 0.080956616 0.029648952
0.081730634 0.080878049 0.029149743
0.081707157 0.080799706 0.028648291
0.081670716 0.080721058 0.028149536
0.081640884 0.080642566 0.027649354
0.081615008 0.080564119 0.027148394
0.081572235 0.080485411 0.026650842
0.08155039 0.080407061 0.026149061
0.081507407 0.080328301 0.025651559
0.081456274 0.080249511 0.02515568
0.081363708 0.080170013 0.024668159
0.081233136 0.080089904 0.024188327
0.08105237 0.08000911 0.023718672
0.080845691 0.07992778 0.023254145
0.080617994 0.079846226 0.022794005
0.080418251 0.079765022 0.022328068
0.080239117 0.079684205 0.021858014
0.080032662 0.07960292 0.021393569
0.07986749 0.079522349 0.020920599
0.079709388 0.079441793 0.020446381
0.079569004 0.07936161 0.019968582
0.079453066 0.079281747 0.019485731
0.079347216 0.079202026 0.019000942
0.079226121 0.079122134 0.018519107
0.079112954 0.079042241 0.018035812
0.078965977 0.078962028 0.017559305
0.078812331 0.078881517 0.017084146
0.078637138 0.078800693 0.016613265
0.078399271 0.07871899 0.01615507
0.078065313 0.078635707 0.015716294
0.077659175 0.078551337 0.01529213
0.077171504 0.0784657 0.014884323
0.053975258 0.076229133 0.0074135633
0.053605359 0.07614053 0.0069685909
0.053297702 0.076053441 0.0065126563
0.053066667 0.075968273 0.0060429745
0.052803256 0.075882196 0.0055791498
0.052545764 0.075796343 0.0051143048
0.052360743 0.075712323 0.0046364642
0.052304599 0.075631373 0.0041358066
0.052563217 0.075558029 0.0035793716
0.053129785 0.075492188 0.0029682019
0.053861149 0.075430274 0.0023278308
0.0542472 0.075360037 0.0017487456
0.054554056 0.075287953 0.0011837203
0.054811101 0.075214505 0.0006275195
0.055161659 0.075143501 5.4740918e-05
0.055256132 0.075066112 -0.00047268503
0.055307917 0.074987762 -0.00099245575
0.055479087 0.074912325 -0.0015334028
0.055544786 0.074834362 -0.0020557069
0.055644136 0.074757211 -0.002583863
0.055630125 0.074677192 -0.003092041
0.055651981 0.074598163 -0.0036064177
0.055572361 0.074516609 -0.0041029463
0.055497717 0.07443516 -0.0046002562
0.055427801 0.074353941 -0.005098463
0.05528846 0.074270956 -0.0055843508
0.055101193 0.074186765 -0.0060617602
0.054959502 0.074103758 -0.0065471684
0.054855086 0.07402157 -0.0070392373
0.054664221 0.073937416 -0.0075159399
0.054427262 0.073852025 -0.0079845106
0.054093421 0.073764279 -0.0084359208
0.053673692 0.073674545 -0.008871993
0.053254627 0.073584758 -0.0093081594
0.052864566 0.073495679 -0.0097495858
0.052501176 0.073407255 -0.010195707
0.052100584 0.073317923 -0.010635211
0.051571906 0.073225558 -0.011051977
0.051019169 0.073132515 -0.011464563
0.050438732 0.073038869 -0.011872093
0.049897313 0.072946146 -0.012286688
0.049368393 0.072853662 -0.012703399
0.048499547 0.072752967 -0.013059815
0.047872465 0.072658226 -0.013459192
0.047451347 0.07256835 -0.013894963
0.047146522 0.072481439 -0.014351564
0.047024641 0.072398834 -0.014840491
0.046985868 0.07231833 -0.01534423
0.046915479 0.072237015 -0.015842268
0.046894256 0.072156914 -0.016349111
0.046793215 0.072074875 -0.016841773
0.04666305 0.071991988 -0.0173293
0.046579368 0.071910374 -0.017825043
0.046495467 0.071828753 -0.01832075
0.046372909 0.071746178 -0.018809596
0.046258196 0.071663775 -0.019299865
0.04612625 0.071580984 -0.019787041
0.04596214 0.071497381 -0.020268472
0.045679271 0.071410947 -0.020728962
0.045332316 0.071323007 -0.021177936
0.034072388 0.070174187 -0.024796491
0.033781186 0.070087478 -0.025255362
0.033547916 0.070002265 -0.025724623
0.033400603 0.069919124 -0.026209021
0.033226985 0.06983529 -0.026688825
0.032998975 0.069750123 -0.027158994
0.032785416 0.069665328 -0.027631721
0.032613352 0.069581591 -0.028111748
0.032463159 0.069498308 -0.028595705
0.032344766 0.069415867 -0.029085301
0.032121867 0.069330849 -0.029556317
0.031811111 0.069243729 -0.030011816
0.031491999 0.069156349 -0.030465683
0.031266801 0.069071345 -0.030936405
0.074399248 0.082997195 0.040669587
0.075048916 0.082929008 0.040032376
0.076145232 0.082867555 0.039305069
0.07729499 0.082807004 0.038566962
0.078100517 0.082741141 0.037898302
0.078615159 0.082670957 0.037288282
0.079123609 0.08260075 0.036679551
0.079499707 0.082528405 0.036097474
0.07978487 0.082454771 0.035533827
0.080130026 0.082382008 0.034958001
0.080427915 0.082308613 0.034391731
0.080685772 0.082234569 0.033833511
0.080963008 0.082160793 0.033271391
0.081187047 0.082086325 0.03272
0.081386492 0.082011312 0.032173604
0.081568711 0.081936128 0.031630717
0.081740849 0.081860863 0.031089747
0.081916399 0.081785455 0.030548144
0.081997313 0.081708759 0.030025661
0.082016893 0.081631146 0.029515531
0.082004584 0.081553094 0.029011792
0.081984401 0.081474878 0.028509704
0.081952699 0.081396468 0.028009864
0.081921667 0.081318021 0.027509931
0.081890196 0.081239603 0.027010158
0.08183255 0.081160791 0.026515611
0.081812501 0.08108256 0.026013471
0.081777714 0.081004113 0.025514299
0.081734397 0.080925554 0.025016863
0.081619009 0.080845878 0.024533955
0.081469618 0.080765754 0.02405782
0.081339687 0.080685921 0.023577916
0.081155479 0.080605157 0.023108823
0.080963202 0.080524385 0.022641383
0.080769271 0.080443464 0.022174377
0.080535144 0.080362059 0.02171536
0.080305785 0.080280669 0.021255486
0.080114953 0.080199949 0.020787789
0.079926334 0.080119133 0.020319657
0.079761997 0.080038697 0.019846644
0.079634346 0.079958826 0.019366145
0.079544783 0.079879567 0.018878102
0.079445876 0.079800181 0.018391753
0.07930848 0.079720251 0.017913312
0.079165056 0.079640113 0.017436089
0.079000205 0.079559721 0.016963098
0.078793421 0.079478703 0.016498612
0.078565054 0.079397283 0.016038541
0.078244507 0.079314575 0.015597044
0.077843152 0.079230651 0.015171744
0.077347219 0.07914523 0.014765608
0.053373598 0.07682845 0.0069245286
0.052954771 0.076738857 0.0064882068
0.052625403 0.076651379 0.0060360231
0.052314859 0.076564446 0.0055804853
0.052014168 0.076477699 0.0051232153
0.05169604 0.076390453 0.0046690083
0.051527597 0.076306969 0.0041882307
0.051518027 0.076227151 0.0036793875
0.051769145 0.076153643 0.0031241986
0.052368257 0.076088376 0.002507356
0.053204641 0.076028898 0.0018484062
0.053497639 0.075956307 0.0012858249
0.053824231 0.075884633 0.00071724923
0.054206654 0.075814292 0.00013887839
0.054421298 0.075739898 -0.00040989582
0.054472525 0.07566157 -0.00092953799
0.054586474 0.075584732 -0.0014604065
0.054722805 0.075508431 -0.0019951437
0.054878853 0.075432681 -0.0025334535
0.054971527 0.075355321 -0.003060526
0.055002175 0.075276464 -0.0035765653
0.054953303 0.07519576 -0.0040784422
0.054872293 0.075114287 -0.0045746919
0.054751102 0.075031884 -0.0050638355
0.054639764 0.074949637 -0.0055547147
0.05460066 0.074869119 -0.0060583563
0.054560274 0.0747886 -0.0065617668
0.054463953 0.074706763 -0.0070553222
0.054333802 0.074624084 -0.0075428644
0.054119524 0.074539438 -0.0080154128
0.053849678 0.074453384 -0.0084782038
0.053580672 0.074367434 -0.0089411382
0.053225007 0.074279323 -0.0093886433
0.052858327 0.074191041 -0.0098341741
0.052450392 0.074101716 -0.010272425
0.052038621 0.074012227 -0.010710001
0.051602442 0.073922217 -0.011143244
0.051154528 0.073831998 -0.011574436
0.050579853 0.073738657 -0.01198316
0.049925979 0.073643416 -0.012377713
0.049315147 0.073549181 -0.012780023
0.048572708 0.073451921 -0.013158944
0.047976106 0.073358007 -0.013563762
0.04749056 0.073266841 -0.013988264
0.046993889 0.073175415 -0.014410715
0.046623226 0.073086962 -0.014855639
0.046225026 0.072997853 -0.01529566
0.046087813 0.07291498 -0.01578192
0.046100404 0.072835825 -0.016294707
0.046215829 0.072759032 -0.016825831
0.046183612 0.072678655 -0.01733068
0.046127267 0.07259775 -0.017831307
0.046059702 0.07251659 -0.018329915
0.045963816 0.07243482 -0.018823545
0.045860555 0.07235276 -0.019315885
0.045684598 0.072268955 -0.019795205
0.045455653 0.072183922 -0.020265177
0.045191821 0.072098121 -0.020729061
0.032078624 0.070908755 -0.024019947
0.031909358 0.070825107 -0.024500448
0.031876385 0.07074479 -0.025005246
0.032859474 0.070688821 -0.025690231
0.032961346 0.070611738 -0.026218949
0.03282949 0.070528947 -0.026706086
0.032611098 0.070444196 -0.02717798
0.032356344 0.07035853 -0.027643412
0.032176103 0.070274726 -0.028122034
0.03209639 0.070193186 -0.028618596
0.032015476 0.070111729 -0.029114809
0.031842533 0.070028029 -0.029594736
0.031635024 0.06994354 -0.030068541
0.074268475 0.083668441 0.040613089
0.074963011 0.08360061 0.039966844
0.076487318 0.083544783 0.039153297
0.077586904 0.083482884 0.038425345
0.078227006 0.083414301 0.03779003
0.07873445 0.083343811 0.037181545
0.079255395 0.083273478 0.036570281
0.079600148 0.083200619 0.035994545
0.079924293 0.083127528 0.03542297
0.080280617 0.083054848 0.034844957
0.080582812 0.0829814 0.034277793
0.08083465 0.082907185 0.033720847
0.081101842 0.082833268 0.033160731
0.08137285 0.082759418 0.0325999
0.081603497 0.082684867 0.032047201
0.081792958 0.082609743 0.031502817
0.081976034 0.082534552 0.030959632
0.082160875 0.082459547 0.030416191
0.082238048 0.082382798 0.029894479
0.082290925 0.082305685 0.029377576
0.082312621 0.082228206 0.028866956
0.082282357 0.082150035 0.028366918
0.082236782 0.082071461 0.02786999
0.082182072 0.081992902 0.027374795
0.082117066 0.081914105 0.026881712
0.082093365 0.081835955 0.026380274
0.082085781 0.081758052 0.025875559
0.082040176 0.081679612 0.025378611
0.081998177 0.081601165 0.024880858
0.081920639 0.081522234 0.024390308
0.081788681 0.081442438 0.023910688
0.081660755 0.081362873 0.023430267
0.081523739 0.081283078 0.022951739
0.081381604 0.08120317 0.022474255
0.08117938 0.081122391 0.022008799
0.080914207 0.081040785 0.021556025
0.080647558 0.080959149 0.021103594
0.080393657 0.080877595 0.020648617
0.080162264 0.08079654 0.020189077
0.079973333 0.080715954 0.019721035
0.079825968 0.080636017 0.019244488
0.079708919 0.080556467 0.018761946
0.079604574 0.080477171 0.018276736
0.079482839 0.080397576 0.017795112
0.079331309 0.080317572 0.017319504
0.079160213 0.080237314 0.016847814
0.078971878 0.080156744 0.01637955
0.078744203 0.080075689 0.015919328
0.078451008 0.079993658 0.015472225
0.078013711 0.079909459 0.015054178
0.077485643 0.079824008 0.014654538
0.052580703 0.077423759 0.006469266
0.052087326 0.077332519 0.0060460824
0.051710974 0.077244163 0.0056021158
0.051374793 0.077156626 0.0051511559
0.051108591 0.077070832 0.0046877507
0.050972305 0.076988183 0.0042012455
0.050874177 0.076906323 0.0037080345
0.050855018 0.076826371 0.0032007848
0.050914742 0.076748282 0.0026795967
0.051246025 0.076676652 0.0021102366
0.052307025 0.076622233 0.001411536
0.052772541 0.076553822 0.00081838021
0.05320482 0.076484546 0.00023113188
0.053526472 0.076412715 -0.00033652887
0.053739849 0.076338299 -0.00088497717
0.053888634 0.076262243 -0.0014220569
0.054072876 0.076187149 -0.0019652746
0.05418282 0.076110236 -0.0024954588
0.054278042 0.076032944 -0.0030228612
0.054310925 0.075954273 -0.0035393441
0.054282565 0.075874113 -0.0040449607
0.054217912 0.075793102 -0.0045440984
0.054185413 0.075712845 -0.0050489609
0.05415637 0.075632632 -0.0055544698
0.054111205 0.075552031 -0.0060570366
0.054103807 0.075472377 -0.0065664505
0.054050207 0.075391628 -0.0070674531
0.053960599 0.075310007 -0.007562195
0.05381145 0.075227007 -0.0080464762
0.05362777 0.075143151 -0.0085245371
0.053410519 0.075058468 -0.0089966012
0.053106379 0.074971788 -0.0094533386
0.052736469 0.074883513 -0.0098983375
0.052300222 0.074793696 -0.010331642
0.051897518 0.074704684 -0.010770828
0.051562693 0.074617289 -0.011222091
0.051192585 0.074529 -0.011667066
0.050686687 0.074437536 -0.012088032
0.050006218 0.074341893 -0.012478031
0.049231332 0.074244075 -0.012851261
0.048625544 0.074150249 -0.013254483
0.048166744 0.074059866 -0.01368375
0.047735304 0.073970199 -0.014117905
0.047181033 0.073877528 -0.014530317
0.046459187 0.073780984 -0.014912874
0.045741137 0.073684491 -0.01529629
0.045259394 0.073593609 -0.015721483
0.045045685 0.073509008 -0.016194163
0.045362212 0.07343702 -0.016760971
0.045668516 0.073364757 -0.017325854
0.045658164 0.073285088 -0.017834645
0.045592632 0.073204018 -0.018333646
0.045421511 0.073120475 -0.01881393
0.045216899 0.073036097 -0.01928829
0.045072842 0.072953179 -0.019773321
0.033615392 0.071886897 -0.022848278
0.033018105 0.071793318 -0.023253048
0.032588765 0.071703643 -0.023687558
0.032122046 0.071613081 -0.024115412
0.031760585 0.071525082 -0.024562001
0.031387784 0.071436673 -0.025006479
0.031079168 0.071349964 -0.025462378
0.074496835 0.084344834 0.040484149
0.075427771 0.084279962 0.039790262
0.076772228 0.084220849 0.039013047
0.077700503 0.084156021 0.038319677
0.078290612 0.084086448 0.037694477
0.07882528 0.084016226 0.037080523
0.079319157 0.083945252 0.036474753
0.079679459 0.083872542 0.035895906
0.08006189 0.083800152 0.035312563
0.080448218 0.083727762 0.03472849
0.080752745 0.083654284 0.034160905
0.081005909 0.083580032 0.033603638
0.081313461 0.083506584 0.033035424
0.081634417 0.08343333 0.032464508
0.081873842 0.083358914 0.031910017
0.082067341 0.083283871 0.031364806
0.082252763 0.08320877 0.030821247
0.082402483 0.083133109 0.030284846
0.082506485 0.08305686 0.029757682
0.082550623 0.082979791 0.029242499
0.082540803 0.082901902 0.028738329
0.082505278 0.082823694 0.028239286
0.08247368 0.082745597 0.027739441
0.082435489 0.082667328 0.027240902
0.082382932 0.082588866 0.026745373
0.082363829 0.082510971 0.026242957
0.082330771 0.082432747 0.025743483
0.082274489 0.082354285 0.025248604
0.082238138 0.082276121 0.024749732
0.082196228 0.082197763 0.024251968
0.082128465 0.082119137 0.023759449
0.082031138 0.082040079 0.023272833
0.08190573 0.081960641 0.022791943
0.081756108 0.081880853 0.022315888
0.081568755 0.08180061 0.021847477
0.081360862 0.081720062 0.021383181
0.081046581 0.081637993 0.020940293
0.08073438 0.081555896 0.020497043
0.08046367 0.081474476 0.020045452
0.080224589 0.081393443 0.019587394
0.080018312 0.081312895 0.019122781
0.079871863 0.081233241 0.018646065
0.079751953 0.08115381 0.018164065
0.079634197 0.081074476 0.017681587
0.079480514 0.080994688 0.017206302
0.079308957 0.080914557 0.016734757
0.079141065 0.080834553 0.016262401
0.078925461 0.080753811 0.015799709
0.078617536 0.080671906 0.015355506
0.078231268 0.080588862 0.01492716
0.077709556 0.080503851 0.014526182
0.051688552 0.078017265 0.0060314299
0.05118243 0.077925935 0.0056104865
0.05083058 0.077838324 0.0051621776
0.050610762 0.07775376 0.0046905121
0.050466761 0.077670902 0.0042053796
0.050335407 0.077588364 0.0037179505
0.050249573 0.077506974 0.003222628
0.050213728 0.077426672 0.0027182512
0.05033328 0.077350043 0.0021864548
0.050721418 0.077279612 0.001607039
0.051648375 0.077221856 0.00093211548
0.052149706 0.077154219 0.00033265204
0.052587464 0.077084944 -0.00025554033
0.052756418 0.077009469 -0.00079616107
0.05296082 0.076934867 -0.0013430142
0.053261083 0.076862395 -0.0019067964
0.053405382 0.076786295 -0.0024430326
0.053565457 0.076710626 -0.0029820288
0.053631168 0.076632753 -0.0035043431
0.053653479 0.076553829 -0.0040188911
0.053638157 0.076473966 -0.0045268959
0.053669106 0.076395258 -0.0050429557
0.053660695 0.076315604 -0.0055521643
0.053599712 0.076234825 -0.0060519148
0.053595711 0.076155201 -0.0065619093
0.053609874 0.076076157 -0.0070750276
0.053582519 0.075996064 -0.0075808386
0.053471945 0.075914033 -0.0080717998
0.053318307 0.075830951 -0.0085552335
0.053110927 0.075746745 -0.0090291705
0.052827265 0.075660616 -0.0094895335
0.052477341 0.07557299 -0.0099381674
0.052131347 0.075485431 -0.010387507
0.05178991 0.075398013 -0.010837587
0.051506605 0.075311951 -0.011298062
0.051151589 0.075224183 -0.011745705
0.050675943 0.075133562 -0.012172093
0.050023355 0.075038932 -0.012567041
0.049318854 0.074942976 -0.012952923
0.048744421 0.074850179 -0.01336174
0.048302319 0.074760318 -0.013794009
0.0479086 0.074671745 -0.014234831
0.047200624 0.074575715 -0.014620045
0.046684735 0.074484184 -0.015039236
0.044918388 0.074283965 -0.015747562
0.044518307 0.074195236 -0.016187295
0.043869063 0.074100591 -0.016582819
0.04306132 0.074002244 -0.016950384
0.042987168 0.073921025 -0.017447891
0.043732721 0.073858976 -0.018090615
0.035463244 0.072871298 -0.021731505
0.034929264 0.072779223 -0.022147531
0.03422416 0.072683334 -0.02253319
0.033567 0.072588533 -0.022927416
0.033075061 0.072497539 -0.023350794
0.032647088 0.072408102 -0.023785612
0.032134034 0.072316714 -0.024205366
0.031708982 0.072227322 -0.024640709
0.031269457 0.072137587 -0.025073403
0.030810468 0.072047412 -0.025502674
0.075865082 0.084958434 0.039619293
0.076837458 0.084893711 0.038917068
0.077708393 0.08482758 0.038235344
0.07824789 0.084757157 0.037620388
0.078851163 0.084687494 0.036992583
0.079372302 0.084616765 0.036381338
0.079805218 0.084544927 0.035787851
0.080246791 0.084473252 0.035192646
0.080649547 0.084400922 0.034605242
0.080968514 0.084327571 0.034034722
0.081257716 0.084253773 0.033470228
0.08156988 0.084180295 0.032901086
0.081904233 0.084107108 0.032327507
0.082154408 0.084032878 0.031770825
0.08235687 0.083957925 0.031223807
0.082504667 0.083882309 0.030687824
0.082671672 0.083806902 0.030147923
0.08274392 0.083730251 0.029627195
0.082773589 0.083653018 0.029114971
0.08277452 0.08357545 0.028608598
0.082765065 0.083497725 0.02810429
0.082717143 0.083419502 0.027607705
0.082675621 0.083341323 0.027109867
0.082618214 0.08326304 0.026615217
0.082598224 0.083185151 0.026113059
0.082550772 0.083106935 0.025616411
0.082524724 0.083029009 0.025115414
0.082506359 0.082951158 0.024612922
0.0824783 0.082873143 0.024112329
0.08243452 0.082795009 0.02361499
0.082338773 0.082716152 0.023128014
0.082226008 0.082637042 0.022644524
0.082072653 0.082557462 0.022169214
0.081919998 0.082477838 0.02169382
0.081706814 0.082397364 0.021230515
0.081426293 0.082316041 0.020780837
0.081125423 0.082234479 0.020335242
0.080783576 0.082152411 0.019897996
0.080501445 0.082071126 0.019448647
0.080260769 0.08199022 0.018990893
0.080067575 0.081910118 0.018523678
0.079916142 0.081830509 0.018047962
0.079791158 0.08175128 0.017566986
0.079627879 0.081671469 0.017093601
0.079449542 0.081591576 0.016623374
0.079288587 0.081511833 0.016149567
0.079092316 0.081431672 0.015682947
0.078795962 0.081350133 0.015236425
0.078407429 0.081267402 0.014808542
0.077918306 0.081183337 0.014400895
0.050751224 0.078610435 0.0056014028
0.050427627 0.078523539 0.0051480751
0.050183725 0.078438528 0.0046806526
0.050044876 0.078355871 0.0041945572
0.04992741 0.078273751 0.0037046971
0.049833205 0.078192264 0.0032107367
0.049771685 0.078111418 0.0027110339
0.049792957 0.078032531 0.0021965408
0.049844965 0.077954367 0.0016767103
0.050394814 0.077887684 0.0010686764
0.051108323 0.077824786 0.00043161598
0.051523808 0.077754945 -0.00015267092
0.051763169 0.077681102 -0.00070569554
0.051996246 0.077607088 -0.0012576096
0.052337248 0.07753554 -0.00182862
0.052636176 0.077463068 -0.0023923032
0.052848633 0.0773886 -0.0029405262
0.052974787 0.077312142 -0.0034735338
0.053023808 0.077233836 -0.0039928611
0.053016953 0.077154271 -0.0045023146
0.05300751 0.077074751 -0.0050112572
0.053026874 0.076995753 -0.0055254153
0.053018991 0.076916255 -0.0060345903
0.053091288 0.076838456 -0.0065580895
0.053137381 0.076760165 -0.007076914
0.053162891 0.076681316 -0.0075921249
0.053105392 0.076600581 -0.0080925068
0.052960727 0.076517858 -0.008577561
0.052741237 0.076433487 -0.009049342
0.052499834 0.076348513 -0.0095172273
0.052231215 0.076262914 -0.0099802986
0.05195519 0.076177083 -0.010442091
0.05172259 0.076092348 -0.010911519
0.051478907 0.076007307 -0.011378971
0.051097553 0.075919196 -0.011822109
0.05061999 0.075828761 -0.012248183
0.050116919 0.075737752 -0.012669744
0.04953935 0.07564497 -0.013078028
0.048948359 0.075551942 -0.013483966
0.048525352 0.075462706 -0.013919717
0.048115965 0.075373925 -0.014357879
0.047525648 0.075280882 -0.014763901
0.047024708 0.075189948 -0.01518584
0.03857483 0.074121445 -0.019306233
0.038085315 0.074030817 -0.019730218
0.037543017 0.073938809 -0.020144781
0.036842767 0.073843233 -0.020531408
0.036344249 0.073752373 -0.020953696
0.035839632 0.073661312 -0.02137504
0.035306089 0.073569663 -0.021791186
0.034624029 0.073474519 -0.022180915
0.033880927 0.073377974 -0.022559978
0.03339912 0.073287457 -0.022985334
0.033001285 0.073198892 -0.02342551
0.032589652 0.073109992 -0.023863243
0.032092512 0.073019072 -0.024285821
0.031659819 0.072929658 -0.024719782
0.031218207 0.072840087 -0.025152244
0.03070808 0.072748862 -0.025572525
0.030338665 0.072661057 -0.02601775
0.076008342 0.085632682 0.039507605
0.076692685 0.085563786 0.038863491
0.077543437 0.085497089 0.03818585
0.078057885 0.085426003 0.037575915
0.078830838 0.085358314 0.036913954
0.079483934 0.085289061 0.036276124
0.079995804 0.085218005 0.035666771
0.080453083 0.085146338 0.035068411
0.080872767 0.085074119 0.034477595
0.081214145 0.085000969 0.033902612
0.081526235 0.084927388 0.033333469
0.081849083 0.084854037 0.032762181
0.082134679 0.084780067 0.032198414
0.082375363 0.084705703 0.031643633
0.082566641 0.084630616 0.031098951
0.082731277 0.084555238 0.030559523
0.082861409 0.084479347 0.030027136
0.082947157 0.084402941 0.029503565
0.082982741 0.084325895 0.028990217
0.083010696 0.084248744 0.028478343
0.082993746 0.084171042 0.027975556
0.08298219 0.084093414 0.027471608
0.082963705 0.084015697 0.026969172
0.082881972 0.083937213 0.02647939
0.082841136 0.083859213 0.025981339
0.082799084 0.083781153 0.025483597
0.082773365 0.083703332 0.024982594
0.082735591 0.083625443 0.024484042
0.082694635 0.083547451 0.023986036
0.082644634 0.083469294 0.023489822
0.082564868 0.083390869 0.022999723
0.082442701 0.083311737 0.022518083
0.082318135 0.083232634 0.022037031
0.082196116 0.083153658 0.021555319
0.082003675 0.083073758 0.021087831
0.081765316 0.082993254 0.020629689
0.081472829 0.082912005 0.020182384
0.081103504 0.082829937 0.019750543
0.080752485 0.082747988 0.019315118
0.080466188 0.082666926 0.018866571
0.080254108 0.082586765 0.018403053
0.080087125 0.082507119 0.017930524
0.079945974 0.082427859 0.017452763
0.079775847 0.082348265 0.016980764
0.079605199 0.082268588 0.016508937
0.079419307 0.082188755 0.01604021
0.079232015 0.082108878 0.015571663
0.07897146 0.082028113 0.015117972
0.078557335 0.081945434 0.014695132
0.078112774 0.081862368 0.014278544
0.050090257 0.079210453 0.0051223119
0.049732666 0.079122998 0.0046749162
0.049572844 0.079040058 0.0041925889
0.049510222 0.078959227 0.0036930423
0.049451225 0.078878544 0.0031927726
0.049393181 0.078797877 0.0026924016
0.04934549 0.078717522 0.0021901273
0.049268547 0.078636423 0.0016930611
0.049267042 0.07855697 0.0011827212
0.049687348 0.078487299 0.00059757481
0.050699297 0.078431018 -9.2168324e-05
0.051025338 0.078359127 -0.00066059874
0.051245198 0.078284815 -0.0012101843
0.051532719 0.078211978 -0.0017718005
0.051803175 0.078138866 -0.0023303516
0.052083395 0.078065827 -0.0028906574
0.052274484 0.077990852 -0.0034351118
0.052377373 0.077913903 -0.003964033
0.052441351 0.077836029 -0.0044859592
