# .PCD v0.7 - Point Cloud Data file format
VERSION 0.7
FIELDS x y z
SIZE 4 4 4
TYPE F F F
COUNT 1 1 1
WIDTH 1277
HEIGHT 1
VIEWPOINT 0 0 0 1 0 0 0
POINTS 1277
DATA ascii
-0.00050795404 0.086365528 -0.053824965
-0.0010343124 0.086473227 -0.054025158
-0.0015571006 0.086575121 -0.05418874
-0.002080064 0.086677387 -0.05435444
-0.0026036077 0.08678057 -0.054526497
-0.0031320129 0.086891726 -0.05474849
-0.0036654428 0.087011345 -0.055023067
-0.0041963179 0.08712659 -0.055270679
-0.0047258572 0.087239787 -0.055505615
-0.0052772928 0.087389179 -0.055967502
-0.005852568 0.087578394 -0.056679398
-0.0064654034 0.087823004 -0.057737906
-0.0070678359 0.088032477 -0.058572281
-0.007658585 0.088226408 -0.059309561
-0.0082519101 0.088423781 -0.060068421
-0.0088169323 0.088583477 -0.060592085
-0.0093837343 0.08874546 -0.061130557
-0.0099537801 0.088911861 -0.061696153
-0.010499727 0.089046024 -0.062060922
-0.011047613 0.089182697 -0.06244218
-0.011577333 0.08929538 -0.062673308
-0.012097706 0.089395434 -0.062825702
-0.012629596 0.08951091 -0.063074261
-0.013160222 0.089624584 -0.063311994
-0.013678314 0.089721762 -0.063446485
-0.01420333 0.089828022 -0.063637532
-0.014996562 0.090291865 -0.066056289
-0.015525313 0.090403222 -0.066278964
-0.016064873 0.090528868 -0.066591047
-0.01660271 0.090652302 -0.066888995
-0.016300853 0.089603655 -0.059874132
-0.016828502 0.089713559 -0.060088187
-0.017353395 0.089818954 -0.060273916
-0.017886065 0.089937337 -0.060540542
-0.01844313 0.090096191 -0.061062362
-0.018986832 0.090232894 -0.061444763
-0.019560141 0.090418831 -0.062135972
-0.020123383 0.090587877 -0.062721469
-0.020672979 0.09073437 -0.063165188
-0.02120588 0.090852223 -0.063429005
-0.02172913 0.090955764 -0.063602999
-0.022246297 0.0910483 -0.063707955
-0.02275845 0.091132447 -0.063760549
-0.023262456 0.091203064 -0.063727677
-0.023756612 0.091257334 -0.063592426
-0.024244569 0.091301329 -0.06339217
-0.024729822 0.09134087 -0.063164592
-0.025208814 0.091369919 -0.062870376
-0.025682574 0.091390252 -0.062521987
-0.02615051 0.091400906 -0.062112641
-0.026625361 0.091423213 -0.061776213
-0.034852222 0.089754865 -0.041774411
-0.035307012 0.08974383 -0.041228965
-0.035750203 0.089713231 -0.040560734
-0.036193497 0.089683123 -0.039895035
-0.036649037 0.089673147 -0.039356019
0.088879049 0.064494252 0.0098447548
0.087457016 0.066088237 0.00029300712
0.086884052 0.066273391 -0.00039473223
0.08623296 0.066588074 -0.0018972135
0.085507825 0.067025714 -0.0041733338
0.084996134 0.06710919 -0.0042213365
0.084487349 0.067187913 -0.0042391149
0.08398068 0.067263119 -0.0042344304
0.083441287 0.067392513 -0.0045712157
0.082908735 0.06751062 -0.0048369323
0.081577256 0.068954423 -0.013444152
0.081016645 0.069119036 -0.014002129
0.080464646 0.069269329 -0.014470383
0.079923421 0.069401942 -0.014827157
0.079388008 0.069524758 -0.015122424
0.078859404 0.069636308 -0.015346755
0.078336835 0.069737948 -0.01550853
0.077814743 0.069838494 -0.015664082
0.077288404 0.069946326 -0.015865125
0.076755807 0.070064567 -0.016131092
0.076224193 0.070181064 -0.016386751
0.075705096 0.070276812 -0.016511731
0.07519941 0.070350409 -0.016497079
0.074708417 0.070399612 -0.016329035
0.074213237 0.070455611 -0.016203869
0.07371892 0.070510201 -0.016069967
0.073235065 0.070547566 -0.01582795
0.072745204 0.070594884 -0.015647721
0.06787239 0.069493614 -0.0029880658
0.06735985 0.069578461 -0.0030440369
0.066849515 0.069659717 -0.0030780551
0.066331387 0.06975399 -0.0031935046
0.06580545 0.06986101 -0.0033893315
0.065284848 0.069959305 -0.0035307335
0.064768627 0.070050307 -0.0036256234
0.064244092 0.070155032 -0.003806798
0.063723996 0.070252486 -0.0039427271
0.063210011 0.070339814 -0.0040144548
0.062700182 0.070420191 -0.0040427749
0.062196147 0.070490941 -0.0040103458
0.061692689 0.07056082 -0.003972311
0.061187427 0.070633642 -0.003953075
0.06068312 0.070704982 -0.0039243107
0.060179818 0.070774384 -0.0038841646
0.059677515 0.070842378 -0.0038337247
0.059178989 0.070903979 -0.0037444397
0.058682557 0.070962161 -0.0036323681
0.058188543 0.071016319 -0.003495873
0.05769458 0.071070448 -0.0033587073
0.057202429 0.071121514 -0.0032025315
0.056713976 0.071166441 -0.0030077538
0.056225147 0.071211971 -0.0028166773
0.055736769 0.071256742 -0.002621331
0.055254918 0.071290769 -0.002357641
0.054768555 0.071332179 -0.002140397
0.054285184 0.071368717 -0.0018931273
0.053803075 0.071403161 -0.0016319011
0.053319789 0.071439497 -0.0013833037
0.052836698 0.071475431 -0.0011318307
0.052360155 0.071500644 -0.00081286021
0.051885266 0.071523003 -0.0004757978
0.05141177 0.071543135 -0.00012515811
0.050940953 0.071558915 0.00025323406
0.05047822 0.071561068 0.00071663596
0.050017659 0.071559802 0.0012026369
0.049560163 0.07155329 0.0017212844
0.04909626 0.071557447 0.0021723816
0.048641011 0.07154727 0.002713874
0.048191082 0.071528263 0.0033108639
0.040830411 0.070106 0.020292874
0.040302139 0.070217885 0.020066779
0.03970268 0.070492238 0.018824387
0.039151162 0.070657119 0.01826654
0.038624696 0.070764676 0.018067081
0.038111791 0.070841402 0.018060643
0.032003086 0.080015548 -0.038630985
0.031480931 0.080116317 -0.038788173
0.030941904 0.080245063 -0.039120723
0.03041964 0.080346256 -0.039279357
0.029906422 0.080432199 -0.039342709
0.029380843 0.08053866 -0.03953528
0.028851405 0.080651604 -0.039768115
0.028328601 0.080753542 -0.039932456
0.02780607 0.080855027 -0.040093571
0.027290162 0.080945589 -0.040185329
0.026783744 0.081020251 -0.04017742
0.026276745 0.081095949 -0.04017663
0.025757333 0.081192143 -0.04030443
0.02521446 0.081327446 -0.040678322
0.024657303 0.081486464 -0.041200925
0.024099462 0.081646569 -0.041730903
0.023553787 0.081786253 -0.042132486
0.023025403 0.081897691 -0.042355765
0.022501895 0.082000665 -0.042526629
0.021986945 0.082089499 -0.042607885
0.021481408 0.082162872 -0.04259209
0.020984488 0.082221754 -0.042485058
0.020494647 0.082268953 -0.042304393
0.020001698 0.082321398 -0.042156819
0.01949645 0.08239419 -0.042137358
0.018967323 0.082506716 -0.042367607
0.018412061 0.082662366 -0.04286965
0.017852612 0.082825132 -0.043416303
0.017305078 0.082968183 -0.043838538
0.016765514 0.083097808 -0.044177003
0.016226433 0.08322677 -0.044510968
0.015683617 0.083361909 -0.044883978
0.015137801 0.083501935 -0.04528724
0.014601467 0.083626486 -0.045593102
0.014071891 0.083739497 -0.045826647
0.013541263 0.083854496 -0.04607255
0.013010386 0.083969757 -0.04632071
0.012479564 0.084084958 -0.046567664
0.011949481 0.084198959 -0.046807434
0.01142223 0.084308282 -0.047018096
0.010891121 0.084423944 -0.047268506
0.010357874 0.084543243 -0.047541495
0.0098273959 0.084657975 -0.047785409
0.0092996769 0.084767953 -0.048000354
0.0087675164 0.08488556 -0.048262578
0.0082300287 0.085011728 -0.048579339
0.0076951087 0.085133851 -0.048869573
0.00715442 0.085265465 -0.049220212
0.0066111144 0.085401379 -0.04959793
0.00606295 0.085545361 -0.050026666
0.0055204714 0.085679851 -0.050395347
0.0049898308 0.085794836 -0.050640941
0.0044611748 0.085906424 -0.050865941
0.0039217733 0.086035967 -0.051203471
0.0033887653 0.086154856 -0.051473685
0.0028562811 0.086272784 -0.051738519
0.0023244815 0.086389624 -0.051995974
0.0017900793 0.086510755 -0.052280299
0.0012528943 0.086636648 -0.052595217
0.0007162923 0.086761497 -0.052903011
0.0001846347 0.086878143 -0.053159554
-0.00035028881 0.087000027 -0.053449351
-0.0008772281 0.087108828 -0.053655807
-0.0014027569 0.08721526 -0.053848248
-0.0019315255 0.087327041 -0.05407425
-0.0024534808 0.087427661 -0.054229539
-0.0029793356 0.087534539 -0.0544248
-0.0035149613 0.087657869 -0.054722849
-0.0040489496 0.087778285 -0.055003349
-0.00458261 0.087898225 -0.055280481
-0.0051336265 0.088047013 -0.055738758
-0.0057048183 0.088229254 -0.056407925
-0.0062821563 0.088421606 -0.057141196
-0.0068479502 0.088593967 -0.057747841
-0.0074118944 0.088751994 -0.058262676
-0.0080095222 0.08895468 -0.059056293
-0.0085809026 0.089122631 -0.059633169
-0.0091433451 0.089278556 -0.060134921
-0.0096970228 0.089422822 -0.060563687
-0.010257538 0.089576177 -0.06104951
-0.010792104 0.089695178 -0.061320435
-0.011321758 0.089807652 -0.061549921
-0.011853449 0.089922771 -0.061796676
-0.012364573 0.090010688 -0.061873086
-0.012901165 0.090132289 -0.062160205
-0.013442749 0.090260595 -0.062489562
-0.013962014 0.090359308 -0.062633567
-0.014031667 0.089796819 -0.058631189
-0.014558699 0.089905895 -0.05884004
-0.015096731 0.090033121 -0.059162613
-0.015623163 0.090141036 -0.059364453
-0.016158275 0.090263367 -0.05965605
-0.016681153 0.090365358 -0.059820745
-0.017205562 0.090470038 -0.060001437
-0.017727353 0.090570182 -0.060154617
-0.018268768 0.090703018 -0.060512751
-0.018815981 0.090845458 -0.060931105
-0.019377479 0.091011681 -0.061499551
-0.019931696 0.091165692 -0.061991278
-0.020478506 0.091307387 -0.062405266
-0.021012777 0.091428339 -0.062688895
-0.02154593 0.09154743 -0.062960558
-0.022073703 0.091657713 -0.063176595
-0.022591885 0.09175203 -0.063292705
-0.02309861 0.091827273 -0.063288696
-0.023597721 0.091889843 -0.063204907
-0.024086528 0.091935247 -0.063013397
-0.024572304 0.091975816 -0.062790871
-0.025054403 0.092010118 -0.062529206
-0.025526181 0.092027329 -0.062159806
-0.025997072 0.092043139 -0.061781768
-0.033379994 0.090513654 -0.043562114
-0.03384798 0.090524554 -0.043153327
-0.034300577 0.090510026 -0.042584296
-0.034758613 0.090504386 -0.042071573
-0.035211675 0.090490699 -0.041508112
-0.03566841 0.090483077 -0.040982276
-0.036126502 0.090477563 -0.040469892
-0.036574729 0.090455741 -0.039855659
0.087617695 0.066724345 0.00069752429
0.087043941 0.066910647 1.8361025e-06
0.086460963 0.067112163 -0.00078985188
0.085851192 0.067358188 -0.001861684
0.085285455 0.06753131 -0.0024742167
0.084777832 0.06760814 -0.0024798126
0.084229589 0.067752138 -0.0029085791
0.083659276 0.067932688 -0.0035681361
0.083093837 0.0681054 -0.0041779736
0.08169283 0.069661364 -0.013508459
0.081124797 0.069838218 -0.014144725
0.080570921 0.069991611 -0.014632656
0.080028996 0.070125312 -0.01499649
0.07949765 0.070241399 -0.015249678
0.078977093 0.070339434 -0.015389126
0.078462213 0.070428342 -0.015470464
0.077945977 0.070519403 -0.015566119
0.077428505 0.070612453 -0.015673883
0.076910242 0.070706941 -0.015790572
0.076392218 0.070801012 -0.015904695
0.075887173 0.070873521 -0.015882894
0.075393692 0.070926905 -0.01574038
0.07490766 0.070967987 -0.015520531
0.074422926 0.071006998 -0.015287586
0.073941603 0.071039982 -0.015016997
0.073477224 0.071045324 -0.014571802
0.073005483 0.071062624 -0.014202172
0.068494439 0.070131063 -0.0030615996
0.067989111 0.070204049 -0.0030432446
0.06746611 0.070306316 -0.0032088519
0.066947684 0.070401028 -0.0033274388
0.066424012 0.070504405 -0.0035001959
0.065894738 0.070616961 -0.0037311441
0.065372273 0.070718423 -0.0038919046
0.064852044 0.070816122 -0.0040284311
0.064330593 0.070915796 -0.0041780286
0.063814938 0.071005799 -0.0042668758
0.063300848 0.071093313 -0.0043396167
0.062793165 0.07117033 -0.0043460974
0.06228992 0.071239814 -0.0043055015
0.061785553 0.071311235 -0.0042765448
0.06127784 0.071388274 -0.0042834682
0.060773958 0.071458906 -0.0042497977
0.06027111 0.071527764 -0.0042052786
0.059771251 0.071591698 -0.0041296547
0.059274491 0.071650453 -0.0040211575
0.058776919 0.071710631 -0.0039214822
0.058279019 0.071771279 -0.0038251686
0.057785004 0.071825519 -0.0036883499
0.057294745 0.071873613 -0.0035128028
0.056806896 0.071917765 -0.0033121924
0.056317993 0.071963415 -0.003121146
0.055833355 0.072002254 -0.0028871882
0.055348858 0.072040677 -0.0026504807
0.054861668 0.072083637 -0.0024425013
0.054379392 0.072118521 -0.0021833878
0.053900629 0.07214766 -0.0018880125
0.053420179 0.07217937 -0.0016094465
0.052941877 0.072207704 -0.0013090405
0.052462857 0.072237134 -0.0010159174
0.051985607 0.072263628 -0.00070390012
0.051510014 0.072287291 -0.00037433021
0.051040001 0.072301857 1.2991484e-05
0.050570879 0.072314858 0.00040970836
0.050103471 0.072325274 0.00082314014
0.049645219 0.072320238 0.0013334136
0.049184788 0.072318956 0.0018207529
0.048720028 0.072324611 0.0022634389
0.048279047 0.072291262 0.0029528746
0.040958274 0.070819534 0.020323213
0.040445495 0.070895962 0.0203196
0.039902061 0.071042277 0.019877121
0.039314315 0.071288928 0.018804159
0.03877778 0.0714195 0.018459912
0.032698479 0.079760529 -0.032642499
0.031617314 0.08078716 -0.038635734
0.031082403 0.080909014 -0.038925316
0.03055568 0.081017442 -0.039129745
0.030036815 0.081112795 -0.039252162
0.029516321 0.081211001 -0.039392777
0.028991904 0.081315547 -0.039572716
0.028469626 0.081416607 -0.039730825
0.027947567 0.081517428 -0.039887656
0.027428407 0.08161322 -0.040012993
0.026918808 0.081693351 -0.040039279
0.026410397 0.081771374 -0.040051967
0.025895685 0.081860095 -0.040132482
0.025352923 0.081995033 -0.040504072
0.024809347 0.082131289 -0.040884808
0.024263276 0.082271792 -0.041291617
0.023713797 0.082417831 -0.041733351
0.023169138 0.082556039 -0.042125821
0.022635622 0.082675762 -0.042401504
0.022118669 0.082767852 -0.042503361
0.021615263 0.082837872 -0.042465948
0.021120112 0.082893923 -0.042340241
0.020637207 0.08292973 -0.042087082
0.020152837 0.082968123 -0.041850433
0.019659836 0.083020732 -0.041703206
0.019149099 0.083102703 -0.04174114
0.018610399 0.083230875 -0.042070113
0.018037759 0.083415359 -0.042754911
0.017475994 0.083581872 -0.043325298
0.0169289 0.083724037 -0.043742731
0.016383912 0.083862662 -0.044137485
0.015831921 0.084012859 -0.04460584
0.015280038 0.084162988 -0.04507339
0.01474385 0.084287226 -0.045377582
0.01421174 0.084404401 -0.045637958
0.013679041 0.084522709 -0.045904811
0.013146628 0.084640585 -0.046168756
0.012611069 0.084763639 -0.046466026
0.012081329 0.084877156 -0.046702217
0.011555275 0.084984422 -0.04689981
0.011029724 0.085090995 -0.047092695
0.010505853 0.08519461 -0.047267571
0.0099787675 0.085303664 -0.047476023
0.0094506182 0.085414544 -0.047696296
0.0089246705 0.085521609 -0.047892343
0.0083939377 0.085636623 -0.04813851
0.0078632589 0.085751638 -0.048384544
0.0073369993 0.085859291 -0.04858448
0.0068071922 0.085972868 -0.048821565
0.0062727062 0.086094126 -0.049107537
0.0057366379 0.086218119 -0.049409956
0.0051956298 0.086350203 -0.049763948
0.0046666097 0.086462356 -0.049991891
0.0041293036 0.086588338 -0.050307821
0.0035900054 0.086717516 -0.050643057
0.0030558067 0.086838439 -0.050926331
0.0025245105 0.086954355 -0.051178634
0.0019859513 0.087082341 -0.051506691
0.0014504222 0.087205373 -0.051803194
0.00089727435 0.087357707 -0.052284382
0.00036018109 0.087483235 -0.052597214
-0.00017503463 0.087605707 -0.052890684
-0.00069917017 0.087709829 -0.053067934
-0.0012248508 0.087816611 -0.05326204
-0.0017668321 0.087950312 -0.053626008
-0.0022943178 0.088060021 -0.053838916
-0.0028155893 0.088159427 -0.05398662
-0.0033468094 0.088275306 -0.054238573
-0.0038823683 0.088398345 -0.054535296
-0.0044194576 0.08852388 -0.054848123
-0.0049675438 0.088667676 -0.055275757
-0.0055343164 0.088842414 -0.055898067
-0.0060950145 0.089007139 -0.056457691
-0.0066506332 0.089163437 -0.056964297
-0.0071902 0.089293107 -0.057303295
-0.00772668 0.089417599 -0.057609107
-0.0082821371 0.089573815 -0.058114778
-0.0088370442 0.089725852 -0.058594186
-0.0094192326 0.089907736 -0.059259839
-0.0099656116 0.090042196 -0.059627794
-0.010521517 0.090189405 -0.060075942
-0.011038548 0.090285085 -0.06020087
-0.011564534 0.090392649 -0.060400162
-0.012070047 0.09047325 -0.06042989
-0.01253375 0.090498477 -0.06011264
-0.012777396 0.090143546 -0.057396822
-0.013333831 0.090301149 -0.057912041
-0.013874028 0.090431944 -0.058257423
-0.014402217 0.090542689 -0.05847685
-0.014939446 0.090668574 -0.058791358
-0.015468849 0.090781368 -0.05902354
-0.015998904 0.090895377 -0.059263624
-0.016519908 0.090994366 -0.059408639
-0.017040458 0.091092557 -0.059548836
-0.017557731 0.091185227 -0.059654262
-0.018076165 0.09128011 -0.059773602
-0.018610045 0.091400295 -0.060052548
-0.019160962 0.091548651 -0.060509063
-0.019720117 0.091710873 -0.061052907
-0.020275576 0.091866955 -0.061557826
-0.020824024 0.09201137 -0.061989471
-0.021351604 0.092121229 -0.062203165
-0.02187565 0.092225194 -0.062379636
-0.022396075 0.092323184 -0.062518597
-0.02290716 0.092405722 -0.062559783
-0.023413429 0.092480324 -0.062551707
-0.023907702 0.09253484 -0.062416609
-0.024396654 0.092580803 -0.062227201
-0.024881352 0.092619658 -0.061993368
-0.025356848 0.092643298 -0.061663758
-0.025831951 0.092666313 -0.061329689
-0.032334656 0.091213875 -0.044511419
-0.032813124 0.091242291 -0.044211932
-0.033282589 0.091255896 -0.043819018
-0.033750668 0.091267198 -0.043411449
-0.034213908 0.091270484 -0.042953093
-0.03467714 0.091273956 -0.042496029
-0.035139449 0.091275528 -0.042027622
-0.035593186 0.09126316 -0.041470356
-0.036056973 0.091267318 -0.041017916
-0.036520496 0.091271199 -0.040563233
0.087758034 0.067394398 0.00088882074
0.087202981 0.067549564 0.0003890181
0.086639896 0.067718089 -0.00019501429
0.086093619 0.06785889 -0.0006047003
0.08555235 0.067991361 -0.00096085016
0.085015982 0.068115689 -0.0012659635
0.084449381 0.06829004 -0.0018874621
0.083845153 0.068526499 -0.0029009033
0.083265275 0.068722777 -0.0036600369
0.081823334 0.070343703 -0.013418425
0.081248328 0.070531949 -0.014126772
0.080696449 0.070681818 -0.014593677
0.080155626 0.070813544 -0.014945555
0.079628304 0.070923023 -0.015156785
0.079112619 0.071013324 -0.015246735
0.078602701 0.071093976 -0.015275835
0.078093827 0.071172878 -0.015294625
0.077584147 0.071253113 -0.015320948
0.077081069 0.071322486 -0.015278888
0.076586828 0.071377218 -0.015144535
0.076092422 0.071432188 -0.015011634
0.075607598 0.071471497 -0.014779693
0.075134039 0.071491934 -0.014428752
0.074673578 0.071490906 -0.013942066
0.074206471 0.071500808 -0.01352465
0.073738918 0.071511514 -0.013112128
0.073354289 0.071385115 -0.011832921
0.072923779 0.071334533 -0.011033427
0.072464615 0.071331307 -0.010533206
0.072003677 0.071331061 -0.010051236
0.071523234 0.071362995 -0.0097728763
0.071042731 0.071395107 -0.0094956253
0.068609819 0.07084351 -0.0031303328
0.068098605 0.070926413 -0.0031737355
0.067567855 0.071041316 -0.0034196859
0.067038432 0.071154445 -0.0036538169
0.066513017 0.071260668 -0.0038447054
0.065985575 0.071370296 -0.0040566344
0.065464944 0.07146854 -0.0041974997
0.064944044 0.071567483 -0.0043419288
0.064427465 0.071659081 -0.0044405237
0.063912779 0.071747623 -0.0045198426
0.063398391 0.071835652 -0.0045951745
0.062890947 0.071912386 -0.0045996225
0.062386308 0.071984231 -0.0045733587
0.061880056 0.072058797 -0.0045645265
0.061372403 0.072135776 -0.0045705596
0.060868133 0.072207138 -0.0045410329
0.060365874 0.072274931 -0.0044891736
0.059867803 0.072336175 -0.0043954048
0.059370194 0.072396524 -0.00429693
0.058870818 0.072459683 -0.0042151967
0.058372989 0.072520413 -0.0041187471
0.057880528 0.072572127 -0.0039655995
0.057386618 0.072626427 -0.0038282005
0.056899145 0.072669908 -0.0036228136
0.056414653 0.072708592 -0.0033870786
0.055930965 0.072745994 -0.003142731
0.055445768 0.072785765 -0.0029140529
0.054960281 0.072826095 -0.0026885045
0.054478079 0.072860897 -0.0024279661
0.054004434 0.072881661 -0.0020791076
0.053524293 0.072913013 -0.0017970856
0.053045414 0.072942413 -0.0015023993
0.052570727 0.072964847 -0.0011638608
0.052093454 0.072991617 -0.00085303746
0.051616617 0.07301756 -0.00053655542
0.051141873 0.073040038 -0.0001986837
0.050671235 0.073055878 0.00018149847
0.050201446 0.073070273 0.0005709501
0.049742021 0.073067434 0.0010690237
0.049283963 0.073062353 0.0015809857
0.048821975 0.073063791 0.0020521032
0.048373763 0.073042534 0.0026670964
0.04057182 0.0716132 0.020327814
0.040056109 0.07169652 0.020281289
0.039511696 0.071844578 0.019826703
0.038945254 0.072042353 0.019057982
0.033340394 0.080359668 -0.032506622
0.032818947 0.080459446 -0.032656431
0.032291699 0.080568768 -0.0328671
0.031222634 0.081573375 -0.038732067
0.030695222 0.081683032 -0.038944624
0.030168224 0.081791878 -0.039151747
0.029649526 0.081887007 -0.039272483
0.02913069 0.081982322 -0.039394464
0.028605882 0.082087666 -0.039579615
0.028083894 0.082188316 -0.039735351
0.027564593 0.082284428 -0.039862353
0.027047586 0.082376808 -0.039965309
0.026534352 0.082462877 -0.040029094
0.026020816 0.082549527 -0.040096231
0.025490947 0.08266326 -0.040334195
0.024953783 0.082788989 -0.040648136
0.024412034 0.082922168 -0.041009098
0.023870461 0.083055153 -0.041369237
0.023316989 0.083207808 -0.041853022
0.022780187 0.083332919 -0.042162947
0.022264102 0.083423875 -0.042257357
0.021760168 0.083494499 -0.042223275
0.021270998 0.083540842 -0.042035889
0.020789154 0.083575144 -0.041772086
0.020309718 0.083605453 -0.041483544
0.019827625 0.083640195 -0.041222736
0.019336769 0.083689258 -0.041052923
0.018827766 0.083768487 -0.041073166
0.018275669 0.083918884 -0.041542523
0.017663095 0.084169112 -0.042643011
0.017105971 0.084327646 -0.043164302
0.016560212 0.084467746 -0.043569047
0.015998174 0.084634446 -0.044141691
0.015431322 0.084809192 -0.044765439
0.014890905 0.084940232 -0.045112632
0.014353165 0.085066982 -0.045433149
0.013816306 0.085192114 -0.045743201
0.013274068 0.085326135 -0.046109956
0.012734521 0.085455783 -0.04644873
0.012201637 0.085574351 -0.046717491
0.011674192 0.085683987 -0.046929415
0.011154551 0.085780755 -0.04706075
0.010635828 0.08587601 -0.04718193
0.010110224 0.085982479 -0.047374722
0.0095786927 0.086098894 -0.04762949
0.0090501066 0.086210303 -0.04785338
0.0085242894 0.08631745 -0.048049711
0.0079983063 0.08642453 -0.048246201
0.0074727684 0.086530931 -0.048438095
0.0069502937 0.086632535 -0.048599303
0.0064234603 0.086741023 -0.048804525
0.0058912989 0.086858489 -0.049066
0.0053630238 0.086969472 -0.049287297
0.0048355414 0.087079175 -0.049500208
0.0043110214 0.0871839 -0.049681157
0.0037805228 0.087298691 -0.04992583
0.0032519023 0.087410249 -0.050150383
0.0027265502 0.087516293 -0.050340168
0.0021989583 0.087626189 -0.050554086
0.0016623037 0.087751061 -0.050862554
0.0011223946 0.087881349 -0.051205348
0.00056892168 0.088033892 -0.051688924
2.8921291e-05 0.088164322 -0.052032512
-0.00050688884 0.088287771 -0.052331701
-0.0010300532 0.088390276 -0.052498989
-0.0015720066 0.088524006 -0.052863587
-0.0021142957 0.088658065 -0.053230468
-0.0026417968 0.088767767 -0.053443596
-0.003165938 0.088871896 -0.053620845
-0.0037031239 0.08899761 -0.05393447
-0.0042384779 0.089120261 -0.054228861
-0.0047797426 0.089252785 -0.054585859
-0.0053337375 0.089406304 -0.055075344
-0.0058791009 0.089545451 -0.055474121
-0.0064232177 0.089682713 -0.055860993
-0.0069706412 0.089825489 -0.056282546
-0.0075049149 0.0899463 -0.056565415
-0.00802649 0.09004616 -0.056716248
-0.0085519142 0.090152502 -0.056907352
-0.00906038 0.090230733 -0.056921452
-0.0095894877 0.090343118 -0.057151265
-0.010076673 0.090386182 -0.056943506
-0.0105255 0.090365805 -0.056334235
-0.011019819 0.090420775 -0.056201532
-0.011543437 0.090524212 -0.056374379
-0.01206691 0.090627179 -0.056544796
-0.012595493 0.090738662 -0.056768361
-0.013141326 0.090878651 -0.057172708
-0.013688822 0.091021426 -0.057594065
-0.014224882 0.091145195 -0.057896059
-0.014754858 0.09125901 -0.058134813
-0.015286388 0.091375425 -0.058389578
-0.01581759 0.091491297 -0.058641311
-0.016337432 0.091588408 -0.058774449
-0.016854871 0.091681466 -0.058882311
-0.017374529 0.091778211 -0.059013337
-0.017889809 0.091867715 -0.059098382
-0.018407589 0.091961347 -0.0592095
-0.018948309 0.092093043 -0.059561118
-0.019483374 0.092215136 -0.059852377
-0.02003495 0.092364728 -0.060317121
-0.020614516 0.092560425 -0.061072908
-0.021131355 0.09265244 -0.061173964
-0.021639515 0.092730246 -0.061185472
-0.0221745 0.092852436 -0.061476599
-0.02269664 0.092953272 -0.061633252
-0.02320762 0.093035623 -0.061673433
-0.0237139 0.09311033 -0.061665032
-0.0242134 0.09317375 -0.061585609
-0.024702992 0.093220726 -0.061402377
-0.025193574 0.093269482 -0.061230075
-0.024463272 0.091300622 -0.048313946
-0.024967758 0.091372445 -0.048287515
-0.025476027 0.091450296 -0.048299283
-0.025979869 0.091520868 -0.04826463
-0.029901564 0.091905758 -0.046854407
-0.030382629 0.09193866 -0.046581686
-0.030851789 0.091951929 -0.046185847
-0.031327486 0.091976009 -0.045857716
-0.031772956 0.091950238 -0.045214407
-0.032228693 0.091941409 -0.044678707
-0.032703832 0.091964632 -0.044344977
-0.033181392 0.091991819 -0.044036526
-0.033653043 0.092009157 -0.043666001
-0.034125585 0.092028104 -0.043305408
-0.03459299 0.0920384 -0.042890366
-0.035066441 0.092058808 -0.042539172
-0.03553411 0.092069693 -0.042127565
-0.035995889 0.092070766 -0.041654427
-0.036458965 0.092074081 -0.041195367
-0.036924984 0.092082262 -0.040766422
0.087893024 0.06807337 0.0010244045
0.087352842 0.068203889 0.00068021193
0.08679685 0.068360619 0.00016948581
0.086260587 0.06848491 -0.0001352746
0.085735902 0.068589859 -0.00031768531
0.085191339 0.068727784 -0.00070914952
0.084614918 0.068918176 -0.0014330158
0.084021047 0.06913732 -0.0023381549
0.083429277 0.069352992 -0.0032215933
0.082833365 0.069575503 -0.0041483152
0.081392437 0.071191706 -0.013894326
0.080839559 0.071343265 -0.014372169
0.08030194 0.071469516 -0.014689948
0.07977742 0.07157445 -0.014872416
0.079262212 0.071663916 -0.014957109
0.078756899 0.071736962 -0.0149379
0.078254521 0.071805336 -0.014888776
0.077753365 0.071871519 -0.014825835
0.077257901 0.071928315 -0.014704452
0.076769829 0.071973041 -0.014506073
0.076299131 0.071989134 -0.014126453
0.075838462 0.071988523 -0.013640933
0.075371876 0.071997948 -0.013218779
0.07491143 0.071996965 -0.012731235
0.074471191 0.0719629 -0.012034081
0.074024111 0.07193999 -0.011407339
0.073552057 0.071958318 -0.011041924
0.073075891 0.0719833 -0.010718504
0.072593093 0.072019249 -0.01046498
0.072115839 0.072046056 -0.010153081
0.071635023 0.072078824 -0.0098788561
0.071150288 0.072118156 -0.0096460208
0.070647433 0.072187051 -0.009600644
0.068717048 0.071569547 -0.0032855105
0.068196848 0.071667127 -0.0034216901
0.067661002 0.071790628 -0.0037218658
0.067132086 0.07190261 -0.0039490201
0.066605091 0.072011597 -0.0041568922
0.066081047 0.072115541 -0.0043331301
0.065559164 0.072216004 -0.0044878498
0.065039635 0.072312668 -0.004617854
0.064523816 0.072403029 -0.0047082808
0.064010873 0.07248877 -0.0047693714
0.063498229 0.072574086 -0.004827546
0.062993482 0.072646238 -0.0048025083
0.062489171 0.072717659 -0.0047734217
0.061980035 0.072797045 -0.0047943629
0.061474387 0.072870657 -0.0047787214
0.060969789 0.072942749 -0.0047529805
0.060463671 0.073017217 -0.0047429083
0.059964981 0.073079437 -0.0046550911
0.059466597 0.073141001 -0.0045637051
0.058967281 0.073204279 -0.0044825976
0.058474127 0.073257409 -0.0043369345
0.057982046 0.073308758 -0.004180518
0.057488412 0.073362455 -0.0040391381
0.057001367 0.073405534 -0.0038303521
0.056516655 0.073444679 -0.0035963156
0.056031037 0.073485322 -0.0033722178
0.055545546 0.073525734 -0.0031463502
0.055061918 0.073563077 -0.0029013359
0.054580696 0.073596478 -0.0026312626
0.054102823 0.073624432 -0.0023260594
0.053626601 0.073649466 -0.002003307
0.053150989 0.073673718 -0.0016750377
0.052675799 0.073697113 -0.0013421904
0.052202422 0.073717535 -0.00098978262
0.05172763 0.073740378 -0.00065268762
0.051255092 0.073759541 -0.00029252656
0.050782569 0.073778518 6.9149304e-05
0.050314367 0.073790446 0.00047515798
0.049852263 0.073792189 0.00094504654
0.049391534 0.073791906 0.001428932
0.048928935 0.073794611 0.0018931301
0.048474036 0.073784538 0.0024382034
0.048028428 0.073759191 0.0030801641
0.040688518 0.072351821 0.020199783
0.040196188 0.072382957 0.020484798
0.039681341 0.072464556 0.020450126
0.033476863 0.081032239 -0.032354057
0.032945637 0.081148081 -0.032605477
0.032407124 0.081275918 -0.032932866
0.031362236 0.082238987 -0.038545959
0.030836556 0.082345642 -0.038739856
0.030304395 0.082463108 -0.039001334
0.029782351 0.082563765 -0.039157197
0.029262614 0.082660824 -0.039289534
0.028737117 0.082767077 -0.039480783
0.028215505 0.082867093 -0.039632272
0.027695697 0.08296413 -0.03976443
0.027171344 0.083068691 -0.039944775
0.026652133 0.083164759 -0.040071208
0.026134135 0.083258845 -0.040185422
0.025607096 0.083367683 -0.040392447
0.025073839 0.083486892 -0.040665451
0.024538571 0.083609506 -0.040959802
0.024000308 0.083736971 -0.041285258
0.023458159 0.083870806 -0.041650686
0.022929847 0.08398176 -0.04187135
0.022416847 0.084067672 -0.041933324
0.021916453 0.084132664 -0.041863289
0.021433711 0.084168531 -0.041608561
0.020953838 0.084199674 -0.041324284
0.020478934 0.084222734 -0.040988736
0.020009032 0.084237397 -0.040599979
0.019525204 0.084275134 -0.040357303
0.019027129 0.08433637 -0.040263537
0.018524824 0.084404595 -0.040213533
0.017861662 0.084738016 -0.041842196
0.017273419 0.08494775 -0.042688176
0.016733928 0.085077241 -0.043026071
0.016181428 0.085228175 -0.043499675
0.015598878 0.085428759 -0.044287648
0.015038433 0.085592858 -0.044844374
0.014490956 0.085735388 -0.045265082
0.013946261 0.085873522 -0.04565778
0.013400245 0.086013727 -0.046063486
0.012856491 0.086150236 -0.046446122
0.012321025 0.086273156 -0.046742599
0.011794014 0.086382002 -0.046949938
0.011277513 0.086473577 -0.047047958
0.010755916 0.086573541 -0.047198687
0.010227514 0.086684726 -0.047421221
0.0096891392 0.086812489 -0.04774791
0.0091582648 0.086927757 -0.04799607
0.008632875 0.087033957 -0.048186515
0.00811092 0.087134577 -0.048341807
0.0075914189 0.08723104 -0.048470605
0.0070701828 0.087330453 -0.048618395
0.0065472741 0.087432563 -0.048783209
0.0060184198 0.087544501 -0.049010012
0.0054894686 0.08765664 -0.049238142
0.0049673505 0.087757461 -0.049394567
0.0044455454 0.087857746 -0.049548183
0.0039186953 0.087966405 -0.049754381
0.003395726 0.088068627 -0.049919546
0.0028707031 0.088174388 -0.050107263
0.0023484714 0.088275284 -0.050264485
0.0018227603 0.08838205 -0.050458506
0.0012947908 0.08849258 -0.050676666
0.00076644402 0.08860372 -0.050898533
0.00023525767 0.088719532 -0.051149506
-0.0002977543 0.088838331 -0.051420033
-0.00082821702 0.08895281 -0.051663294
-0.0013612257 0.089071728 -0.051934037
-0.0019034802 0.089205623 -0.052300256
-0.0024447471 0.089338124 -0.052656725
-0.0029773 0.089456126 -0.052922446
-0.0035156594 0.089583896 -0.053249456
-0.0040527498 0.089709312 -0.053561535
-0.0045942301 0.089842081 -0.053920347
-0.0051337611 0.089971565 -0.054258142
-0.0056724036 0.090099789 -0.054588057
-0.0061957864 0.090202697 -0.054757908
-0.0067254747 0.090315923 -0.054993
-0.0072584655 0.090434849 -0.055264059
-0.0077799866 0.090534657 -0.055414226
-0.0083041079 0.090638794 -0.055591792
-0.0088066673 0.090707414 -0.055544253
-0.0092751244 0.09071964 -0.055140499
-0.0097788209 0.090790138 -0.055105139
-0.010306264 0.090899669 -0.055316854
-0.010832665 0.091007695 -0.055519003
-0.011361844 0.091120221 -0.055749375
-0.01189263 0.09123531 -0.055996209
-0.01241365 0.091334298 -0.056141429
-0.012954333 0.091465801 -0.056491856
-0.013496098 0.091599017 -0.056853574
-0.014029965 0.091719232 -0.057132844
-0.014561868 0.091836177 -0.057391636
-0.01509394 0.091953442 -0.057651784
-0.015613869 0.092050761 -0.057786252
-0.016143218 0.092163526 -0.058018304
-0.016658306 0.092252679 -0.058101229
-0.017174188 0.092343345 -0.05819352
-0.017677564 0.092413239 -0.058154043
-0.018192183 0.092501715 -0.058232699
-0.018755693 0.092670634 -0.058820352
-0.019295266 0.092800453 -0.059160113
-0.019836869 0.092933439 -0.059520151
-0.01929076 0.091272488 -0.048527803
-0.019798579 0.091349773 -0.048535198
-0.021443525 0.093302324 -0.06041022
-0.020821359 0.091515988 -0.048624285
-0.021328449 0.091592066 -0.04862418
-0.021831453 0.091661401 -0.048581768
-0.022336233 0.091733694 -0.048557397
-0.022843199 0.091809571 -0.048556056
-0.023350451 0.09188588 -0.048557628
-0.023856094 0.091959529 -0.048542526
-0.024359787 0.092030004 -0.048506629
-0.024857979 0.092091449 -0.04841388
-0.025355503 0.09215153 -0.048313007
-0.02585369 0.092212953 -0.048220247
-0.026348729 0.092269219 -0.048094705
-0.026843069 0.0923241 -0.047960605
-0.02734077 0.092384867 -0.047863357
-0.027833721 0.092437491 -0.047715139
-0.028321845 0.092482232 -0.047516573
-0.028810546 0.092527986 -0.047324594
-0.029298145 0.092572078 -0.047122162
-0.02978633 0.092616715 -0.046923507
-0.030272441 0.092658304 -0.046704885
-0.030750595 0.092686594 -0.046402916
-0.031219846 0.092700355 -0.046007972
-0.031672917 0.092687212 -0.045443669
-0.032128904 0.092678964 -0.044909798
-0.032599278 0.092694566 -0.044526819
-0.03307711 0.092722267 -0.044220742
-0.03355711 0.092753649 -0.043938231
-0.034033023 0.092778318 -0.043612555
-0.034509812 0.092804328 -0.043295622
-0.03498866 0.092833817 -0.043000717
-0.035458338 0.0928481 -0.042609926
-0.035922337 0.092853233 -0.042161137
-0.036382232 0.09285152 -0.041668199
-0.036838587 0.092843898 -0.041138344
-0.037293408 0.09283378 -0.04059292
0.088034451 0.068741612 0.001228523
0.087500095 0.068862766 0.0009435676
0.086951002 0.069007888 0.00050586648
0.086415932 0.06913013 0.00021385122
0.085889503 0.069238171 1.1575408e-05
0.085347474 0.06937179 -0.00035261177
0.08476381 0.069573894 -0.0011516712
0.084176183 0.069782525 -0.0019914834
0.08361423 0.069949001 -0.0025641969
0.083020449 0.070167668 -0.0034681212
0.082459867 0.070331886 -0.0040266276
0.081001416 0.071973726 -0.013953923
0.080464512 0.072099023 -0.014265173
0.079946056 0.072193861 -0.014383662
0.079430118 0.07228443 -0.014475546
0.078925535 0.072356328 -0.014448604
0.078431204 0.07241147 -0.014315471
0.077939257 0.072462812 -0.014157716
0.077451289 0.072507471 -0.013958228
0.076986745 0.072513498 -0.013513956
0.076531127 0.072504953 -0.012976492
0.076091707 0.072469674 -0.012270411
0.075649172 0.072439648 -0.011596881
0.075171933 0.072466545 -0.01128475
0.074681312 0.072515644 -0.011113007
0.074195221 0.07255704 -0.010893088
0.073702812 0.072609209 -0.010740674
0.073208794 0.072663628 -0.010603215
0.072715715 0.072716691 -0.010456665
0.072222188 0.072770581 -0.010315456
0.071730092 0.072822027 -0.010158942
0.071231738 0.072883919 -0.010068299
0.070726052 0.072957672 -0.010053318
0.070207283 0.073052809 -0.010173873
0.069668874 0.073180638 -0.010501545
0.069146723 0.073281474 -0.010658197
0.068295255 0.072407499 -0.0036679718
0.067761824 0.072527081 -0.0039434023
0.067230448 0.072643042 -0.0041960599
0.066707 0.072746135 -0.0043670116
0.066183403 0.072849408 -0.0045388811
0.065664515 0.072945006 -0.0046619517
0.065146729 0.073038645 -0.0047730724
0.064632475 0.073126622 -0.0048479233
0.064118817 0.073213547 -0.004916288
0.063605845 0.073299311 -0.004977284
0.063099265 0.073374666 -0.00497192
0.062591955 0.073451109 -0.00497384
0.062080797 0.073533952 -0.0050163539
0.0615745 0.073608734 -0.0050078593
0.061070096 0.073680416 -0.0049792416
0.060566392 0.073751047 -0.0049443264
0.060068544 0.073811874 -0.0048477757
0.059570644 0.073872939 -0.0047517866
0.059072059 0.07393495 -0.0046624206
0.058577437 0.073990658 -0.0045324154
0.058086887 0.074039474 -0.004359351
0.057597354 0.074086778 -0.0041766316
0.057107106 0.074135095 -0.0039998973
0.056620304 0.074177861 -0.0037885439
0.05613156 0.074223742 -0.0035966849
0.055646744 0.074263193 -0.0033638775
0.055166937 0.074294515 -0.0030791387
0.054683506 0.074331582 -0.0028320041
0.054206688 0.074357957 -0.0025161626
0.053731147 0.074382156 -0.0021870036
0.053257599 0.074403018 -0.001836394
0.052780833 0.074429385 -0.0015204241
0.052308433 0.07444825 -0.0011577308
0.051833712 0.074471146 -0.0008199634
0.051359776 0.074492767 -0.00047380943
0.050893039 0.074502364 -5.2258372e-05
0.050426804 0.074511379 0.00037379283
0.049958453 0.074523762 0.00077791419
0.049498644 0.074522063 0.001271741
0.049040064 0.074518219 0.0017787572
0.048587486 0.074504748 0.0023469171
0.048145503 0.074473709 0.0030268012
0.040794767 0.073113285 0.019924216
0.040314868 0.073117472 0.020383906
0.039815687 0.073164329 0.020571116
0.033610869 0.081708975 -0.032227118
0.033073291 0.081835099 -0.032544233
0.032527443 0.08197508 -0.032948799
0.031985275 0.082108945 -0.033314448
0.030983973 0.082998388 -0.038471539
0.030446958 0.08312393 -0.038784556
0.029917393 0.083236948 -0.039018415
0.029394172 0.083339624 -0.039186589
0.028866798 0.083449103 -0.039397944
0.028344195 0.083550751 -0.039559625
0.02782182 0.083652005 -0.03971906
0.027295116 0.083760448 -0.039923802
0.026767997 0.083869494 -0.040132158
0.026242463 0.083975933 -0.040324595
0.025716029 0.084083915 -0.040526111
0.025186773 0.08419656 -0.040757913
0.024659492 0.084305994 -0.040968698
0.024131019 0.084417194 -0.041191038
0.023603482 0.084526911 -0.04140408
0.02308429 0.084623083 -0.041530501
0.022578713 0.084696703 -0.041515052
0.02208255 0.084754758 -0.041400403
0.021601738 0.084787734 -0.041126076
0.021124193 0.084815204 -0.04081751
0.020655176 0.084828645 -0.040420007
0.020183468 0.084846608 -0.040051233
0.019711273 0.084865376 -0.039687168
0.019236349 0.084888391 -0.03935077
0.018750459 0.084929615 -0.039128724
0.018244127 0.085004471 -0.039121211
0.017728856 0.085094094 -0.039206471
0.016898954 0.085701615 -0.042575337
0.016357385 0.085834339 -0.042934503
0.015761556 0.086056545 -0.043859906
0.015180955 0.08625368 -0.04462751
0.014624268 0.086411454 -0.045144752
0.01407955 0.086549491 -0.045537461
0.013529837 0.086695604 -0.045981333
0.012983266 0.086836837 -0.046393394
0.012447655 0.086959943 -0.046691328
0.011920912 0.087068282 -0.046895761
0.011399805 0.087167569 -0.04704199
0.010872088 0.087277651 -0.047257148
0.010331653 0.087408625 -0.047604889
0.0097860219 0.087548271 -0.048007432
0.0092574721 0.087659635 -0.048230875
0.0087314192 0.087767057 -0.048429236
0.0082104364 0.087865874 -0.048573263
0.0076913154 0.08796189 -0.048699114
0.0071734982 0.088055536 -0.048810139
0.0066489065 0.088160463 -0.048992742
0.006121912 0.088269465 -0.049200613
0.0055946466 0.088378802 -0.049411498
0.0050715497 0.08848124 -0.049577888
0.0045503918 0.088580452 -0.049724575
0.0040310863 0.088676706 -0.049851798
0.0035095699 0.088776514 -0.050001964
0.0029907543 0.088871926 -0.050123934
0.0024676425 0.088974558 -0.05029184
0.0019466598 0.089073487 -0.050436083
0.0014261352 0.089171819 -0.050576814
0.00090255402 0.089274928 -0.050747707
0.00038281642 0.089371964 -0.050880048
-0.00013846601 0.089471437 -0.051028505
-0.00066136336 0.089573473 -0.051192563
-0.0011834449 0.089674287 -0.051349089
-0.0017082368 0.089779615 -0.051534016
-0.0022386275 0.089894064 -0.051776927
-0.0027645021 0.090001196 -0.05197284
-0.0033055465 0.090133093 -0.052326851
-0.0038464335 0.090264827 -0.052678857
-0.0043951361 0.090409487 -0.05311361
-0.0049384246 0.09054517 -0.05349068
-0.005474451 0.090668775 -0.053792007
-0.005997235 0.090770826 -0.053956345
-0.0065135928 0.090862274 -0.05405312
-0.0070268055 0.090948462 -0.054116897
-0.0075414646 0.091036908 -0.054194923
-0.0080554355 0.091124445 -0.054266859
-0.0085695218 0.091212042 -0.054339595
-0.0090688094 0.091275297 -0.054258037
-0.0095689613 0.09134008 -0.054185655
-0.010077571 0.091418758 -0.054201651
-0.010598898 0.091518342 -0.054350235
-0.011129016 0.091632254 -0.054590233
-0.011652392 0.091735139 -0.05475954
-0.01219411 0.091868334 -0.055121131
-0.012752316 0.09202861 -0.055654269
-0.013302156 0.092174962 -0.05609991
-0.013841113 0.092303611 -0.056432422
-0.014391643 0.092451163 -0.056885656
-0.014907105 0.092541151 -0.056972727
-0.014556103 0.091205083 -0.048018698
-0.015076767 0.091303423 -0.048159368
-0.015592469 0.091393702 -0.048249003
-0.016098984 0.091468908 -0.048243072
-0.016607447 0.091547258 -0.048257388
-0.017118642 0.091630243 -0.048300568
-0.017633799 0.091719642 -0.048384279
-0.018147592 0.091806695 -0.048453882
-0.018659946 0.091891564 -0.048508927
-0.019172665 0.091976903 -0.048567448
-0.019681165 0.092055365 -0.048581902
-0.020192377 0.092138231 -0.048624542
-0.020701708 0.092218004 -0.048647821
-0.021209868 0.092295863 -0.048658472
-0.021711268 0.092362754 -0.048599817
-0.022215813 0.092434794 -0.048573416
-0.022723375 0.092511497 -0.048577048
-0.023232235 0.092590466 -0.048595294
-0.023741525 0.092670321 -0.048618339
-0.024245977 0.092742197 -0.048591144
-0.024744578 0.092804246 -0.048502535
-0.025241751 0.092864081 -0.04839829
-0.025738427 0.09292303 -0.048289869
-0.026232958 0.092978507 -0.048158322
-0.026727485 0.093033932 -0.048027307
-0.027222261 0.093089864 -0.047898758
-0.027713878 0.09314049 -0.047736995
-0.028207975 0.093195245 -0.047601607
-0.028700048 0.093246505 -0.047443897
-0.029191384 0.093296863 -0.047280189
-0.029681357 0.093344748 -0.047100764
-0.030166542 0.093384825 -0.046871975
-0.030646987 0.093417108 -0.046594489
-0.031124169 0.093443945 -0.046281379
-0.031585038 0.093444094 -0.045799382
-0.032033928 0.093424447 -0.045192081
-0.032496639 0.093427531 -0.044728789
-0.032975912 0.093457766 -0.044437923
-0.033458367 0.093493305 -0.044180501
-0.033941958 0.093530841 -0.043935474
-0.034423403 0.093564764 -0.043668177
-0.034905992 0.093600504 -0.043411989
-0.035376742 0.093616806 -0.043032393
-0.035835482 0.093613461 -0.042528022
-0.036297724 0.093615577 -0.042058948
-0.036756378 0.093612053 -0.041553792
-0.03721264 0.093604706 -0.041024014
-0.03766676 0.093593575 -0.040470671
-0.038129151 0.093596056 -0.040003806
0.088186413 0.069393031 0.0015405621
0.087656662 0.069506466 0.0013040458
0.087115988 0.069637693 0.00095459446
0.086576447 0.069767132 0.00061593112
0.086043283 0.069886111 0.00034448039
0.085501939 0.070018597 -1.310138e-05
0.084925994 0.070207946 -0.00073159905
0.084353089 0.070392199 -0.0014183316
0.083794668 0.070552781 -0.0019540298
0.083248958 0.070692323 -0.0023564834
0.082681119 0.070868291 -0.0029906246
0.082121134 0.071031399 -0.0035426531
0.080630913 0.072722241 -0.013799699
0.080119848 0.072804987 -0.013841102
0.079605013 0.07289397 -0.013921997
0.079098791 0.072968677 -0.013912614
0.078606248 0.073020905 -0.013760681
0.078128546 0.073048808 -0.0134537
0.077658921 0.073063508 -0.013063112
0.077335313 0.072838388 -0.011148369
0.076863512 0.072856627 -0.010780284
0.07635361 0.072937384 -0.010809379
0.075845987 0.07301449 -0.010814548
0.075340092 0.073088609 -0.010801369
0.074837998 0.073156528 -0.010749022
0.074334323 0.073227257 -0.010713877
0.07383275 0.073294498 -0.010656799
0.073328927 0.073365264 -0.010622357
0.072827905 0.073431335 -0.010557956
0.072325453 0.073500007 -0.010510057
0.071818694 0.073575608 -0.010506595
0.071303919 0.073664397 -0.010586384
0.07079266 0.073747545 -0.010630124
0.070273176 0.073844008 -0.010758711
0.069749072 0.073948264 -0.010936805
0.069226086 0.074050397 -0.01110197
0.068706974 0.074146405 -0.01122761
0.068184376 0.074248008 -0.011388749
0.067661613 0.074349895 -0.011552109
0.067140564 0.074449174 -0.011698529
0.067345113 0.073356502 -0.0042726193
0.066820666 0.073461227 -0.0044537578
0.066300049 0.073559619 -0.0045950618
0.065780148 0.07365682 -0.0047280095
0.06526114 0.073752515 -0.0048521012
0.064747885 0.073838949 -0.0049167564
0.064232945 0.073927984 -0.0049984441
0.063716948 0.074018821 -0.0050912062
0.063209072 0.07409627 -0.0050994791
0.062698185 0.074178629 -0.0051382273
0.062186603 0.074262239 -0.0051853256
0.061679687 0.074338168 -0.0051835356
0.061175991 0.074408762 -0.0051478595
0.060673486 0.074477479 -0.0051004076
0.060174759 0.074539945 -0.0050129285
0.059677061 0.074600607 -0.0049140621
0.059180815 0.074659117 -0.0048014857
0.058686081 0.074714988 -0.0046724956
0.0581953 0.074764423 -0.0045021102
0.05770696 0.07480976 -0.0043060035
0.057217352 0.074857332 -0.0041240668
0.05672982 0.074901246 -0.0039191358
0.056241006 0.074947432 -0.003728597
0.05575344 0.074991651 -0.0035250797
0.05527243 0.07502497 -0.0032525531
0.054792773 0.075056173 -0.0029665786
0.05431053 0.075091392 -0.0027062721
0.0538355 0.075114943 -0.0023715335
0.053359907 0.075139537 -0.0020436894
0.052883487 0.075165257 -0.0017233882
0.052411936 0.075183041 -0.0013520727
0.05193916 0.075202897 -0.00099426787
0.051464889 0.075225212 -0.00065158634
0.051001776 0.075229257 -0.00019286899
0.050536513 0.075236708 0.00024401117
0.050069932 0.075246289 0.00066680601
0.049611699 0.075242311 0.0011762157
0.049152233 0.075240359 0.0016731904
0.048692465 0.075238712 0.0021677827
0.048246756 0.075214058 0.0028084135
0.0413667 0.073900819 0.018990118
0.040884957 0.073909543 0.019423399
0.040404301 0.0739161 0.019870739
0.033737641 0.082397439 -0.032175053
0.03320102 0.082522176 -0.032482862
0.032654699 0.082662895 -0.032892771
0.032110468 0.082799993 -0.033280011
0.031550862 0.082962468 -0.033827797
0.030593161 0.083778694 -0.03852899
0.030056305 0.083903737 -0.038839366
0.029530447 0.084010884 -0.039035589
0.029000852 0.084123917 -0.039269358
0.028472342 0.084235311 -0.039493438
0.027950384 0.084336005 -0.039648406
0.027423263 0.084444985 -0.039857078
0.026891353 0.084561929 -0.040115867
0.026365913 0.084668279 -0.040307198
0.025841609 0.084772751 -0.040486339
0.025318082 0.084876031 -0.040658403
0.024798203 0.084973112 -0.040790908
0.024279319 0.08506871 -0.040913977
0.023760563 0.085164145 -0.041036356
0.023249622 0.085246548 -0.04107577
0.022754196 0.085303642 -0.040954366
0.022264734 0.085350804 -0.040769685
0.021781702 0.085387498 -0.040519059
0.021305855 0.085412428 -0.040192604
0.020839132 0.085422225 -0.03977127
0.020374211 0.085429206 -0.039331343
0.019912526 0.085430972 -0.038858075
0.019442786 0.085445702 -0.038467743
0.018959153 0.085483365 -0.038222842
0.018456904 0.085551649 -0.038172379
0.017956259 0.085617267 -0.038105246
0.017454607 0.085684493 -0.038047992
0.016512709 0.086474828 -0.042584702
0.015910001 0.086707994 -0.043582141
0.01532317 0.086915173 -0.044414211
0.01477051 0.087066226 -0.044889282
0.014222331 0.087209865 -0.045317583
0.013671817 0.087357312 -0.045770384
0.013120186 0.087506719 -0.046235364
0.01258279 0.087632723 -0.046551332
0.012048842 0.087753013 -0.046831701
0.011515886 0.087871619 -0.047100812
0.010978975 0.087996848 -0.047412604
0.010432567 0.088137597 -0.04782255
0.009883482 0.088282704 -0.04826026
0.0093522435 0.088398606 -0.04851244
0.0088214576 0.088513695 -0.048759267
0.0083009675 0.088611953 -0.048899017
0.0077830898 0.088705778 -0.049011461
0.0072638793 0.088801935 -0.04913757
0.006734808 0.088914208 -0.049367253
0.0062096892 0.089020081 -0.049555223
0.0056790123 0.089134969 -0.049801048
0.0051577054 0.089234374 -0.049948644
0.0046421066 0.089324623 -0.050038017
0.0041229315 0.089420654 -0.050164003
0.0036049178 0.089514799 -0.050277587
0.0030867709 0.089609027 -0.050392188
0.0025611287 0.089715756 -0.050585851
0.0020442111 0.089808077 -0.050688241
0.0015268968 0.089901194 -0.050795831
0.0010127854 0.089988925 -0.05086869
0.00049853744 0.090076722 -0.050942566
-1.4749356e-05 0.090163201 -0.051007662
-0.00053218566 0.090256348 -0.051115207
-0.0010521603 0.09035363 -0.051249038
-0.0015696529 0.090446971 -0.051357999
-0.0020902306 0.090545319 -0.05149886
-0.002607079 0.090637565 -0.051600348
-0.0031325957 0.090743981 -0.051792569
-0.0036606153 0.090854652 -0.052011076
-0.0041927574 0.090971865 -0.052271899
-0.0047215954 0.091083825 -0.052499007
-0.0052547324 0.091202825 -0.052770779
-0.0057772119 0.091304235 -0.052930683
-0.0063021518 0.091409773 -0.053117078
-0.0068147872 0.091495037 -0.053174496
-0.0073308516 0.091585957 -0.053268138
-0.0078418823 0.091668561 -0.053308882
-0.0083581088 0.091759808 -0.053404432
-0.0088631585 0.091832653 -0.053382955
-0.0093748774 0.091916434 -0.053430751
-0.0098870452 0.092000917 -0.053483684
-0.010392815 0.092075005 -0.053470243
-0.010903427 0.092157081 -0.053507045
-0.01140718 0.092227727 -0.053472042
-0.011938341 0.092343435 -0.053723115
-0.012375779 0.091548577 -0.04770457
-0.012880561 0.091620877 -0.047680188
-0.01339327 0.091706328 -0.047738716
-0.013904302 0.091789089 -0.047780208
-0.014419574 0.091878705 -0.047865473
-0.014931574 0.091962814 -0.047915958
-0.015448529 0.092055283 -0.048019003
-0.015964396 0.09214592 -0.048110526
-0.016476821 0.092230968 -0.048166677
-0.016987175 0.092312478 -0.048200265
-0.017499201 0.092396721 -0.048251197
-0.01801379 0.092485167 -0.048329405
-0.018528301 0.092573665 -0.04840694
