# .PCD v0.7 - Point Cloud Data file format
VERSION 0.7
FIELDS x y z
SIZE 4 4 4
TYPE F F F
COUNT 1 1 1
WIDTH 1319
HEIGHT 1
VIEWPOINT 0 0 0 1 0 0 0
POINTS 1319
DATA ascii
0.028491717 0.17060369 -0.0354339
0.027885564 0.17074388 -0.035324857
0.02735626 0.17084873 -0.035140671
0.026855381 0.17093985 -0.03492875
0.026317362 0.17104861 -0.034753159
0.025814746 0.17114158 -0.034542959
0.025301473 0.1712393 -0.034343183
0.024844687 0.17131078 -0.034088153
0.024371166 0.17139077 -0.033849571
0.02390622 0.17146587 -0.03360251
0.023482436 0.17152262 -0.033315264
0.023050219 0.17158316 -0.033036299
0.022659007 0.17162541 -0.03271731
0.022201145 0.17169735 -0.032463271
0.021819998 0.17173509 -0.032134496
0.021510137 0.17174003 -0.03173602
0.021151116 0.17176791 -0.031385563
0.020828841 0.17177838 -0.030999165
0.020478517 0.17180236 -0.030640218
0.020091753 0.17184159 -0.030316819
0.019710392 0.17187938 -0.02998808
0.019295543 0.17193218 -0.029692214
0.018841626 0.17200346 -0.029434498
0.018373812 0.17207983 -0.029190179
0.017793421 0.17220746 -0.029055897
0.017209373 0.1723378 -0.02892537
0.016685881 0.17244008 -0.028735526
0.016199954 0.17252454 -0.02850898
0.015821878 0.17256093 -0.028177127
0.01541396 0.17261063 -0.027874433
0.015029396 0.17264885 -0.027548887
0.0145106 0.172749 -0.027354453
0.0141325 0.17278542 -0.027022686
0.013767729 0.17281583 -0.026677705
0.013263701 0.17290837 -0.026468851
0.012844447 0.17296311 -0.026177268
0.012600067 0.17293884 -0.025714789
0.012342507 0.17292048 -0.025265373
0.01192385 0.17297493 -0.024973065
0.011698795 0.17294098 -0.024491731
0.011725383 0.17279381 -0.023764584
0.01016342 0.1733675 -0.024589207
0.0097356588 0.17342603 -0.024305772
0.0093462458 0.17346747 -0.023985025
0.0089440066 0.1735146 -0.023676736
0.0086808065 0.17349872 -0.023232728
0.011461395 0.17123568 -0.01552258
0.0108974 0.1713562 -0.015373533
0.01027206 0.17150789 -0.015287818
0.0095332991 0.17171334 -0.015318641
0.0088789565 0.17187823 -0.015262775
0.0082327239 0.17203943 -0.015198316
0.0075686248 0.17220986 -0.015152585
0.0069274595 0.17236872 -0.015082943
0.006474698 0.17243545 -0.014819452
0.0062771086 0.17237958 -0.014293339
-0.022015732 0.18513657 -0.041297577
-0.022886533 0.18539578 -0.041446842
-0.023942202 0.18573953 -0.041776955
-0.024836522 0.1860103 -0.041949332
-0.025689423 0.18626261 -0.042081296
-0.026462242 0.18647815 -0.042135105
-0.027141098 0.18665074 -0.042096995
-0.027682308 0.1867609 -0.041924551
-0.028121524 0.18682455 -0.041652288
-0.028533585 0.18687607 -0.041353658
-0.028953489 0.1869311 -0.041062579
-0.029356465 0.18697859 -0.040755168
-0.029711045 0.18700345 -0.040400296
-0.029968802 0.18698512 -0.039950822
-0.030220103 0.18696395 -0.039495166
-0.030527476 0.18696775 -0.039094239
-0.030840106 0.1869739 -0.038698532
0.051042963 0.16477925 -0.032383643
0.050169624 0.16503961 -0.032535549
0.049297929 0.16530028 -0.032685902
0.048412181 0.16556615 -0.032849893
0.047505166 0.16584259 -0.033034656
0.046519503 0.16615407 -0.033296391
0.045627657 0.16642372 -0.033466406
0.044921603 0.16660844 -0.03345485
0.044173881 0.16681279 -0.033484068
0.043417614 0.16701989 -0.033521581
0.042646542 0.16723463 -0.033573605
0.041777126 0.16749325 -0.033721689
0.041018602 0.16770241 -0.033761472
0.040245727 0.16791692 -0.033815205
0.03947084 0.16813338 -0.033870995
0.038746007 0.16832751 -0.033877861
0.038067084 0.16850013 -0.033839833
0.037376322 0.16867805 -0.03381345
0.03673229 0.16883405 -0.033741318
0.036082238 0.1689938 -0.033675138
0.035433121 0.16915314 -0.033608023
0.034900878 0.16925931 -0.033426754
0.032110725 0.17038898 -0.035450947
0.031331666 0.17060731 -0.035510782
0.030626062 0.17079183 -0.035498865
0.029988836 0.17094587 -0.035420116
0.029388182 0.17108253 -0.035305664
0.028814645 0.17120817 -0.035164785
0.028252047 0.17132786 -0.035013136
0.027724516 0.17143194 -0.034827281
0.027260456 0.17150667 -0.034579381
0.026718616 0.17161711 -0.034407437
0.026213363 0.17171125 -0.034199867
0.025718285 0.17180085 -0.033982322
0.025272641 0.17186737 -0.033716433
0.024802526 0.17194477 -0.033474427
0.024360068 0.17201093 -0.033205543
0.023943326 0.17206454 -0.032911416
0.023463607 0.17214622 -0.032678828
0.023031956 0.17220752 -0.032399278
0.022614665 0.1722614 -0.032105677
0.022178542 0.17232369 -0.03183065
0.021827692 0.17234792 -0.031472139
0.021451134 0.17238258 -0.031138789
0.021098478 0.17240764 -0.030782048
0.020742476 0.17243418 -0.0304287
0.020360511 0.17247228 -0.030100685
0.019989375 0.17250453 -0.029761955
0.019577892 0.1725558 -0.029462699
0.019129647 0.17262451 -0.02919938
0.018695921 0.17268573 -0.028921865
0.018207751 0.17277223 -0.028697599
0.017725993 0.17285484 -0.028466899
0.017248828 0.1729365 -0.028232019
0.0168307 0.17299072 -0.027939279
0.016447831 0.17302923 -0.027611978
0.016081445 0.17306042 -0.027268831
0.015710156 0.17309272 -0.026930261
0.01531413 0.1731371 -0.026615933
0.014904295 0.17318763 -0.026315063
0.014517667 0.17322783 -0.025991544
0.014178214 0.17324701 -0.025622059
0.013873251 0.17324972 -0.025218636
0.013618492 0.17323007 -0.024766359
0.013308607 0.17323501 -0.024367973
0.01295816 0.17325908 -0.024009088
0.012693052 0.17324406 -0.023566909
0.012543304 0.1731765 -0.023011915
0.012303334 0.17315026 -0.022545163
0.011787933 0.17324893 -0.022347543
0.011296904 0.17333567 -0.022125967
0.010945071 0.17336036 -0.021768466
0.011923064 0.17278165 -0.020112034
0.012611662 0.17159396 -0.01512399
0.012080003 0.17169981 -0.014941794
0.011434305 0.17186074 -0.014876895
0.0108061 0.17201266 -0.014793877
0.010196822 0.17215601 -0.014691609
0.0095876018 0.17229927 -0.014589158
0.0089855241 0.17243931 -0.014479435
0.0083989892 0.17257117 -0.014353611
0.0077639334 0.17272729 -0.014277895
0.0071460037 0.1728745 -0.014184341
0.006749101 0.17291477 -0.013863477
-0.022778656 0.18608451 -0.041387536
-0.023793261 0.18640891 -0.041677393
-0.024724063 0.18669593 -0.041885458
-0.025676809 0.18699273 -0.042114936
-0.026536312 0.18724692 -0.042253282
-0.027374309 0.18749256 -0.042370714
-0.028071959 0.18767352 -0.042350981
-0.028720349 0.18783258 -0.042283289
-0.029311121 0.18796486 -0.042159196
-0.029735841 0.18802199 -0.041872784
-0.029955797 0.18798682 -0.041386515
-0.030198935 0.187962 -0.040922817
-0.030542225 0.18798183 -0.040557023
-0.030889075 0.18800427 -0.040194616
-0.031139977 0.1879829 -0.039738588
0.052473117 0.16502224 -0.031734284
0.051351182 0.16539554 -0.032129053
0.050351217 0.16571338 -0.032404598
0.049343906 0.16603455 -0.032687441
0.048380297 0.16633618 -0.032927375
0.047401831 0.16664445 -0.033182058
0.046391785 0.16696683 -0.033467487
0.045415547 0.16727412 -0.033719927
0.044555753 0.16752841 -0.033858597
0.043747976 0.16775954 -0.033946432
0.043103889 0.16791557 -0.033874389
0.042484179 0.16806178 -0.033778578
0.041776434 0.16824725 -0.033768717
0.041119747 0.16840999 -0.033709038
0.040402219 0.16859981 -0.033708751
0.039666615 0.16879767 -0.033726051
0.038960852 0.16898228 -0.03371428
0.038276389 0.16915737 -0.033681691
0.037592344 0.16933224 -0.033648729
0.036949571 0.16948876 -0.033575419
0.036315508 0.16964139 -0.033493619
0.035650156 0.1698069 -0.033442296
0.035098784 0.16992159 -0.033279713
0.032040447 0.17117192 -0.035565954
0.031205071 0.17141533 -0.035680734
0.030538414 0.17158249 -0.035630766
0.029968942 0.17170528 -0.03548586
0.029437285 0.17181118 -0.03530407
0.028925862 0.17190808 -0.035102438
0.028374791 0.17202264 -0.034939535
0.027874693 0.17211446 -0.034726892
0.027411563 0.17218877 -0.034478076
0.02692527 0.17227447 -0.034251969
0.026449993 0.17235418 -0.034015015
0.025937697 0.17245142 -0.033814214
0.025486713 0.1725214 -0.033553686
0.019057419 0.17529672 -0.039132487
0.017999334 0.17564154 -0.039464775
0.016933892 0.1759886 -0.039804317
0.015937481 0.17630489 -0.040076528
0.015062661 0.17656589 -0.04022979
0.013970152 0.17692608 -0.040595781
0.012950268 0.17725281 -0.040890861
0.011983429 0.17755589 -0.041134119
0.010963292 0.17788275 -0.041429419
0.01001486 0.17817764 -0.041654602
0.0090294909 0.178489 -0.041916009
0.0081631951 0.17874622 -0.042061035
0.007266813 0.17901683 -0.042235449
0.0063620117 0.1792912 -0.042418033
0.005635038 0.17948632 -0.042427063
0.018938005 0.17332835 -0.028731834
0.018514514 0.17338498 -0.02844429
0.018090295 0.17344195 -0.028157514
0.013689463 0.17368148 -0.023341134
0.013364132 0.17369436 -0.022957768
0.013061364 0.17369607 -0.02255222
0.012929054 0.17362186 -0.021980494
0.012807202 0.1735419 -0.021398248
0.012618446 0.17349283 -0.020881532
0.012474178 0.17342287 -0.02032128
0.012298008 0.17336819 -0.019792229
0.012901993 0.17221823 -0.014881089
0.012477974 0.17227182 -0.014587978
0.012013462 0.17234498 -0.014336727
0.011509139 0.17243733 -0.014126343
0.011022262 0.17252173 -0.01389806
0.010411645 0.17266561 -0.013796996
0.009870559 0.17277575 -0.013624484
0.0091923429 0.17295149 -0.013592988
0.0085619725 0.17310548 -0.013512366
0.0080028977 0.17322378 -0.013358282
0.0075320778 0.1732998 -0.013113449
-0.023678891 0.18709369 -0.041611694
-0.024666552 0.18740605 -0.041875221
-0.025540479 0.18766774 -0.042027798
-0.026469633 0.18795298 -0.042234294
-0.027368721 0.18822481 -0.042411186
-0.028153263 0.18844555 -0.042476386
-0.028934378 0.18866482 -0.042538308
-0.029607873 0.18883501 -0.042495005
-0.030210596 0.18897258 -0.042382441
-0.030884232 0.18914285 -0.042339288
-0.031503011 0.1892876 -0.04224252
-0.032093268 0.18942069 -0.042118035
-0.032762352 0.18958892 -0.042070448
-0.033368982 0.18972827 -0.041961808
-0.033852693 0.18981278 -0.041733079
-0.034245297 0.18985566 -0.04141546
0.053764075 0.16533047 -0.031220879
0.05284144 0.1656128 -0.031420939
0.051743113 0.16597451 -0.03179263
0.050616406 0.16634886 -0.032191932
0.049568214 0.16668825 -0.032514643
0.048578463 0.16700155 -0.032780241
0.04760832 0.16730611 -0.03302671
0.046603911 0.16762489 -0.033306681
0.045500793 0.16798979 -0.033682991
0.044477858 0.16831686 -0.033981014
0.043549016 0.16860302 -0.034187153
0.042791162 0.16881083 -0.034226187
0.042089395 0.16899362 -0.034210514
0.041510154 0.16912074 -0.034075182
0.040950067 0.16923931 -0.033921078
0.040379323 0.16936265 -0.03377739
0.039737128 0.16951892 -0.033703551
0.03910375 0.16967121 -0.033621054
0.038443767 0.16983435 -0.033564553
0.037790187 0.16999565 -0.0335018
0.037155852 0.17014842 -0.033420324
0.036530636 0.17029604 -0.033329818
0.035857789 0.17046593 -0.033285908
0.035279293 0.17059273 -0.033149797
0.031814907 0.17202406 -0.035832476
0.031015877 0.17225127 -0.035911832
0.030263582 0.17245664 -0.035945527
0.029521665 0.17265733 -0.035969038
0.028695589 0.17289661 -0.036074802
0.027602792 0.17325585 -0.036441054
0.026550321 0.17359711 -0.036767874
0.025335819 0.17401169 -0.037253041
0.024396162 0.17430158 -0.037469696
0.023370448 0.17463094 -0.037770431
0.022239603 0.17500819 -0.038173839
0.021234525 0.17532727 -0.038454406
0.020159569 0.17567855 -0.038803212
0.019140534 0.17600495 -0.039097432
0.018054616 0.17636217 -0.03945709
0.01690525 0.17674664 -0.039878517
0.015897952 0.17706777 -0.040161263
0.014871724 0.17739734 -0.040462542
0.013814436 0.17774078 -0.040794127
0.012741974 0.17809093 -0.041140467
0.011775434 0.17839283 -0.041383374
0.010711102 0.17873938 -0.041721847
0.0097399959 0.17904437 -0.041969232
0.0087191556 0.17937155 -0.042265229
0.0078565823 0.17962712 -0.042406652
0.0068719769 0.17993706 -0.04266715
0.0060263667 0.18018508 -0.042792074
0.0052307025 0.18040971 -0.042867977
0.004340183 0.1806788 -0.043036804
0.0036313478 0.18086474 -0.043028008
0.0030480567 0.18099368 -0.042896561
0.0024627056 0.18112351 -0.042767093
0.013214694 0.17283125 -0.014615218
0.012810627 0.17287576 -0.014301666
0.012417312 0.17291434 -0.013976968
0.012050688 0.17294082 -0.013624938
0.011697373 0.1729601 -0.01325903
0.011194702 0.1730517 -0.013047044
0.010651907 0.17316262 -0.012876324
-0.025346424 0.18831593 -0.041884303
-0.026305921 0.18861473 -0.042120315
-0.027215969 0.18889144 -0.042308036
-0.028081674 0.18914837 -0.042452425
-0.028886545 0.18937819 -0.04253754
-0.02961389 0.18957241 -0.042546809
-0.030276727 0.1897368 -0.042493045
-0.030993573 0.18992631 -0.042492058
-0.031646475 0.19008733 -0.042428616
-0.032325923 0.19026022 -0.042391226
-0.032917805 0.19039297 -0.042268209
-0.033427373 0.19048905 -0.042064831
-0.033858001 0.19054879 -0.041784137
-0.034216188 0.19057633 -0.041432835
-0.03451008 0.1905752 -0.041018888
0.055147033 0.16558568 -0.030598413
0.054203253 0.16588838 -0.0308383
0.053281292 0.16617043 -0.031037755
0.052155674 0.16654427 -0.031435981
0.050977953 0.16694139 -0.031885207
0.049893461 0.16729693 -0.032243349
0.048906174 0.16760916 -0.032506596
0.047942825 0.16790962 -0.032746352
0.047035247 0.16818526 -0.032931708
0.046031795 0.16850361 -0.033210766
0.044757966 0.1689446 -0.033753764
0.043653827 0.16930895 -0.034131121
0.042730946 0.16959137 -0.0343314
0.041844249 0.16985659 -0.034496263
0.041130438 0.17004479 -0.034492388
0.040557571 0.17016906 -0.03435076
0.040055528 0.17026179 -0.034140032
0.039546959 0.17035739 -0.033935655
0.039029814 0.17045684 -0.033739612
0.038478594 0.17057146 -0.033576865
0.037890173 0.17070268 -0.033450481
0.037287928 0.17084113 -0.033337608
0.036708973 0.17096812 -0.033201959
0.036065124 0.17112404 -0.033129681
0.035490543 0.17125015 -0.032989781
0.034951568 0.17135932 -0.032815106
0.031021403 0.17299832 -0.035952739
0.030100545 0.17327984 -0.036151018
0.029205251 0.17354998 -0.036324356
0.028300125 0.17382453 -0.036507349
0.027376575 0.17410725 -0.036708228
0.02643694 0.17439716 -0.036924887
0.025426667 0.17471854 -0.037210498
0.024522208 0.1749928 -0.037392795
0.023500418 0.17531931 -0.03768966
0.0224609 0.17565481 -0.038003955
0.021374496 0.17601122 -0.038363926
0.020244826 0.17638692 -0.038766243
0.019142842 0.17675023 -0.039141338
0.018057778 0.17710604 -0.03950011
0.016836174 0.17752269 -0.039992098
0.015817225 0.17784904 -0.040286358
0.014620742 0.17825453 -0.040753864
0.013281878 0.17872451 -0.041360393
0.012254878 0.17905334 -0.041662306
0.011265364 0.17936657 -0.041927781
0.010323535 0.17965746 -0.042146578
0.0093729068 0.17995223 -0.042373855
0.0084329685 0.18024231 -0.042590924
0.0075144814 0.18052277 -0.042786919
0.0065802988 0.18081026 -0.042998098
0.0057500675 0.18105033 -0.043107875
0.0048102848 0.18134135 -0.043324739
0.0040143933 0.18156615 -0.043401085
0.0032759067 0.18176529 -0.043421131
0.0025618002 0.18195361 -0.043417558
0.0018605553 0.18213618 -0.043401338
0.0012975372 0.18225607 -0.043250166
-0.0054708626 0.18383558 -0.042148676
-0.0058984999 0.18389404 -0.041865177
-0.0063530635 0.18396555 -0.041607969
-0.027059186 0.18955626 -0.042200878
-0.027859021 0.18978275 -0.042280946
-0.028708436 0.19003242 -0.04240942
-0.029455554 0.19023547 -0.042438071
-0.030142032 0.19041148 -0.042407468
-0.030888714 0.19061428 -0.042435654
-0.031576518 0.19078982 -0.042406213
-0.032227248 0.19094986 -0.042340729
-0.032817304 0.19108182 -0.042215854
-0.033307549 0.19116928 -0.041993655
-0.033737246 0.19122864 -0.04171215
-0.034075979 0.19124749 -0.041341871
-0.034335162 0.19123088 -0.040893912
0.05566572 0.16610911 -0.03012101
0.054779787 0.16638583 -0.030303303
0.053853992 0.16668041 -0.030525167
0.052575435 0.1671225 -0.031072907
0.051314749 0.1675566 -0.03160309
0.050198633 0.16792519 -0.031992115
0.049223132 0.16823107 -0.032243747
0.048301738 0.16851285 -0.032442562
0.047386721 0.16879073 -0.032635149
0.046526384 0.16904528 -0.03277434
0.045588847 0.16933317 -0.032988891
0.044423573 0.16972473 -0.033425942
0.042900573 0.17027687 -0.034212347
0.041813836 0.17063341 -0.034572713
0.041019216 0.17085762 -0.034647748
0.040246814 0.1710719 -0.034701027
0.039517209 0.17126711 -0.034712519
0.038964644 0.17138234 -0.034551069
0.038475689 0.17146814 -0.034327518
0.038083307 0.17151198 -0.034009628
0.037697002 0.171552 -0.033685807
0.03726374 0.17161407 -0.033407878
0.036742717 0.17171523 -0.033215672
0.036157805 0.17184488 -0.033085838
0.035601582 0.17196174 -0.032927994
0.034919873 0.17213562 -0.03289273
0.031201571 0.17367595 -0.0358233
0.030270889 0.17396185 -0.036031246
0.0293625 0.17423677 -0.03621731
0.028450312 0.17451446 -0.036407191
0.02754969 0.17478697 -0.036585726
0.026582571 0.17508806 -0.036829121
0.025640765 0.17537895 -0.03704793
0.024710279 0.17566475 -0.037255626
0.023707934 0.17598262 -0.037533518
0.022724662 0.176292 -0.037792809
0.021543112 0.17668976 -0.038245652
0.020271199 0.17712989 -0.038786918
0.016677218 0.17861481 -0.041596115
0.015598418 0.17896675 -0.041948609
0.014590033 0.17928731 -0.04223239
0.013602471 0.17959858 -0.042495914
0.012622274 0.17990656 -0.042752124
0.011837342 0.18012649 -0.042817652
0.010901165 0.18041483 -0.043030955
0.01015448 0.18061766 -0.043059129
0.009416244 0.18081567 -0.043078996
0.00862676 0.18103755 -0.043148961
0.007853426 0.18125227 -0.043203156
0.006992124 0.18150724 -0.043343276
0.0062235743 0.18171984 -0.043392912
0.005457731 0.18193123 -0.043439746
0.0046025049 0.18218243 -0.043573935
0.0037859287 0.18241644 -0.043670394
0.0030029099 0.18263547 -0.043734103
0.0022038966 0.18286267 -0.043813363
0.0014364794 0.18307474 -0.043861836
0.00073966011 0.1832543 -0.043841302
4.7553331e-05 0.18343276 -0.043816112
-0.00048838183 0.1835406 -0.043638445
-0.0043736268 0.18435492 -0.042525433
-0.0049192198 0.18446703 -0.042357162
-0.0055062659 0.1845987 -0.04222944
-0.0060927663 0.18472907 -0.042101234
-0.0066687241 0.18485473 -0.041962579
-0.0070512388 0.18489309 -0.0416351
-0.0073301699 0.18488529 -0.041206423
-0.0074814875 0.18481952 -0.04065311
-0.028497025 0.19067818 -0.042249043
-0.029165674 0.19084622 -0.04220099
-0.029901069 0.19104403 -0.042218253
-0.030647404 0.19124562 -0.042245891
-0.031336661 0.19142285 -0.042218063
-0.031972032 0.19157501 -0.042137533
-0.03256505 0.19170934 -0.042015716
-0.033059504 0.1917976 -0.041797411
-0.03347845 0.19185324 -0.04150546
-0.033828776 0.19187728 -0.041146521
-0.034108959 0.19187 -0.040719081
0.057130173 0.16632967 -0.029399723
0.056268189 0.16659336 -0.029557366
0.055438567 0.16684231 -0.029681768
0.054662175 0.16706596 -0.029751409
0.053030752 0.16768485 -0.030674968
0.051567964 0.16820906 -0.031402655
0.050455473 0.16857605 -0.031788059
0.049449347 0.1688945 -0.032069564
0.048550453 0.16916625 -0.032246426
0.047683604 0.16942267 -0.032392032
0.046828538 0.1696738 -0.032525968
0.045964733 0.16992885 -0.032668587
0.045122504 0.17017429 -0.032790054
0.044224314 0.17044464 -0.032966185
0.042182475 0.17122912 -0.034259293
0.04104314 0.17160805 -0.034670975
0.040139046 0.17188212 -0.034852974
0.039294515 0.17212857 -0.034976657
0.038599115 0.17230749 -0.034954745
0.037941247 0.17247073 -0.034896217
0.037459545 0.17255329 -0.034665532
0.036955953 0.1726467 -0.034456253
0.036704164 0.17262676 -0.034001101
0.036452711 0.17260671 -0.033545557
0.03605134 0.17265451 -0.033236474
0.035408657 0.17280993 -0.033163045
0.034671105 0.1730087 -0.033182357
0.033797503 0.17326811 -0.033334441
0.030746026 0.17450693 -0.035613772
0.029757353 0.17481764 -0.035878204
0.028766342 0.17513044 -0.036145084
0.027844952 0.17541115 -0.036343861
0.026831929 0.17573377 -0.036632154
0.025935665 0.17600331 -0.036806446
0.024951514 0.17631307 -0.037066579
0.020254347 0.17829083 -0.040953144
0.019401055 0.17854118 -0.041085411
0.018482029 0.17882085 -0.041281898
0.01744603 0.17915371 -0.041592609
0.016497843 0.17944641 -0.041817661
0.015435866 0.17979084 -0.042153798
0.014383837 0.18013085 -0.042480201
0.013378642 0.18044999 -0.042760838
0.012383402 0.18076362 -0.043031707
0.011369312 0.18108676 -0.043321181
0.010387765 0.18139426 -0.04357864
0.0093278447 0.1817378 -0.043912794
0.0083422251 0.1820482 -0.044174384
0.0075548002 0.18226922 -0.044242375
0.0068126805 0.18246895 -0.044266071
0.0059589893 0.18271945 -0.044398721
0.0055117328 0.18278773 -0.044134401
0.0048959702 0.18293114 -0.044034727
0.0041396264 0.18313828 -0.044072323
0.0034604818 0.18331102 -0.044034518
0.0027951319 0.18347654 -0.043983296
0.001958428 0.18371949 -0.044099327
0.001170449 0.18394075 -0.044167854
0.00035814196 0.18417282 -0.044260189
-0.0003734529 0.18436787 -0.044273525
-0.0010132473 0.18452305 -0.044197321
-0.0014967155 0.18460746 -0.043968454
-0.003160255 0.18482254 -0.042788744
-0.0037083644 0.18493579 -0.042623028
-0.0042832233 0.18506096 -0.042483304
-0.0049416479 0.1852234 -0.042425264
-0.0055872686 0.18538117 -0.042354807
-0.0062677935 0.18555345 -0.042318344
-0.0067632142 0.18564318 -0.042101
-0.0070721544 0.18564875 -0.041701749
-0.0072602294 0.18560043 -0.041184373
-0.0074289106 0.18554346 -0.040647905
-0.0076355115 0.18550341 -0.04014869
-0.030456573 0.19190055 -0.042105652
-0.031037524 0.19202948 -0.041971952
-0.031599995 0.19214912 -0.041820243
-0.032200977 0.19228595 -0.041706108
-0.032726407 0.19238907 -0.041518167
-0.033176586 0.19245866 -0.041256778
-0.033550814 0.19249333 -0.040921174
0.058433775 0.16662769 -0.028844118
0.05769242 0.16683437 -0.028877761
0.056974366 0.16702934 -0.028887223
0.056248017 0.16722803 -0.028905209
0.055607125 0.16738571 -0.0288353
0.055206276 0.16742881 -0.028518509
0.05169794 0.16891645 -0.031322412
0.050695494 0.16923332 -0.031600416
0.049687814 0.16955251 -0.031883463
0.048750386 0.16984142 -0.032097992
0.047904063 0.17008758 -0.032223292
0.047056675 0.17033534 -0.032349914
0.046188883 0.17059214 -0.032496352
0.045404598 0.17081176 -0.032561269
0.044599306 0.17103966 -0.032646652
0.043685429 0.17131701 -0.032838084
0.042857267 0.17155617 -0.032945868
0.040196791 0.17261747 -0.034843225
0.039302349 0.17288512 -0.035015624
0.038456537 0.17313217 -0.035140615
0.037662286 0.17335621 -0.035215262
0.036955439 0.1735402 -0.035204522
0.036308363 0.17369862 -0.035135426
0.03579608 0.17379591 -0.034934632
0.035309777 0.17388053 -0.034708478
0.03493778 0.17391528 -0.034370691
0.034734569 0.17387371 -0.033868078
0.034241207 0.17396255 -0.033648856
0.032907002 0.17442834 -0.034250792
0.031146206 0.17508541 -0.035269454
0.030091893 0.17542642 -0.035598088
0.029113416 0.1757326 -0.035852678
0.028128454 0.17604165 -0.036113519
0.027134104 0.1763549 -0.036383543
0.022385878 0.17835225 -0.040319882
0.021333981 0.17869118 -0.040646195
0.020364689 0.1789943 -0.040891778
0.019465793 0.17926501 -0.041068688
0.018488219 0.17957078 -0.041322343
0.017506924 0.17987816 -0.041579589
0.016558873 0.18017083 -0.041804481
0.015536699 0.18049645 -0.042101681
0.014475536 0.18084055 -0.042437062
0.013404612 0.18118791 -0.042781871
0.012388542 0.18151082 -0.043072999
0.011223516 0.18190123 -0.043509886
0.010210589 0.18222275 -0.043798059
0.0090935435 0.18259177 -0.044187892
0.0080346009 0.18293379 -0.044521093
0.0071644634 0.18319166 -0.044669818
0.0061780699 0.18350135 -0.044932026
0.0054240637 0.18370639 -0.044967376
0.0047041755 0.18389727 -0.04496938
0.0039451979 0.18410558 -0.045009583
0.0034727883 0.18418404 -0.044769883
0.002914777 0.18430169 -0.044613704
0.0022788234 0.18445517 -0.044533826
0.0015458316 0.18465082 -0.044548571
0.00086692721 0.18482345 -0.044510648
8.8552013e-05 0.18503931 -0.044569582
-0.00071905926 0.18526933 -0.044657335
-0.0013921279 0.18543829 -0.044613607
-0.0019958615 0.18557632 -0.044502139
-0.0024971124 0.18566866 -0.04429055
-0.002668744 0.18561302 -0.043757088
-0.0029399712 0.18560284 -0.043320984
-0.0033111256 0.18563612 -0.042982295
-0.0038016383 0.18572369 -0.04276032
-0.0043714177 0.1858466 -0.042615727
-0.0050383713 0.1860128 -0.042565919
-0.0057570636 0.18620318 -0.042566892
-0.0063588582 0.18634036 -0.042453498
-0.0067670513 0.18639122 -0.042151075
-0.0070167184 0.18637037 -0.041693859
-0.0071793646 0.18631072 -0.041151602
-0.0073145162 0.1862388 -0.040582474
-0.0074875355 0.18618377 -0.040050413
-0.013432231 0.1847399 -0.024122361
-0.013897605 0.18481627 -0.023875818
-0.014364488 0.18489227 -0.023630675
-0.014715228 0.18491751 -0.023272153
-0.015000619 0.18491256 -0.022849735
0.059740793 0.16692635 -0.02828522
0.058957689 0.16715197 -0.028361611
0.058249764 0.16734232 -0.028360691
0.057625223 0.1674915 -0.028273925
0.057058793 0.16761424 -0.028127495
0.056563068 0.16770266 -0.027908273
0.056061257 0.16779386 -0.027695339
0.055503126 0.16791281 -0.027540389
0.050930835 0.16989371 -0.031417225
0.049967878 0.17019296 -0.03165666
0.048998155 0.1704942 -0.031902723
0.04811601 0.1707574 -0.032063149
0.047267947 0.17100544 -0.032190375
0.046425864 0.17124975 -0.032311648
0.04559828 0.17148863 -0.032418806
0.044805679 0.17171086 -0.032491799
0.04394538 0.17196435 -0.032630961
0.043138657 0.17219292 -0.032717727
0.042303067 0.17243537 -0.032832786
0.039492242 0.1735616 -0.034876838
0.038491786 0.17387649 -0.035152797
0.037552394 0.17416523 -0.035369184
0.036560696 0.17447732 -0.035636704
0.035735685 0.17471401 -0.035741288
0.034967624 0.17492636 -0.035790373
0.034147475 0.1751609 -0.035890207
0.033157263 0.1754723 -0.036156286
0.032396697 0.17568131 -0.036198009
0.033145066 0.1752134 -0.034766
0.029082373 0.17690089 -0.0380328
0.027958171 0.17727204 -0.038429655
0.026709735 0.17769855 -0.038947824
0.02564227 0.17804441 -0.039289255
0.024772231 0.17830117 -0.039437864
0.023578158 0.17870453 -0.039903056
0.022551153 0.17903127 -0.040204965
0.021586999 0.17933103 -0.040445432
0.020654958 0.17961651 -0.040654734
0.019777907 0.17987642 -0.040810235
0.018841077 0.18016401 -0.041024081
0.017951194 0.18043067 -0.041192096
0.017007355 0.18072033 -0.0414127
0.016038569 0.1810222 -0.041657887
0.014998732 0.18135573 -0.041972298
0.013738037 0.18178773 -0.042502493
0.012698726 0.18212098 -0.042816471
0.011484622 0.18253221 -0.043301009
0.010340732 0.18291317 -0.043717217
0.0090396041 0.18336318 -0.044286817
0.0079407375 0.18372303 -0.044659056
0.0069301566 0.18404351 -0.044944927
0.0058653187 0.18438816 -0.045283757
0.0049820598 0.18465082 -0.045445308
0.0041740518 0.18488103 -0.045533426
0.0034038052 0.18509328 -0.0455845
0.0026666448 0.18529081 -0.045603391
0.0020807087 0.18542197 -0.045474593
0.0015161801 0.18554254 -0.045324862
0.00098549761 0.18564799 -0.045142069
0.0004113093 0.18577288 -0.045001753
-0.00028206222 0.18595091 -0.044977844
-0.0010537263 0.18616381 -0.045030404
-0.00173923 0.18633938 -0.044998795
-0.0023259707 0.18646982 -0.044870712
-0.0029019993 0.18659554 -0.04473234
-0.003166113 0.1865811 -0.044289105
-0.003187906 0.18645865 -0.043609321
-0.00357664 0.18650083 -0.043287914
-0.0040391181 0.18657592 -0.043038543
-0.0045747645 0.1866836 -0.042860553
-0.0052278228 0.18684363 -0.04279732
-0.0058963113 0.18701054 -0.042749062
-0.0063796174 0.18709488 -0.042519946
-0.0067051239 0.18710889 -0.042136874
-0.0069137178 0.1870697 -0.041639362
-0.0070583336 0.18700309 -0.041079655
-0.0071791001 0.18692473 -0.040496428
-0.0073637199 0.18687488 -0.039975688
-0.0018518139 0.18110482 -0.017065369
-0.0021281336 0.18109587 -0.016634177
-0.0026103295 0.18117972 -0.016403995
-0.0031393878 0.18128447 -0.016219679
-0.012119152 0.18517256 -0.024288654
-0.012690581 0.18529621 -0.024145655
-0.013288226 0.18543153 -0.024028212
-0.013844576 0.18554844 -0.02387042
-0.014310792 0.18562517 -0.023624726
-0.01462926 0.18563607 -0.023234762
-0.01488398 0.18561745 -0.022782337
-0.015094858 0.18558037 -0.022287283
0.06206397 0.16688789 -0.027410064
0.061238069 0.16713409 -0.027530525
0.060236864 0.1674633 -0.027831309
0.059562609 0.16763721 -0.027795695
0.058938861 0.16778712 -0.02770821
0.05837509 0.16790865 -0.027559076
0.057834178 0.16801868 -0.027386311
0.057243127 0.16815262 -0.027265139
0.056592409 0.16831481 -0.027205292
0.05577803 0.16855574 -0.027313899
0.054929323 0.1688123 -0.027457755
0.05058226 0.17068335 -0.031103402
0.049578607 0.17099971 -0.031382497
0.048475351 0.17136152 -0.031758923
0.04763101 0.17160682 -0.031882528
0.046747081 0.17186975 -0.032044671
0.045824178 0.17215115 -0.032244895
0.044972382 0.17239979 -0.032375764
0.044127006 0.17264555 -0.032500248
0.043290406 0.17288741 -0.032616168
0.042386226 0.17316045 -0.032798193
0.041295838 0.17351547 -0.033162031
0.040041927 0.17394443 -0.033685554
0.037600361 0.17490393 -0.03536896
0.036475442 0.17527431 -0.035766456
0.035592809 0.17553777 -0.035927434
0.034575213 0.17586032 -0.036220167
0.033527382 0.17619741 -0.036542483
0.032517858 0.17651635 -0.036827326
0.031363182 0.17690107 -0.037253957
0.030116413 0.17732581 -0.03777048
0.029029058 0.17768052 -0.038131364
0.027894873 0.17805505 -0.03853789
0.026794687 0.17841546 -0.038911339
0.025755117 0.17874779 -0.039225485
0.024930932 0.17898519 -0.039329369
0.023873275 0.1793256 -0.039661206
0.022926781 0.17961648 -0.039884511
0.022102231 0.17985399 -0.039988685
0.021246701 0.1801043 -0.040123232
0.020428542 0.18033794 -0.040221065
0.019692203 0.18053509 -0.040239196
0.018846219 0.18078221 -0.040364347
0.018112665 0.18097813 -0.040379714
0.017434077 0.18114956 -0.040341336
0.016777596 0.1813111 -0.040281381
0.016121227 0.18147261 -0.040221356
0.015588045 0.18157922 -0.040041011
0.0122121 0.18295631 -0.04263702
0.011372078 0.18319972 -0.042756312
0.0091238916 0.18407297 -0.044250809
0.0080627818 0.18441495 -0.04458601
0.006798923 0.18484835 -0.045119248
0.0057648718 0.18517824 -0.045428056
0.0048365705 0.18546203 -0.045633659
0.0038681366 0.18576266 -0.04587831
0.0029653963 0.18603401 -0.046058923
0.002192473 0.18624854 -0.046112753
0.0014108811 0.18646586 -0.046174932
0.00079430267 0.18660964 -0.046076018
0.00027312711 0.18671089 -0.045883961
-0.00016487762 0.186775 -0.045610614
-0.00074984133 0.1869047 -0.045480862
-0.0013829842 0.18705584 -0.04539809
-0.002008155 0.18720345 -0.045307606
-0.0026762597 0.1873702 -0.04525907
-0.0034175366 0.18756956 -0.045281917
-0.0040867236 0.18773678 -0.04523436
-0.0042800326 0.18769184 -0.044722062
-0.0039411075 0.1874086 -0.04368997
-0.004311597 0.18744263 -0.043350726
-0.0048303027 0.1875428 -0.043156318
-0.0054156557 0.18767262 -0.043026857
-0.0059677418 0.18778765 -0.042864949
-0.0063722432 0.18783687 -0.042559028
-0.0066355579 0.18782316 -0.042115077
-0.0068270713 0.1877774 -0.041601017
-0.0069456883 0.18769816 -0.041015841
-0.0070597194 0.18761784 -0.040426079
-0.0072419643 0.18756692 -0.039902959
-0.01028648 0.1887963 -0.042175289
-0.0019995961 0.18206507 -0.017957497
-0.002021404 0.18194368 -0.017277751
-0.0024490803 0.18200324 -0.016994394
-0.0034292545 0.18230909 -0.017250523
-0.011278495 0.18568476 -0.024215281
-0.011955131 0.1858553 -0.024174985
-0.012598339 0.18601093 -0.024102002
-0.013272248 0.18618026 -0.024059121
-0.013824213 0.18629523 -0.023897152
-0.014217217 0.18633932 -0.023579869
-0.014506631 0.18633722 -0.023161408
-0.014741693 0.18631092 -0.022690013
-0.014979314 0.18628575 -0.022220951
0.062540554 0.16743584 -0.026976332
0.06176747 0.16765691 -0.027042408
0.060891714 0.16792688 -0.02721414
0.060225472 0.16809611 -0.027170364
0.059676651 0.16820976 -0.027005747
0.059055913 0.16835828 -0.026915062
0.058393579 0.1685268 -0.026867304
0.057651006 0.16873293 -0.026902042
0.05689282 0.16894616 -0.026952825
0.0558809 0.16928129 -0.027264655
0.053500094 0.17026839 -0.02898439
0.052191909 0.17073004 -0.029578213
0.050954878 0.17115146 -0.030085184
0.049562044 0.17164129 -0.030744374
0.04811313 0.17215614 -0.031458374
0.046984889 0.17252803 -0.031859171
0.045948118 0.17285912 -0.032170556
0.045016471 0.17314336 -0.032379419
0.044025313 0.17345414 -0.032646261
0.043096676 0.17373702 -0.032852117
0.042169608 0.1740192 -0.033056453
0.041140385 0.17434694 -0.033360504
0.040223174 0.17462476 -0.03355518
0.039382383 0.17486846 -0.033675246
0.038529046 0.17511778 -0.033807542
0.035676483 0.1762584 -0.035892308
0.034509502 0.17664754 -0.036330909
0.033492349 0.1769699 -0.036623172
0.032360252 0.1773435 -0.03702772
0.03131222 0.17767963 -0.037350141
0.030200306 0.17804423 -0.037735026
0.029138055 0.17838776 -0.038071435
0.028030595 0.17875037 -0.038451862
0.027055183 0.17905411 -0.038703416
0.026081556 0.17935707 -0.038953207
0.02529636 0.17957598 -0.03901891
0.024458503 0.17981842 -0.039136149
0.02362898 0.18005714 -0.039245185
0.022796851 0.18029697 -0.039356738
0.022051949 0.18049799 -0.039383199
0.021201028 0.18074624 -0.039513133
0.020312397 0.18101127 -0.03967987
0.019493472 0.18124525 -0.039778676
0.018709941 0.18146345 -0.039842777
0.017995603 0.18165082 -0.039839294
0.017311485 0.1818247 -0.039806359
0.016664248 0.18198213 -0.039737374
0.016074721 0.18211383 -0.039612059
0.015498311 0.1822397 -0.039473969
0.015005039 0.18232852 -0.039254673
0.011442335 0.18378571 -0.042032834
0.010660313 0.18400323 -0.042095479
0.0069443788 0.18552984 -0.045023516
0.0058663059 0.18587935 -0.045375235
0.0048270039 0.18621156 -0.045689158
0.0036759935 0.18659359 -0.046112146
0.0027428623 0.1868785 -0.046322465
0.0018163994 0.18716042 -0.046526171
0.00099505112 0.18739545 -0.046627156
0.00030730665 0.18757096 -0.046597835
-0.00034642033 0.18773131 -0.046535201
-0.00088067539 0.18783836 -0.046355836
-0.0013572462 0.18791971 -0.046120241
-0.0018210597 0.18799534 -0.045872055
-0.0024022013 0.18812336 -0.045738652
-0.0032231696 0.18835826 -0.045839351
-0.0039107352 0.18853368 -0.045809783
-0.0047221389 0.18876429 -0.045901041
-0.0055092648 0.18898408 -0.04596867
-0.0043087788 0.18831778 -0.044095259
-0.004545616 0.18829225 -0.043625534
-0.0050518811 0.18838684 -0.043418959
-0.0055537075 0.18847945 -0.043207988
-0.0060397945 0.18856506 -0.042981647
-0.0064544324 0.18861876 -0.042685386
-0.006818885 0.18865016 -0.042340361
-0.0082785338 0.18916978 -0.043064736
-0.0089082234 0.18931939 -0.042978607
-0.0094692968 0.1894384 -0.042825505
-0.0099099427 0.18950374 -0.042554758
-0.010261532 0.1895294 -0.042197078
-0.010540035 0.18952243 -0.041767985
-0.0019943528 0.18282597 -0.017999128
-0.0024388265 0.18289299 -0.017732032
-0.0032344162 0.18311657 -0.017808031
-0.010306429 0.18613829 -0.024013355
-0.011127543 0.18637326 -0.024114203
-0.011945195 0.18660668 -0.024211697
-0.012706418 0.18681601 -0.024254128
-0.013383653 0.18698682 -0.024214547
-0.013826076 0.18705294 -0.023945477
-0.014136888 0.18706039 -0.023547906
-0.014392089 0.187042 -0.023096137
-0.014624987 0.18701468 -0.022622384
-0.01487371 0.18699448 -0.022164304
-0.015125856 0.18697578 -0.021709502
0.063886538 0.16771887 -0.026377466
0.063138366 0.16792753 -0.02641793
0.062355705 0.1681519 -0.026493806
0.061642699 0.16834456 -0.026498169
0.060960229 0.16852225 -0.026471108
0.060259406 0.16870829 -0.026462752
0.059482623 0.16892999 -0.026532691
0.058671661 0.16916938 -0.026637711
0.057673879 0.16949596 -0.026934862
0.05586059 0.1702119 -0.028070919
0.054417301 0.17075194 -0.028826382
0.053454135 0.17106272 -0.029087972
0.052361891 0.17142063 -0.029458996
0.051212098 0.17180213 -0.029880848
0.04999122 0.17221425 -0.030372065
0.046590798 0.17359701 -0.032991719
0.045858849 0.17379221 -0.033005465
0.045066368 0.17401442 -0.03307838
0.044253539 0.17424567 -0.033171117
0.043453485 0.17447123 -0.033251375
0.042685755 0.17468132 -0.033300065
0.041893385 0.17490345 -0.033372816
0.041089822 0.17513061 -0.033456523
0.040316865 0.17534408 -0.033510402
0.039537806 0.17556028 -0.033570129
0.038683571 0.17580897 -0.033703227
0.037033617 0.17641343 -0.034613535
0.03523067 0.17708506 -0.03567319
0.034023542 0.17749107 -0.036151033
0.032777138 0.1779156 -0.036667153
0.031667173 0.17827828 -0.037050087
0.03063067 0.17860925 -0.037361253
0.02955037 0.17895871 -0.037715156
0.028517609 0.17928801 -0.038022753
0.027613485 0.17955999 -0.038204655
0.026745904 0.17981568 -0.038350891
0.026035955 0.17999999 -0.038343083
0.025283378 0.18020438 -0.038376942
0.024550237 0.18040013 -0.038391937
0.023640316 0.18067467 -0.038579497
0.02266359 0.18097898 -0.038832266
0.021694021 0.18127911 -0.039078124
0.02065916 0.18160935 -0.039387677
0.01977271 0.18187343 -0.039552368
0.019004408 0.18208379 -0.039601475
0.018280219 0.18227552 -0.039607756
0.017637134 0.18243112 -0.039534695
0.017069131 0.18255323 -0.039388437
0.016516777 0.18266837 -0.039226741
0.015956804 0.18278691 -0.039072581
0.015419794 0.1828952 -0.038895883
0.015033525 0.1829363 -0.038572121
0.011193659 0.18451498 -0.041621007
0.010169011 0.18483959 -0.04192058
0.0092897583 0.1851005 -0.042078234
0.0085037593 0.18531975 -0.042144693
0.0036949795 0.18732934 -0.046139851
0.0026615448 0.18765789 -0.046447888
0.0015143938 0.18803817 -0.046867132
0.00072793663 0.18825771 -0.046934158
-2.6647002e-05 0.188463 -0.046970136
-0.00066216104 0.18861522 -0.046889748
-0.0012055226 0.18872635 -0.046719261
-0.0017189533 0.18882412 -0.046519622
-0.0022481252 0.18892892 -0.046335377
-0.0029139742 0.18909362 -0.046284467
-0.003566362 0.18925335 -0.046220638
-0.0043106545 0.18945405 -0.046246383
-0.0051708315 0.18970641 -0.04638534
-0.0058853701 0.18989389 -0.046382204
-0.0066158865 0.19008844 -0.046394579
-0.0051784199 0.18918747 -0.04358869
-0.0056437422 0.18926378 -0.043341961
-0.0062291715 0.18939368 -0.043212779
-0.0068718288 0.18954906 -0.043139253
-0.0076502357 0.18976393 -0.043198332
-0.0082707033 0.18990943 -0.043103263
-0.0088596493 0.1900409 -0.042977322
-0.009411905 0.190156 -0.042815667
-0.0098805353 0.19023378 -0.042572141
-0.010200106 0.19024514 -0.042183246
-0.010428399 0.19021687 -0.041705236
-0.010701507 0.19020751 -0.041270837
-0.0053308252 0.18494238 -0.020603031
-0.009551391 0.18668972 -0.024023592
-0.010285411 0.18688585 -0.024039522
-0.011199147 0.1871621 -0.024230741
-0.012104351 0.18743348 -0.024413675
-0.012904178 0.18765897 -0.024493698
-0.013452962 0.18777248 -0.024328578
-0.013791841 0.18779247 -0.023958508
-0.014053825 0.18777922 -0.023513395
-0.014295708 0.18775593 -0.02304846
-0.014520537 0.18772507 -0.02256703
-0.014729686 0.18768716 -0.022070099
-0.014979657 0.1876675 -0.021613244
0.064235806 0.16832902 -0.026074816
0.063688204 0.16844216 -0.025909062
0.063057587 0.16859518 -0.025828626
0.062336482 0.16879044 -0.025841121
0.06150372 0.16903868 -0.025968492
0.06056587 0.16933796 -0.026204135
0.05943558 0.16972807 -0.026637584
0.057926476 0.17029807 -0.027460597
0.056838315 0.1706679 -0.027850673
0.055767737 0.17102975 -0.028222699
0.054594103 0.17143956 -0.028700713
0.053609088 0.17176139 -0.02898483
0.052611135 0.17207697 -0.02926236
0.048111327 0.17394458 -0.032955639
0.047243007 0.17420058 -0.033102553
0.046519697 0.17439087 -0.03310784
0.045719672 0.17461643 -0.033188108
0.044930056 0.17483735 -0.033258185
0.044191379 0.17503451 -0.033278473
0.043428659 0.17524342 -0.033322304
0.04266436 0.17545307 -0.033367664
0.041940063 0.17564379 -0.033373859
0.041166767 0.17585742 -0.033428025
0.040400296 0.17606801 -0.033475541
0.039610922 0.17628777 -0.033545338
0.038513944 0.17664465 -0.033915557
0.037059978 0.17716071 -0.034634396
0.03606306 0.17747293 -0.034906864
0.034931 0.17784549 -0.035311382
0.033911034 0.17816803 -0.035606354
0.032908723 0.17848377 -0.035884161
0.031757981 0.17886463 -0.036306877
0.030927921 0.17910253 -0.036416396
0.029870963 0.17944157 -0.036747605
0.02886091 0.17976077 -0.03703298
0.027916564 0.1800496 -0.037254095
0.027044363 0.18030731 -0.037404858
0.026174251 0.18056308 -0.037553485
0.025244649 0.18084532 -0.037760213
0.024268098 0.18114957 -0.038012829
0.023100371 0.18153797 -0.038452167
0.021992847 0.18189961 -0.03883272
0.020812418 0.18229368 -0.039284453
0.019935412 0.18255252 -0.039439831
0.019198425 0.18274994 -0.039458457
0.018481709 0.18293837 -0.03945737
0.017879367 0.18307577 -0.039344519
0.017333316 0.18318813 -0.039176822
0.016821707 0.18328509 -0.038975328
0.01632455 0.18337561 -0.038759869
0.015815726 0.18347132 -0.038555622
0.015391763 0.18352924 -0.038268667
0.015054268 0.1835486 -0.037897214
0.010626691 0.18538505 -0.041519955
0.0097002611 0.18566588 -0.041723534
0.0088125654 0.18593054 -0.041889459
0.0080722729 0.18612945 -0.041911297
0.0074583236 0.186271 -0.041809827
0.0014103465 0.18882775 -0.047014959
0.00059573725 0.18905875 -0.047109414
-0.00024001114 0.18930024 -0.047224578
-0.00092109106 0.18947275 -0.047188662
-0.001494417 0.18959619 -0.047047444
-0.0020324364 0.18970495 -0.046871856
-0.0026031714 0.18982829 -0.046728171
-0.0031973943 0.18996209 -0.04660745
-0.0038223844 0.19010961 -0.046516709
-0.0046589505 0.19035144 -0.046632636
-0.0054919161 0.19059061 -0.046744991
-0.0063370671 0.19083628 -0.046869352
-0.0070891157 0.1910394 -0.046902735
-0.0078088511 0.19122916 -0.046904542
-0.0059660953 0.19015068 -0.043702923
-0.0064903107 0.19025329 -0.043513857
-0.0071186107 0.19040227 -0.043426335
-0.0077114869 0.19053549 -0.043304414
-0.0082902052 0.19066238 -0.04316844
-0.0088830478 0.19079448 -0.043046385
-0.0094086006 0.19089767 -0.042858526
-0.0098231547 0.19095246 -0.042562339
-0.010090929 0.19094072 -0.042122852
-0.010240443 0.19087729 -0.041567717
-0.0104414 0.19083579 -0.04106304
-0.0056500696 0.18610382 -0.022363476
-0.0056450665 0.18597151 -0.0216575
-0.0088180769 0.18725081 -0.024055131
-0.0095343404 0.18743794 -0.02405354
-0.01041922 0.18770133 -0.024216589
-0.011402316 0.18800744 -0.024475608
-0.012323678 0.18828708 -0.024674341
-0.013022952 0.18846667 -0.024656124
-0.013448566 0.1885253 -0.024370782
-0.013739128 0.1885248 -0.02395352
-0.013989188 0.18850514 -0.023496635
-0.014211003 0.18847398 -0.023012362
-0.014414232 0.18843348 -0.02250969
-0.014565568 0.18837087 -0.02195641
-0.0147857 0.18833791 -0.02147039
0.064217299 0.16896725 -0.025421344
0.063569188 0.16912824 -0.025358986
0.062730491 0.16937917 -0.025492489
0.061776925 0.16968563 -0.02574414
0.060459591 0.17016301 -0.026369855
0.059024278 0.17069724 -0.027116898
0.057911713 0.17107823 -0.027532194
0.056964766 0.17138164 -0.027777024
0.056008641 0.17168821 -0.028031364
0.054873902 0.17208029 -0.028469283
0.05001881 0.17412175 -0.032541696
0.049151629 0.17437619 -0.032687407
0.048240222 0.17465033 -0.032876384
0.047382407 0.17490058 -0.033012997
0.046623006 0.17510803 -0.033053629
0.045836203 0.17532666 -0.033121001
0.045060515 0.17554028 -0.033177409
0.044305384 0.17574583 -0.033213817
0.043533482 0.17595778 -0.033266552
0.042743742 0.17617878 -0.0333368
0.042011321 0.17637314 -0.033350956
0.0412177 0.17659584 -0.033424933
0.040379174 0.17683747 -0.03354273
0.039274275 0.17719792 -0.033920769
0.037809949 0.17771645 -0.034649618
0.037053641 0.17792252 -0.034687173
0.036132142 0.17820117 -0.034886025
0.035185553 0.178491 -0.035109367
0.034320731 0.17874439 -0.03525288
0.033540986 0.17895986 -0.035313275
0.032465886 0.179307 -0.035662137
0.031515915 0.17959835 -0.035888765
0.030541496 0.17990056 -0.036139272
0.02946501 0.18024831 -0.03648952
0.028489076 0.18055125 -0.036741473
0.027656315 0.18079033 -0.036853693
0.026672725 0.18109666 -0.037113156
0.025704155 0.18139632 -0.037358016
0.024701681 0.18171106 -0.037635922
0.023465781 0.18212882 -0.038141694
0.022025969 0.1826375 -0.038846832
0.020947091 0.1829863 -0.039199263
0.020116884 0.18322425 -0.039308947
0.019428909 0.18339984 -0.039279755
0.018729439 0.18357955 -0.039261878
0.01812724 0.18371691 -0.039148871
0.01758359 0.18382813 -0.038978685
0.017084491 0.18391956 -0.038765151
0.01663819 0.18398739 -0.038499914
0.016157504 0.18407059 -0.03826829
0.015722331 0.18413453 -0.037992328
0.015338608 0.18417448 -0.03766593
0.014980373 0.18420416 -0.037314817
0.010143992 0.18621756 -0.041336529
0.0092601757 0.18647943 -0.041498665
0.0084339827 0.18671663 -0.041604396
0.0077378359 0.18689485 -0.041583218
0.0013136454 0.18961295 -0.047155544
0.00049269386 0.1898468 -0.047256202
-0.00037878379 0.19010314 -0.047406115
-0.0010955203 0.19029157 -0.047405124
-0.0017260276 0.19044153 -0.047319736
-0.0023206789 0.19057554 -0.047199488
-0.0028599203 0.19068484 -0.047025025
-0.0034136586 0.19080058 -0.046864729
-0.0040592253 0.19095622 -0.046794087
-0.0048546437 0.19117972 -0.046869829
-0.0057127513 0.19143014 -0.04700676
-0.0066434629 0.19171286 -0.047214553
-0.0074926298 0.19195931 -0.047342859
-0.0081763137 0.19213298 -0.047309451
-0.0087405518 0.19225341 -0.047159407
-0.006626755 0.19105725 -0.043693189
-0.0072287098 0.19119345 -0.043580011
-0.0077625532 0.19130032 -0.043400265
-0.0083333123 0.19142368 -0.043256663
-0.0088931434 0.19154215 -0.043102343
-0.0093818121 0.19162887 -0.042878419
-0.0097490363 0.19166255 -0.04253611
-0.0099840835 0.19163728 -0.04206467
-0.010072343 0.1915466 -0.041449871
-0.010272536 0.19150576 -0.040944256
-0.0057459343 0.18716356 -0.02390559
-0.0060446355 0.18716668 -0.023496293
-0.0068794526 0.1874067 -0.023610599
-0.0081495941 0.18783972 -0.024149828
-0.0088726319 0.18803093 -0.024154846
-0.0096980035 0.18826674 -0.024259768
-0.010700855 0.18858168 -0.024538159
-0.011600517 0.18885058 -0.024715647
-0.012479614 0.18911034 -0.024873096
-0.013071891 0.18924327 -0.024750452
-0.013511848 0.18930832 -0.02447902
-0.01370728 0.18926539 -0.023968946
-0.016080808 0.19018821 -0.025585733
-0.016497172 0.19024274 -0.025291365
-0.016804434 0.19024965 -0.024890408
-0.017096195 0.19024861 -0.02447423
-0.017384518 0.19024709 -0.024054747
0.064454548 0.16963163 -0.025234114
0.06377624 0.16980635 -0.025202636
0.062889263 0.17008033 -0.025385775
0.061869696 0.1704168 -0.025705229
0.060363472 0.17098337 -0.026525106
0.059161402 0.17140613 -0.027032334
0.058099601 0.17176291 -0.02739523
0.057170801 0.172057 -0.027621426
0.052372061 0.17410229 -0.031692404
0.051447544 0.17438126 -0.031894207
0.050256662 0.17477894 -0.032356057
0.049363464 0.17504498 -0.032527287
0.048420168 0.17533335 -0.03274741
0.047587056 0.17557259 -0.032859921
0.04678544 0.17579779 -0.032941666
0.045995533 0.17601781 -0.033012014
0.045215141 0.17623354 -0.033073109
0.044409215 0.17646067 -0.033159062
0.04361213 0.17668492 -0.033236407
0.042804517 0.17691278 -0.033324063
0.04200612 0.17713657 -0.033402659
0.040937904 0.17747957 -0.033744734
0.039513007 0.17798054 -0.03443519
0.038604178 0.17825353 -0.034621634
0.03777276 0.17849202 -0.034732554
0.037008516 0.17870058 -0.034777787
0.036114749 0.17896688 -0.034949537
0.035328213 0.17918536 -0.035016593
0.034576137 0.17938954 -0.035050016
0.033797845 0.17960435 -0.035109043
0.032721676 0.17995086 -0.035458844
0.031745322 0.180254 -0.03571127
0.030757047 0.18056136 -0.035975281
0.029702861 0.18089919 -0.036303803
0.028741531 0.18119453 -0.036541484
0.027930055 0.18142414 -0.036632884
0.026914569 0.18174468 -0.036923487
0.025858266 0.18208238 -0.037253935
0.024816697 0.1824135 -0.037569996
0.023569448 0.18283634 -0.038086977
0.022161193 0.18332988 -0.038761105
0.02120284 0.18362494 -0.038995922
0.020376209 0.18386135 -0.039102178
0.019724132 0.18402092 -0.039037935
0.019057591 0.18418589 -0.038987715
0.018454524 0.18432361 -0.038875654
0.017938053 0.18442279 -0.038679004
0.017447416 0.18451039 -0.038457099
0.017007733 0.18457532 -0.038185447
0.016574532 0.1846384 -0.037907477
0.016124759 0.18470779 -0.037645701
0.015681645 0.18477421 -0.03737732
0.015292778 0.18481752 -0.037056029
0.014860262 0.18487926 -0.036777422
0.0097330716 0.1870181 -0.041083101
0.0088710878 0.18727021 -0.041223869
0.00809763 0.18748288 -0.041278142
0.0075274743 0.18760593 -0.041133828
0.00042461231 0.19061922 -0.047368743
-0.0004017055 0.19085546 -0.047474578
-0.0011478439 0.19105595 -0.047502242
-0.0018286575 0.19122835 -0.047466096
-0.0024650097 0.19138095 -0.047386557
-0.0030213464 0.19149679 -0.047228739
-0.0035860166 0.19161741 -0.047079168
-0.0041611288 0.19174269 -0.04693966
-0.0048379414 0.19191332 -0.046899602
-0.0057173334 0.19217321 -0.047057379
-0.0068669189 0.19255248 -0.047478892
-0.0077932496 0.19283223 -0.047682449
-0.0084268227 0.19298361 -0.047600143
-0.0090444796 0.19312783 -0.047502212
-0.0095735341 0.1932326 -0.047317907
-0.0077577643 0.19204134 -0.043441765
-0.0083686952 0.1921826 -0.043337345
-0.0089289285 0.19230126 -0.043183409
-0.0094233304 0.19239056 -0.042965271
-0.0098469742 0.19244832 -0.042677917
-0.010326579 0.19253209 -0.04244525
-0.011294436 0.19283032 -0.042689282
-0.011748593 0.19290167 -0.042431697
-0.012131449 0.19294235 -0.042104702
-0.012490612 0.19297242 -0.041754402
-0.0056710504 0.1878871 -0.023879092
-0.0061457716 0.18796761 -0.023641549
-0.0073174797 0.18835676 -0.024084743
-0.0083687883 0.18869223 -0.024410382
-0.0090817623 0.18887898 -0.024405606
-0.009923283 0.18912196 -0.024526309
-0.010848105 0.18940212 -0.024728462
-0.011742376 0.18966861 -0.02490066
-0.012611654 0.18992291 -0.025048513
