# .PCD v0.7 - Point Cloud Data file format
VERSION 0.7
FIELDS x y z
SIZE 4 4 4
TYPE F F F
COUNT 1 1 1
WIDTH 1275
HEIGHT 1
VIEWPOINT 0 0 0 1 0 0 0
POINTS 1275
DATA ascii
-0.039758101 0.09477222 -0.030618684
-0.039483204 0.09462326 -0.030135887
-0.039241761 0.094481297 -0.029651744
-0.038935944 0.094325893 -0.029170269
-0.038474776 0.094138108 -0.028695202
-0.038004689 0.093948498 -0.028220525
-0.037492789 0.093750231 -0.027747517
-0.037052058 0.093566664 -0.027271589
-0.036661096 0.093393527 -0.026793675
-0.036212683 0.093208492 -0.026317989
-0.035726614 0.093015589 -0.02584392
-0.035184473 0.092810966 -0.025372246
-0.034586705 0.092594676 -0.024902759
-0.034018643 0.092384696 -0.024432106
-0.033490501 0.092183001 -0.023959791
-0.032987975 0.091986604 -0.023486419
-0.032758772 0.091847256 -0.02300184
-0.032798111 0.091763727 -0.022506034
-0.033006944 0.09171553 -0.02200336
-0.033190079 0.09166199 -0.021501705
-0.033256553 0.091584094 -0.021004846
-0.03327968 0.091497242 -0.020509867
-0.033224598 0.09139403 -0.020018041
-0.033070989 0.091270365 -0.019530287
-0.032873631 0.091137581 -0.019044317
-0.032634571 0.090996057 -0.018560084
-0.032306686 0.090835996 -0.01807951
-0.031938069 0.090667546 -0.017600605
-0.031477235 0.090479903 -0.017125493
-0.031027667 0.090294525 -0.016649997
-0.030667186 0.090127796 -0.016170746
-0.030355394 0.089971155 -0.015689503
-0.030184217 0.089843765 -0.015202437
-0.03023769 0.089763187 -0.014706174
-0.030456804 0.089717105 -0.014203047
-0.030796967 0.089696281 -0.013694959
-0.030991837 0.089645155 -0.013192821
-0.03111627 0.089579314 -0.012693547
-0.031259723 0.089517549 -0.012193551
-0.031429552 0.08946126 -0.011692448
-0.031507045 0.089385703 -0.011195185
-0.031510241 0.089294598 -0.010700997
-0.031631298 0.089228116 -0.010201851
-0.03170035 0.089150786 -0.0097048897
-0.031829573 0.089086033 -0.0092055239
-0.03191001 0.089011066 -0.0087081231
-0.031897359 0.088916697 -0.0082144979
-0.03183151 0.088811308 -0.0077232108
-0.031736001 0.088699728 -0.0072329869
-0.031647407 0.088589601 -0.0067425878
-0.031526372 0.088472717 -0.0062534851
-0.031385414 0.08835157 -0.0057651815
-0.031188153 0.088218808 -0.0052792584
-0.034813128 0.088882118 -0.0046356698
-0.035107605 0.088851683 -0.0041293572
-0.035447985 0.088830888 -0.0036212732
-0.035711884 0.088794157 -0.0031162272
-0.035977758 0.088757813 -0.002611211
-0.036293119 0.088731766 -0.0021041632
-0.036590829 0.08870209 -0.0015977514
-0.036719032 0.088637106 -0.00109842
-0.036783002 0.088558771 -0.00060169958
-0.036792785 0.088469081 -0.00010714075
-0.036753178 0.088369079 0.00038533611
-0.036700547 0.088266425 0.00087721972
-0.036574334 0.088148415 0.0013661124
-0.036331892 0.088006213 0.0018502136
-0.036055826 0.087857097 0.0023329484
-0.0097553954 0.095726967 -0.06683515
-0.010980338 0.095889769 -0.066290639
-0.012191668 0.096049786 -0.06574662
-0.013298862 0.09618821 -0.06520699
-0.014309153 0.096306466 -0.064671263
-0.014960863 0.096350305 -0.064150348
-0.015341092 0.096337669 -0.063640572
-0.015729669 0.096326798 -0.063130453
-0.016251881 0.096343696 -0.062614776
-0.016600393 0.096324623 -0.062106334
-0.016834687 0.09628173 -0.06160263
-0.01699464 0.096223392 -0.061101854
-0.02572193 0.097944096 -0.060248464
-0.027499802 0.098221771 -0.059681162
-0.029551439 0.098556295 -0.05910258
-0.030965723 0.098758452 -0.058550216
-0.032128111 0.098908246 -0.058008261
-0.033135436 0.099025905 -0.057472695
-0.033850536 0.09908285 -0.056949135
-0.034433588 0.099112421 -0.05643101
-0.034995332 0.099137589 -0.055913758
-0.035558559 0.099162936 -0.055396475
-0.035924464 0.099147446 -0.054887287
-0.036221027 0.099117421 -0.054380968
-0.036517821 0.099087514 -0.053874638
-0.036996923 0.099095494 -0.053360801
-0.037543446 0.099117458 -0.052844204
-0.038169131 0.099155895 -0.052324284
-0.03885401 0.099206597 -0.051801972
-0.039370656 0.099222355 -0.051286604
-0.039799936 0.099219866 -0.050774805
-0.040125675 0.099196061 -0.050267309
-0.040415585 0.099164717 -0.049761273
-0.040652052 0.099122308 -0.04925739
-0.040894493 0.099081121 -0.048753299
-0.041124888 0.099037394 -0.048249699
-0.041361444 0.098995008 -0.047745876
-0.041563958 0.098945536 -0.047243431
-0.041729406 0.098888367 -0.046742477
-0.041948296 0.098842248 -0.046239357
-0.042105839 0.098783389 -0.045738768
-0.042235859 0.098718941 -0.04523927
-0.042347379 0.098650552 -0.044740587
-0.042426787 0.098575436 -0.044243235
-0.042518482 0.098503016 -0.043745313
-0.042542867 0.098416544 -0.043250196
-0.042552151 0.098326884 -0.042755704
-0.042549476 0.09823478 -0.042261679
-0.042529285 0.098139077 -0.041768469
-0.042521559 0.098045968 -0.041274603
-0.042515591 0.097953223 -0.040780764
-0.042486049 0.097855516 -0.040287931
-0.042450711 0.097756624 -0.039795205
-0.042464584 0.097668007 -0.039300535
-0.042471714 0.097577952 -0.038806144
-0.042469271 0.097485885 -0.03831213
-0.042453513 0.097391076 -0.037818663
-0.042406179 0.097289726 -0.0373265
-0.042360336 0.097188689 -0.036834225
-0.042312376 0.097087257 -0.036342181
-0.042226829 0.096977964 -0.035851564
-0.042122588 0.096864775 -0.035361707
-0.04203973 0.096756049 -0.034871027
-0.041952401 0.096646287 -0.034380488
-0.041835941 0.096530631 -0.033891186
-0.041701138 0.096411057 -0.033402607
-0.041537419 0.096285604 -0.032915257
-0.041355491 0.09615624 -0.032428604
-0.041109785 0.096013695 -0.031944685
-0.040705509 0.095838241 -0.03146717
-0.04023277 0.095648564 -0.030992514
-0.039797485 0.095466629 -0.030516276
-0.039431863 0.09529911 -0.030037237
-0.039162837 0.09515176 -0.029554235
-0.0388695 0.094999261 -0.029072193
-0.038450271 0.094820753 -0.028595375
-0.038038008 0.094643585 -0.028118169
-0.037623324 0.094465911 -0.027641164
-0.037182815 0.094282962 -0.02716521
-0.03677661 0.094107039 -0.02668781
-0.036339052 0.093924612 -0.026211727
-0.035829544 0.093727283 -0.025738593
-0.035313547 0.093528651 -0.025265647
-0.034704357 0.093310602 -0.02479665
-0.034063593 0.093086019 -0.024328966
-0.033529192 0.092883557 -0.023856821
-0.033051267 0.09269277 -0.023382379
-0.032793984 0.092547745 -0.022898909
-0.032782175 0.092453778 -0.022405259
-0.032976948 0.092402734 -0.02190307
-0.033145048 0.092346124 -0.021402074
-0.033232585 0.092272736 -0.020904338
-0.033260539 0.092186972 -0.020409182
-0.033212811 0.092085548 -0.019916927
-0.033074699 0.091965318 -0.019428525
-0.032863297 0.091829903 -0.018943151
-0.03261593 0.091687039 -0.018459249
-0.032318406 0.091533668 -0.017977383
-0.031947859 0.091365241 -0.017498439
-0.03150247 0.091181241 -0.017022749
-0.030946873 0.090974271 -0.016551517
-0.030418448 0.090773039 -0.016079133
-0.030010298 0.090596735 -0.01560184
-0.029663943 0.090433352 -0.015121996
-0.02947481 0.09030249 -0.014635606
-0.029435821 0.09020289 -0.014143098
-0.029451728 0.090114653 -0.013648367
-0.029784709 0.090092242 -0.013140565
-0.030122995 0.090070933 -0.012632495
-0.030217588 0.089999124 -0.012134524
-0.030290276 0.089922681 -0.011637313
-0.030484296 0.089871451 -0.011135304
-0.030532137 0.0897898 -0.010639228
-0.030561566 0.089704417 -0.010143943
-0.030670092 0.089635409 -0.0096453018
-0.030818179 0.089574635 -0.0091450438
-0.030889213 0.089497782 -0.0086480957
-0.030943796 0.089417666 -0.0081517268
-0.030927382 0.089322664 -0.0076582632
-0.030802019 0.089205086 -0.0071693421
-0.030690789 0.089090444 -0.0066797496
-0.030464761 0.088952005 -0.0061949105
-0.030415572 0.088850327 -0.0057028956
-0.030342124 0.088743478 -0.0052117654
-0.030360535 0.088655777 -0.0047168848
-0.034412697 0.089405745 -0.004055955
-0.034820996 0.089398988 -0.00354505
-0.035173163 0.089380518 -0.003036418
-0.035474554 0.089351647 -0.0025298987
-0.035723664 0.089311779 -0.0020255339
-0.03600587 0.089278884 -0.0015198593
-0.036185175 0.089224614 -0.0010183305
-0.036271125 0.089150898 -0.0005206652
-0.036279835 0.089061156 -2.6205555e-05
-0.036252216 0.088963933 0.00046674302
-0.036214821 0.088864557 0.00095931161
-0.036140434 0.088757589 0.0014503708
-0.035977341 0.088632196 0.0019378331
-0.00934292 0.096425399 -0.06724488
-0.01040154 0.096553206 -0.066707231
-0.011836618 0.096759036 -0.06615416
-0.013390373 0.096989363 -0.065596141
-0.014262691 0.097078539 -0.065066196
-0.015011892 0.097142279 -0.06454125
-0.015575569 0.097167701 -0.064023964
-0.016059767 0.097176589 -0.063509934
-0.016533822 0.097183362 -0.062996328
-0.017020728 0.097192816 -0.062482148
-0.017334659 0.097166389 -0.061975144
-0.017564826 0.097122721 -0.061471507
-0.017504718 0.097018912 -0.060979828
-0.026164308 0.098720357 -0.060129732
-0.027707659 0.098948553 -0.059572205
-0.029690698 0.099267751 -0.058996551
-0.031094909 0.099467129 -0.058444723
-0.032199882 0.099604502 -0.057905149
-0.033237174 0.099727981 -0.057368364
-0.033974066 0.099789135 -0.056843974
-0.034580737 0.099823363 -0.056324892
-0.035162121 0.099852405 -0.05580686
-0.035677105 0.099867642 -0.055291593
-0.03603366 0.099850163 -0.054782767
-0.036312066 0.099816427 -0.054277208
-0.036662079 0.09979745 -0.053768698
-0.037151471 0.099807441 -0.05325444
-0.037848443 0.099860407 -0.052731656
-0.038664617 0.099937961 -0.052204005
-0.039201811 0.099957839 -0.051687792
-0.039610356 0.099951103 -0.051176831
-0.039934412 0.099926874 -0.050669409
-0.040214173 0.099893406 -0.050163753
-0.040510528 0.099863358 -0.049657449
-0.040738419 0.099819168 -0.049153943
-0.040949292 0.099771455 -0.048651159
-0.0411634 0.099724479 -0.048148245
-0.041393667 0.099680826 -0.047644638
-0.041599669 0.099632032 -0.047142062
-0.041778758 0.09957774 -0.046640534
-0.041964591 0.099524863 -0.046138775
-0.04210598 0.099462792 -0.045638841
-0.042244919 0.09940017 -0.045138977
-0.042367712 0.099334233 -0.0446398
-0.042452805 0.099260516 -0.044142243
-0.04252398 0.099183865 -0.043645136
-0.042575397 0.099103205 -0.043148894
-0.042610601 0.099019118 -0.042653263
-0.042636849 0.098933183 -0.042158101
-0.042641006 0.098842733 -0.041663818
-0.042649247 0.098753028 -0.04116933
-0.042648368 0.098661482 -0.040675227
-0.042639688 0.098568343 -0.04018141
-0.042633347 0.098475657 -0.039687593
-0.042625986 0.098382816 -0.03919379
-0.042587459 0.098283455 -0.03870118
-0.042553358 0.098185055 -0.038208533
-0.04250627 0.098083936 -0.037716262
-0.04245057 0.097981028 -0.037224416
-0.04238902 0.097876929 -0.036732771
-0.042345569 0.097776525 -0.036240507
-0.042273179 0.097670227 -0.035749339
-0.042151064 0.097553603 -0.035260204
-0.042062327 0.097443849 -0.034769699
-0.041943908 0.097327918 -0.034280475
-0.041843459 0.097215764 -0.033790451
-0.04173205 0.097101398 -0.033300858
-0.041592851 0.096981227 -0.032812536
-0.041391253 0.096848056 -0.032326676
-0.041204847 0.096718073 -0.031840228
-0.040909737 0.096565641 -0.031358242
-0.040444061 0.09637785 -0.030883225
-0.039804347 0.096154101 -0.030415373
-0.039377749 0.095974386 -0.029938826
-0.039089881 0.095823437 -0.029456476
-0.038769528 0.095665731 -0.028975526
-0.038374409 0.095492639 -0.028497612
-0.03800828 0.095325433 -0.02801851
-0.037649363 0.095159709 -0.02753914
-0.037265263 0.094988845 -0.027060831
-0.036847852 0.09481106 -0.026583815
-0.036414564 0.094630033 -0.026107578
-0.035907157 0.094433583 -0.025634272
-0.035338946 0.094224587 -0.025163475
-0.034744084 0.094010122 -0.024693858
-0.034125522 0.093790673 -0.024225077
-0.033530354 0.093576059 -0.02375542
-0.033082142 0.093391962 -0.023279672
-0.032838464 0.093250088 -0.022795556
-0.032803409 0.093151428 -0.022302862
-0.032962814 0.093093142 -0.021802234
-0.033139534 0.093038313 -0.021300809
-0.033232756 0.092966311 -0.020802891
-0.033238702 0.092876203 -0.020308547
-0.033166453 0.092769824 -0.019817358
-0.033027865 0.092649825 -0.019328903
-0.032839008 0.092519306 -0.018842522
-0.032576837 0.092373706 -0.018359158
-0.032273509 0.092219524 -0.017877473
-0.031900369 0.092050873 -0.017398736
-0.0314871 0.091873981 -0.016921533
-0.030941218 0.091669641 -0.016449848
-0.030262031 0.09143766 -0.015983663
-0.029799595 0.091250516 -0.015508553
-0.029174224 0.091029644 -0.015040133
-0.028780118 0.090856686 -0.014562195
-0.028565779 0.090720952 -0.014076829
-0.028395563 0.090594426 -0.013589775
-0.028311349 0.090485603 -0.013099058
-0.028511308 0.090435654 -0.012596657
-0.028794974 0.090402976 -0.01209097
-0.028916307 0.090336733 -0.01159185
-0.029157527 0.090295367 -0.011087723
-0.029329024 0.090239435 -0.010586595
-0.029510491 0.090185672 -0.010084946
-0.029536508 0.090099715 -0.0095897838
-0.029642813 0.090030409 -0.0090913121
-0.02986034 0.089984007 -0.0085882507
-0.029922031 0.089905471 -0.008091554
-0.029970706 0.089824222 -0.0075954567
-0.029876575 0.089713342 -0.0071051517
-0.02977249 0.089600392 -0.0066153524
-0.02951102 0.089454889 -0.0061319121
-0.029251657 0.089309871 -0.0056484467
-0.029238336 0.089215711 -0.005154897
-0.029592887 0.089197725 -0.0046461471
-0.029966354 0.089183681 -0.0041366559
-0.030217461 0.089144394 -0.0036322051
-0.034490563 0.089937665 -0.0029624635
-0.03485319 0.08992143 -0.0024534562
-0.035063863 0.089873679 -0.0019506128
-0.035296045 0.089830376 -0.0014469186
-0.035549179 0.089791469 -0.00094240764
-0.035652325 0.089721434 -0.00044408254
-0.035699703 0.089639924 5.2025542e-05
-0.03572125 0.089552954 0.00054705841
-0.035725892 0.089462548 0.0010414138
-0.035711199 0.089368202 0.0015349051
-0.0096581168 0.097182915 -0.06713061
-0.011023551 0.097373627 -0.066580407
-0.013138141 0.097718924 -0.065999471
-0.014123823 0.097831212 -0.065464944
-0.014791034 0.097877651 -0.064943314
-0.015415832 0.097915478 -0.064423591
-0.016036637 0.097952463 -0.063903913
-0.016702823 0.097998798 -0.063382529
-0.017268732 0.098024406 -0.062865071
-0.017703298 0.098022953 -0.062353119
-0.017949019 0.097982429 -0.061848886
-0.018151421 0.097933047 -0.061346419
-0.018046767 0.097820215 -0.060856543
-0.026488885 0.099471733 -0.060015999
-0.028009154 0.099694349 -0.059459455
-0.029742122 0.099960834 -0.058894195
-0.031106651 0.10015133 -0.058344021
-0.032241359 0.10029431 -0.057803303
-0.033251554 0.10041165 -0.057267703
-0.034035608 0.10048239 -0.056741375
-0.034668826 0.10052187 -0.056221232
-0.035264559 0.10055361 -0.055702694
-0.035777196 0.1005683 -0.055187479
-0.036129341 0.10054982 -0.054678872
-0.036419265 0.10051846 -0.054172803
-0.036805958 0.10050703 -0.053662807
-0.037357688 0.1005298 -0.053146038
-0.03826122 0.10062508 -0.052614793
-0.038905464 0.10066688 -0.052094217
-0.039325736 0.10066246 -0.051582817
-0.039675429 0.10064344 -0.051074285
-0.039975151 0.10061414 -0.050567847
-0.040237978 0.10057718 -0.05006294
-0.040521592 0.10054455 -0.049557108
-0.040771127 0.10050486 -0.049052726
-0.040965736 0.10045381 -0.048550624
-0.041189894 0.1004089 -0.048047274
-0.041385435 0.10035807 -0.047545075
-0.04158432 0.1003079 -0.047042795
-0.041764393 0.10025395 -0.04654124
-0.04190737 0.10019229 -0.046041194
-0.042061836 0.1001329 -0.045540754
-0.042192519 0.10006875 -0.045041207
-0.042305477 0.10000087 -0.04454245
-0.042386658 0.099926397 -0.044044949
-0.042467475 0.099851884 -0.0435475
-0.042553604 0.099778496 -0.043049797
-0.042590551 0.099694945 -0.042554159
-0.042616479 0.099609077 -0.042058934
-0.042630225 0.099520735 -0.04156417
-0.042658702 0.099435434 -0.041068926
-0.042663887 0.099345304 -0.040574513
-0.042663492 0.099254027 -0.040080421
-0.042658046 0.099161744 -0.039586496
-0.042649709 0.099068843 -0.039092623
-0.042594858 0.098966271 -0.038600765
-0.042545669 0.09886498 -0.038108613
-0.042498149 0.098763913 -0.037616447
-0.042436793 0.098660126 -0.03712476
-0.0423453 0.098550014 -0.036634374
-0.042281322 0.098445587 -0.036142893
-0.042205498 0.09833882 -0.035651833
-0.042110078 0.098227859 -0.035161626
-0.042011596 0.098116376 -0.034671493
-0.041899897 0.09800218 -0.034181952
-0.041798048 0.097889915 -0.033691965
-0.041695058 0.097777434 -0.03320206
-0.041557893 0.097657926 -0.032713555
-0.041386552 0.09753143 -0.032226443
-0.041208021 0.097403325 -0.031739615
-0.040965289 0.097262107 -0.031255409
-0.040597618 0.097094983 -0.030776365
-0.039937332 0.096867509 -0.030309258
-0.039349437 0.096654892 -0.029839223
-0.039032049 0.096498191 -0.029358121
-0.03869459 0.096337341 -0.028877838
-0.038309783 0.096166767 -0.028399466
-0.037958577 0.096003123 -0.027919723
-0.037612997 0.095840536 -0.02743979
-0.037259787 0.095676415 -0.026960118
-0.036874883 0.095505811 -0.026481699
-0.036434993 0.095323779 -0.026005687
-0.035918035 0.095125921 -0.025532726
-0.03533712 0.094914764 -0.025062416
-0.034715734 0.094695337 -0.024593694
-0.034121029 0.094481394 -0.024124013
-0.033504352 0.09426292 -0.023655171
-0.033033364 0.094074503 -0.023180375
-0.032772645 0.093929492 -0.022696853
-0.0327539 0.09383437 -0.022203483
-0.032909259 0.093775325 -0.021702977
-0.033088416 0.093721136 -0.021201469
-0.033154704 0.093643621 -0.020704599
-0.033134021 0.093548141 -0.020211333
-0.033044904 0.093438566 -0.019720832
-0.032924131 0.093322396 -0.019231593
-0.032734513 0.093192078 -0.018745242
-0.032449424 0.093042031 -0.018262763
-0.032123469 0.09288355 -0.017781993
-0.031742364 0.092713676 -0.017303541
-0.031338394 0.092539161 -0.016825901
-0.030833587 0.092343792 -0.016352473
-0.028382272 0.091564149 -0.01497064
-0.027855679 0.091364287 -0.014498139
-0.027564831 0.091213025 -0.014015896
-0.027329884 0.091073364 -0.013531392
-0.027148098 0.090944625 -0.013044657
-0.027014308 0.090825878 -0.012556003
-0.026811957 0.090692915 -0.012070168
-0.02677156 0.090593331 -0.011577694
-0.027082808 0.090566404 -0.011070728
-0.027831696 0.090629801 -0.010545855
-0.028289855 0.090633214 -0.010032911
-0.028325252 0.090549342 -0.0095372591
-0.028231412 0.090438694 -0.0090469755
-0.028417513 0.090385973 -0.0085452888
-0.028584205 0.090329178 -0.0080442168
-0.026310541 0.089768641 -0.0076434207
-0.026622579 0.089741834 -0.0071364329
-0.026814036 0.089690238 -0.0066344063
-0.027316295 0.089702696 -0.0061196466
-0.027815849 0.089714587 -0.0056050294
-0.02816385 0.089695252 -0.0050965627
-0.028549492 0.089683667 -0.0045866021
-0.029124007 0.089711085 -0.0040689358
-0.029565543 0.089710996 -0.0035565947
-0.029816508 0.089671686 -0.0030521848
-0.029955447 0.089609161 -0.0025522858
-0.030029729 0.089533255 -0.0020551165
-0.029936954 0.089422964 -0.0015648343
-0.034663603 0.090307407 -0.0008766898
-0.034871846 0.090259217 -0.00037402939
-0.034938127 0.090181723 0.0001228475
-0.035113171 0.090126663 0.00062426459
-0.009487614 0.09793102 -0.067530394
-0.010006584 0.097946793 -0.06701497
-0.011975646 0.098260954 -0.066440143
-0.01370997 0.098526917 -0.065874897
-0.01452129 0.098602802 -0.065347508
-0.015226904 0.098657049 -0.064824454
-0.015854809 0.098695308 -0.064304575
-0.016604096 0.098758452 -0.063779712
-0.017238464 0.098797984 -0.06325952
-0.017802693 0.098823085 -0.062742211
-0.01818677 0.09881109 -0.06223233
-0.018518526 0.09878841 -0.061724551
-0.018668123 0.098728158 -0.061224282
-0.025739163 0.10009242 -0.060440429
-0.026972525 0.10025515 -0.059895732
-0.028236322 0.1004243 -0.059349775
-0.029768899 0.10064861 -0.05879283
-0.03101474 0.10081408 -0.058247633
-0.03225702 0.10097866 -0.057702553
-0.033263437 0.10109477 -0.05716718
-0.034138709 0.10118387 -0.05663712
-0.034752309 0.10121915 -0.056117836
-0.035350464 0.10125121 -0.055599149
-0.035872944 0.10126775 -0.055083558
-0.036208995 0.10124585 -0.054575622
-0.036500268 0.10121479 -0.054069512
-0.036954381 0.10121724 -0.053556755
-0.037641741 0.10126767 -0.053034436
-0.03853368 0.10136025 -0.052503727
-0.038987577 0.10136265 -0.051990956
-0.039345607 0.10134528 -0.051482145
-0.039675333 0.10132211 -0.050974473
-0.039965816 0.10129095 -0.050468355
-0.040226385 0.10125356 -0.049963541
-0.04047548 0.1012138 -0.049459163
-0.040726043 0.10117434 -0.04895471
-0.040926285 0.10112455 -0.048452348
-0.04116907 0.10108341 -0.047948223
-0.041349888 0.10102966 -0.047446679
-0.041520253 0.10097367 -0.046945546
-0.041691981 0.10091797 -0.046444338
-0.041835837 0.10085662 -0.045944244
-0.041960746 0.10079128 -0.04544498
-0.042091973 0.10072729 -0.044945411
-0.042185634 0.10065556 -0.044447415
-0.042283826 0.10058472 -0.043949209
-0.042369157 0.10051123 -0.043451533
-0.04245501 0.10043792 -0.042953897
-0.042501695 0.1003565 -0.042457744
-0.042530268 0.1002714 -0.041962426
-0.042572021 0.10018893 -0.04146662
-0.042603016 0.10010425 -0.040971115
-0.042596988 0.10001198 -0.040477213
-0.0426118 0.099924088 -0.039982431
-0.04260195 0.099831015 -0.039488655
-0.042561956 0.099731773 -0.038996145
-0.042528205 0.099633798 -0.038503312
-0.042482451 0.099533379 -0.038011048
-0.042426787 0.099430889 -0.037519194
-0.042368203 0.099327788 -0.037027389
-0.042260647 0.099214666 -0.036537655
-0.04217682 0.099106394 -0.036046874
-0.042098828 0.098999329 -0.035555899
-0.042030782 0.098894238 -0.035064526
-0.041913942 0.098779239 -0.034575194
-0.041802064 0.098665111 -0.034085557
-0.041701622 0.098553464 -0.033595502
-0.041601397 0.098441839 -0.033105448
-0.04148744 0.098327339 -0.032615948
-0.041343473 0.098206699 -0.032127675
-0.041169286 0.098079801 -0.031640641
-0.040947035 0.09794309 -0.031155577
-0.040619761 0.097784743 -0.030674877
-0.040127106 0.097592331 -0.030200815
-0.039401725 0.097351998 -0.02973639
-0.038979083 0.097174011 -0.029259494
-0.038612016 0.097007401 -0.02878041
-0.038244411 0.096840784 -0.028301248
-0.037919872 0.096682906 -0.027820414
-0.037567385 0.096519381 -0.027340649
-0.037207738 0.096354276 -0.026861301
-0.036820978 0.096183725 -0.026382886
-0.036376499 0.09600126 -0.025907008
-0.035817035 0.095795065 -0.025435781
-0.035232797 0.095583834 -0.02496548
-0.034669377 0.095376797 -0.024494426
-0.034032419 0.09515474 -0.02402637
-0.033413641 0.094936378 -0.023557514
-0.032920949 0.094743975 -0.023083545
-0.032643005 0.094595693 -0.022600742
-0.032596469 0.094495066 -0.022108519
-0.032721952 0.094429895 -0.021609193
-0.032892756 0.094374061 -0.021108026
-0.03295248 0.094295353 -0.020611404
-0.032934718 0.094200663 -0.020117968
-0.032849602 0.094092131 -0.019627307
-0.032705635 0.093971498 -0.019139035
-0.032480814 0.093834139 -0.018654093
-0.032200053 0.093685366 -0.018171383
-0.031875983 0.093527645 -0.017690457
-0.031459406 0.09335091 -0.017213369
-0.031030536 0.093171582 -0.016736811
-0.027339391 0.092047825 -0.014911288
-0.027152061 0.091918252 -0.014424888
-0.02687376 0.091770031 -0.013942111
-0.026583217 0.091619208 -0.013459776
-0.026329264 0.091475859 -0.012976078
-0.026151113 0.091348208 -0.012489202
-0.026015058 0.091229156 -0.012000591
-0.025798693 0.091093659 -0.011515245
-0.025517099 0.090944692 -0.011032663
-0.0252783 0.090804502 -0.010548253
-0.025193632 0.090696014 -0.0100576
-0.025136545 0.090593331 -0.0095656738
-0.025084481 0.090491548 -0.0090736914
-0.025111824 0.090406172 -0.0085784066
-0.025308028 0.090355538 -0.0080761742
-0.025483243 0.0903005 -0.0075748502
-0.025719672 0.090258196 -0.007071014
-0.026062503 0.090237737 -0.0065627606
-0.026405506 0.090217292 -0.0060545956
-0.026827626 0.090213127 -0.0055430965
-0.027295381 0.090218447 -0.005029785
-0.027680516 0.090206593 -0.0045197937
-0.028034672 0.090188503 -0.0040111844
-0.028448574 0.090182707 -0.0034999689
-0.028820924 0.090168305 -0.0029905685
-0.028996259 0.090113387 -0.0024891905
-0.029271267 0.090078898 -0.0019838004
-0.029247314 0.089982964 -0.0014905976
-0.029106244 0.089862935 -0.0010022721
-0.028891906 0.089727812 -0.00051686447
-0.0096584968 0.098657966 -0.067422077
-0.010303482 0.09869948 -0.06690152
-0.013045181 0.099171236 -0.066295244
-0.014133479 0.099303611 -0.065756537
-0.014981166 0.099386707 -0.065227672
-0.015728027 0.099449113 -0.064702898
-0.016429204 0.099502146 -0.064180017
-0.017055344 0.099539749 -0.063660234
-0.017662633 0.099573568 -0.063141249
-0.018192045 0.099591367 -0.062625349
-0.01857939 0.09957993 -0.062115394
-0.018955614 0.099566258 -0.061605774
-0.019093383 0.099503674 -0.061105922
-0.025993943 0.10082878 -0.060329571
-0.027362421 0.1010187 -0.059779376
-0.028516427 0.10116475 -0.059238009
-0.029812351 0.10133979 -0.058690816
-0.030920178 0.10147616 -0.05815129
-0.032307886 0.10167014 -0.057600379
-0.03335885 0.1017949 -0.05706317
-0.034323163 0.10190193 -0.056529559
-0.034880057 0.1019253 -0.056012601
-0.035454333 0.10195228 -0.055494905
-0.035950877 0.10196336 -0.054980423
-0.036288179 0.10194172 -0.054472424
-0.036580443 0.10191081 -0.053966325
-0.037065841 0.10191955 -0.053452257
-0.037890844 0.10199802 -0.052924342
-0.038552426 0.10204291 -0.052403092
-0.039000124 0.10204396 -0.051890589
-0.0393169 0.10201813 -0.051383417
-0.039603971 0.10198617 -0.05087753
-0.039882392 0.10195245 -0.05037193
-0.040150188 0.10191655 -0.049866807
-0.040375143 0.10187187 -0.049363401
-0.040625125 0.10183225 -0.048859037
-0.040835865 0.10178469 -0.048356183
-0.041065097 0.1017409 -0.047852613
-0.041249759 0.10168788 -0.047350913
-0.041406333 0.10162918 -0.04685032
-0.041563287 0.10157055 -0.046349686
-0.041726425 0.10151315 -0.045848813
-0.041825816 0.10144269 -0.045350585
-0.041960068 0.10137943 -0.044850901
-0.042035677 0.10130401 -0.044353656
-0.042160787 0.10123889 -0.043854337
-0.042254098 0.1011672 -0.043356333
-0.042317621 0.1010894 -0.042859565
-0.042370565 0.10100936 -0.042363212
-0.042401493 0.10092489 -0.04186777
-0.042463049 0.1008466 -0.041370984
-0.042485915 0.10076052 -0.040875927
-0.042485543 0.10066954 -0.040381715
-0.042496592 0.10058104 -0.039887086
-0.042482637 0.1004873 -0.039393507
-0.04243318 0.10038625 -0.038901299
-0.04240524 0.10028967 -0.038408253
-0.042369165 0.10019148 -0.037915528
-0.042311586 0.10008872 -0.037423678
-0.042258896 0.099987149 -0.036931686
-0.04215347 0.099874608 -0.036441822
-0.042068459 0.099766389 -0.035951078
-0.041984774 0.099658348 -0.035460364
-0.041913532 0.09955281 -0.034969095
-0.041802831 0.099439256 -0.034479376
-0.041683428 0.099323891 -0.033990037
-0.041569166 0.099209636 -0.033500582
-0.041475803 0.099099673 -0.033010181
-0.041365854 0.098986208 -0.032520525
-0.041233361 0.098868154 -0.032031741
-0.041076928 0.098745212 -0.031543985
-0.040885121 0.098615088 -0.031057572
-0.040601686 0.098466061 -0.030575013
-0.04017736 0.098288149 -0.030098213
-0.039466262 0.098051392 -0.029633032
-0.038902059 0.097844735 -0.02916198
-0.038497865 0.097670905 -0.028684283
-0.038177878 0.097514458 -0.028203221
-0.037888147 0.097364157 -0.027720848
-0.037554413 0.097204819 -0.027240327
-0.037174106 0.097035959 -0.02676167
-0.03675136 0.096858382 -0.02628481
-0.036244147 0.096663371 -0.025811404
-0.035694435 0.096459813 -0.025339631
-0.035117157 0.096250474 -0.024869131
-0.034491539 0.096031271 -0.024400467
-0.033788174 0.095796078 -0.02393508
-0.033178769 0.095580213 -0.02346582
-0.032742336 0.09539973 -0.022989424
-0.032454357 0.095249884 -0.022507047
-0.032364607 0.095140614 -0.022016531
-0.032427825 0.095062666 -0.021519719
-0.0325642 0.094999805 -0.021020031
-0.032618262 0.094920114 -0.020523587
-0.032600574 0.094825551 -0.020030178
-0.032513887 0.094716996 -0.019539459
-0.032325216 0.094587401 -0.019053003
-0.032077536 0.094445698 -0.018568978
-0.031782709 0.094294399 -0.018086836
-0.031416163 0.094128355 -0.017607648
-0.030977644 0.093947493 -0.017131394
-0.026739851 0.092714556 -0.015327951
-0.026747242 0.092625238 -0.014833419
-0.026545465 0.09249296 -0.014347518
-0.026270144 0.092345655 -0.013864603
-0.02605015 0.09220966 -0.01337936
-0.025842719 0.09207619 -0.012893738
-0.025645949 0.091944978 -0.01240753
-0.025422163 0.091808267 -0.011922544
-0.025160179 0.091663599 -0.011439098
-0.024938449 0.091527261 -0.010953959
-0.024736516 0.091394939 -0.010467967
-0.024567768 0.091269493 -0.0099807307
-0.024485007 0.091161691 -0.0094899256
-0.024477363 0.091069296 -0.0089960527
-0.024511583 0.090985484 -0.0085004345
-0.024581872 0.090909012 -0.0080033988
-0.024771526 0.090857074 -0.007501435
-0.024964787 0.090805829 -0.006999345
-0.025247127 0.090772942 -0.0064936359
-0.025546938 0.090743653 -0.0059872014
-0.025949657 0.090735435 -0.0054765404
-0.026327901 0.090722136 -0.0049668704
-0.026675351 0.090702608 -0.0044584521
-0.027088992 0.09069667 -0.003947332
-0.027510859 0.090692379 -0.0034359302
-0.027741157 0.090648726 -0.00293225
-0.028026752 0.090616494 -0.0024264506
-0.028124139 0.090545647 -0.0019282289
-0.028187655 0.09046787 -0.0014314605
-0.028049059 0.090348572 -0.00094295386
-0.027972408 0.090241991 -0.00045187864
-0.009480603 0.09940397 -0.0678223
-0.0098675564 0.099392466 -0.067312241
-0.013765305 0.10000852 -0.066164725
-0.014704343 0.10010988 -0.06563212
-0.01553956 0.10019004 -0.065103829
-0.016271301 0.10024909 -0.064579792
-0.016953576 0.10029801 -0.064057685
-0.017491303 0.10031735 -0.063541546
-0.018098235 0.1003508 -0.063022502
-0.01860337 0.10036347 -0.062507696
-0.01901114 0.10035625 -0.061996877
-0.019374203 0.10033976 -0.061487786
-0.019424178 0.1002593 -0.060991548
-0.026199952 0.10155482 -0.060220681
-0.027571544 0.10174477 -0.059670478
-0.028819419 0.10190932 -0.059125327
-0.029880024 0.1020356 -0.058587797
-0.030946724 0.10216311 -0.058050048
-0.032521129 0.10239456 -0.057491578
-0.033534728 0.10251128 -0.056955934
-0.034464575 0.10261077 -0.056423791
-0.03505218 0.10264028 -0.055905603
-0.035632007 0.1026682 -0.055387732
-0.036053903 0.10266392 -0.054876268
-0.036380485 0.10264002 -0.054368723
-0.036693521 0.10261335 -0.053861752
-0.03712897 0.10261171 -0.053349759
-0.037840769 0.10266671 -0.052826472
-0.038477458 0.10270626 -0.05230628
-0.038908809 0.10270388 -0.051794484
-0.039195567 0.10267181 -0.051288575
-0.039455257 0.1026343 -0.050783742
-0.039705686 0.10259482 -0.050279316
-0.039978147 0.10255986 -0.049773954
-0.040201358 0.10251485 -0.049270678
-0.040452704 0.10247561 -0.048766188
-0.040676162 0.1024306 -0.048262868
-0.040895686 0.10238487 -0.047759708
-0.041087247 0.10233338 -0.047257654
-0.041258596 0.10227775 -0.046756487
-0.041409522 0.10221797 -0.046256106
-0.041571997 0.1021605 -0.045755234
-0.041702628 0.10209654 -0.045255706
-0.041814305 0.10202876 -0.044756908
-0.041889876 0.10195353 -0.044259652
-0.041996844 0.10188471 -0.043761034
-0.042099856 0.10181505 -0.043262616
-0.042154878 0.1017357 -0.042766202
-0.042221464 0.10165861 -0.04226923
-0.042256057 0.10157507 -0.041773684
-0.042298608 0.10149307 -0.041277707
-0.042319149 0.10140657 -0.04078266
-0.042324439 0.10131697 -0.040288262
-0.04231856 0.10122513 -0.039794292
-0.042302907 0.10113125 -0.039300703
-0.042255089 0.10103073 -0.03880845
-0.042219788 0.10093285 -0.03831568
-0.042184837 0.10083501 -0.037822876
-0.042140268 0.10073525 -0.037330516
-0.042081937 0.1006326 -0.036838707
-0.042015716 0.10052837 -0.036347248
-0.041943625 0.10042301 -0.035855964
-0.04185091 0.10031334 -0.035365548
-0.041756161 0.10020327 -0.034875199
-0.041630857 0.10008691 -0.034386117
-0.041501485 0.099969767 -0.033897154
-0.041400269 0.099858418 -0.033407114
-0.04129719 0.0997466 -0.032917108
-0.041193038 0.099634647 -0.032427214
-0.041057251 0.099516235 -0.031938475
-0.040926188 0.099398658 -0.031449635
-0.040785097 0.099279113 -0.030961147
-0.040549979 0.099140354 -0.030476602
-0.040219478 0.098982066 -0.029995853
-0.039396353 0.098722987 -0.02953524
-0.03873881 0.098497786 -0.02906788
-0.038383923 0.098334543 -0.028588155
-0.03809952 0.098185696 -0.028105618
-0.03783264 0.098040439 -0.027622281
-0.037530862 0.097887993 -0.027140418
-0.037118793 0.097712986 -0.026663058
-0.036644533 0.097525328 -0.026188245
-0.036135845 0.097330593 -0.025714695
-0.03551776 0.097113438 -0.025245791
-0.034822561 0.09688057 -0.02477992
-0.034249075 0.096672535 -0.02430913
-0.033633925 0.096455991 -0.023840087
-0.032998256 0.096235305 -0.02337184
-0.032522425 0.096047327 -0.0228971
-0.03220062 0.09589082 -0.022415964
-0.032002121 0.095759474 -0.02192984
-0.031966031 0.095661372 -0.021437107
-0.032066613 0.095591292 -0.020938873
-0.032120101 0.095511623 -0.020442439
-0.03208603 0.095413908 -0.019949654
-0.031986542 0.09530288 -0.019459506
-0.031784855 0.095171012 -0.018973501
-0.031548195 0.095031925 -0.018488938
-0.03133554 0.09489774 -0.018003473
-0.031027496 0.094744027 -0.017521806
-0.026077382 0.093368612 -0.015747091
-0.026151605 0.093293108 -0.015249865
-0.02617944 0.093208104 -0.014754593
-0.025982857 0.093077227 -0.01426835
-0.025749594 0.092938803 -0.013783654
-0.025598086 0.092817143 -0.01329566
-0.025440931 0.092694394 -0.012807855
-0.025196724 0.09255375 -0.012323594
-0.024895765 0.092401423 -0.011841709
-0.024638034 0.092258036 -0.011357995
-0.024427295 0.092124216 -0.01087242
-0.024187475 0.091984496 -0.010387996
-0.024005651 0.091856651 -0.0099011753
-0.023884803 0.091741301 -0.0094119608
-0.023798421 0.09163288 -0.0089212731
-0.023812965 0.091545239 -0.0084264446
-0.023879416 0.091468155 -0.0079295207
-0.024044901 0.0914113 -0.0074285907
-0.024213895 0.091355219 -0.0069274646
-0.024297841 0.09128163 -0.0064298348
-0.024476536 0.091227584 -0.0059282989
-0.024905048 0.091224514 -0.0054166769
-0.025102019 0.091174185 -0.0049143923
-0.025487132 0.091162227 -0.0044045034
-0.025730237 0.091121346 -0.0039003431
-0.026079059 0.091101989 -0.0033918694
-0.026523523 0.091102213 -0.002879512
-0.026775196 0.091063 -0.0023750281
-0.027140349 0.091047101 -0.0018658959
-0.027307846 0.09099061 -0.0013649007
-0.0094219036 0.10008352 -0.067723364
-0.01009573 0.10013048 -0.067201667
-0.012994617 0.10063126 -0.066589303
-0.014380336 0.10082335 -0.066038571
-0.015258044 0.10091186 -0.065508537
-0.01603372 0.10097955 -0.064982742
-0.016740292 0.10103313 -0.064459689
-0.017425843 0.1010825 -0.063937515
-0.017950211 0.1010989 -0.063421905
-0.018564235 0.10113364 -0.062902667
-0.019002166 0.10113246 -0.062390596
-0.019472841 0.10113788 -0.061877169
-0.019779991 0.1011101 -0.061370425
-0.01988408 0.1010408 -0.060871996
-0.026486211 0.1022968 -0.060108647
-0.027880497 0.10249068 -0.059557572
-0.029100262 0.10264894 -0.05901359
-0.02997037 0.10273591 -0.058483943
-0.031088807 0.10287355 -0.057944123
-0.03276027 0.10312395 -0.057381768
-0.033729248 0.10323103 -0.056848016
-0.034600616 0.10331827 -0.056318291
-0.035246797 0.10335953 -0.055797715
-0.035788313 0.1033795 -0.055281393
-0.036174238 0.10336766 -0.054771475
-0.036492109 0.10334206 -0.05426427
-0.036765113 0.10330718 -0.053758919
-0.037126787 0.1032904 -0.053249951
-0.037717693 0.10332046 -0.052731622
-0.038338266 0.10335651 -0.052212127
-0.038737632 0.10334741 -0.051701598
-0.039036125 0.10331784 -0.051195189
-0.039248869 0.10327068 -0.050692305
-0.039510347 0.10323352 -0.050187439
-0.039762571 0.10319449 -0.049682926
-0.040011421 0.1031547 -0.049178585
-0.040253736 0.10311361 -0.048674479
-0.040455759 0.10306437 -0.048171993
-0.04066886 0.10301726 -0.047669109
-0.040889397 0.10297175 -0.047165863
-0.041108355 0.10292585 -0.046662729
-0.041241571 0.10286254 -0.046163049
-0.041399255 0.10280421 -0.045662422
-0.041567333 0.10274801 -0.045161322
-0.041662537 0.10267687 -0.044663232
-0.04173819 0.10260186 -0.044165913
-0.041827314 0.10252948 -0.043668054
-0.041918881 0.10245764 -0.043170132
-0.041988954 0.10238145 -0.042672966
-0.042065404 0.10230654 -0.042175658
-0.04209616 0.10222224 -0.041680228
-0.042121761 0.10213703 -0.041184891
-0.042128727 0.10204787 -0.040690467
-0.042137638 0.10195915 -0.040195819
-0.042139165 0.10186905 -0.039701566
-0.042108931 0.10177235 -0.039208524
-0.042078443 0.10167562 -0.038715564
-0.04204794 0.1015789 -0.038222603
-0.042012691 0.10148123 -0.037729848
-0.041972771 0.10138251 -0.037237227
-0.041927375 0.10128275 -0.036744878
-0.041860141 0.10117855 -0.036253326
-0.041798502 0.10107545 -0.035761669
-0.041691899 0.10096324 -0.035271708
-0.041581042 0.10085008 -0.034782104
-0.041443303 0.1007315 -0.034293447
-0.041322336 0.10061633 -0.033804148
-0.04122629 0.10050619 -0.033313893
-0.041119456 0.10039394 -0.03282392
-0.041006938 0.10028045 -0.032334343
-0.040883727 0.10016487 -0.0318451
-0.040775865 0.1000523 -0.031355277
-0.040653966 0.099936984 -0.030866047
-0.040445499 0.099803887 -0.030380299
-0.040150106 0.099653132 -0.029898154
-0.039494634 0.099428922 -0.029430607
-0.038695529 0.099175461 -0.028968958
-0.03830605 0.099005543 -0.028490612
-0.038034827 0.098859712 -0.028007438
-0.037766047 0.098714411 -0.027524201
-0.037468232 0.09856309 -0.027042037
-0.037055738 0.09838853 -0.026564639
-0.036560558 0.098196983 -0.026090622
-0.035973541 0.097986802 -0.025620339
-0.035260074 0.097750723 -0.025155183
-0.034713447 0.097548701 -0.024683276
-0.034062237 0.097325377 -0.024215611
-0.033377327 0.097095221 -0.023749253
-0.032741018 0.09687496 -0.023280967
-0.032232173 0.096680634 -0.022807533
-0.031848013 0.096511759 -0.02232895
-0.031580165 0.096366577 -0.021845646
-0.031420536 0.096243598 -0.021357859
-0.031348743 0.096138395 -0.020866616
-0.031339943 0.096046135 -0.02037267
-0.031173952 0.09592177 -0.019885262
-0.031129919 0.095822297 -0.019392842
-0.031070076 0.095719546 -0.018901126
-0.030831136 0.095580332 -0.018416574
-0.0250035 0.093939185 -0.016182976
-0.025343932 0.0939181 -0.015674932
-0.025551625 0.093869932 -0.015172202
-0.025520556 0.093773134 -0.014679277
-0.025362954 0.093650416 -0.014191441
-0.025234647 0.093533747 -0.013702458
-0.025097772 0.093415372 -0.013213806
-0.024875984 0.093279533 -0.0127286
-0.024594545 0.093131706 -0.012245914
-0.024357185 0.092992805 -0.011761289
-0.024043508 0.09283834 -0.011279898
-0.023784727 0.092694998 -0.010796174
-0.023557901 0.09255828 -0.010311242
-0.023348764 0.092425048 -0.0098254718
-0.023145117 0.092293009 -0.0093395449
-0.023014091 0.092175774 -0.0088507067
-0.022954062 0.092072971 -0.0083588958
-0.022862621 0.091963872 -0.0078684501
-0.022799872 0.091860622 -0.0073767737
-0.022765562 0.091763064 -0.006883957
-0.022880934 0.091696098 -0.0063850391
-0.022984408 0.091626696 -0.0058865161
-0.023074135 0.091554433 -0.0053887633
-0.023146451 0.09147875 -0.0048915264
-0.023485079 0.0914573 -0.004383544
-0.023973584 0.091466367 -0.0038693654
-0.024487868 0.091480792 -0.0033541988
-0.0092561543 0.1008316 -0.068123117
-0.0095157214 0.10079408 -0.067618273
-0.012483846 0.10130724 -0.067003235
-0.013856992 0.10149612 -0.066453151
-0.014800034 0.10159762 -0.065920562
-0.015740328 0.10169844 -0.065388009
-0.016484149 0.10175934 -0.064863496
-0.017195802 0.10181372 -0.064340308
-0.017826337 0.10185161 -0.063820414
-0.018343952 0.10186648 -0.063305102
-0.018925533 0.10189446 -0.062787153
-0.019396085 0.10189977 -0.062273785
-0.019846335 0.10190098 -0.061761215
-0.020178989 0.10187832 -0.061253481
-0.020340536 0.10182081 -0.060752615
-0.026904427 0.10306524 -0.059991255
-0.028240018 0.10324644 -0.059442699
-0.029295273 0.10337067 -0.05890549
-0.030064248 0.10343673 -0.058379933
-0.031443179 0.10362679 -0.057829551
-0.032886662 0.10382993 -0.057276569
-0.03384383 0.10393427 -0.056743376
-0.034714028 0.10402085 -0.056213707
-0.035333179 0.1040564 -0.055694282
-0.03586182 0.10407359 -0.055178531
-0.036241122 0.10406034 -0.054668829
-0.036568694 0.10403667 -0.05416128
-0.036811352 0.10399562 -0.053657155
-0.037102729 0.10396459 -0.053151038
-0.037604108 0.10397612 -0.052636381
-0.038153522 0.10399757 -0.052119769
-0.038501196 0.10397787 -0.05161142
-0.038825862 0.10395361 -0.051103942
-0.039084405 0.10391584 -0.050599176
-0.039325371 0.10387447 -0.050095119
-0.039600745 0.10384011 -0.049589656
-0.03986074 0.10380265 -0.049084872
-0.040105656 0.1037621 -0.048580617
-0.040292889 0.10370985 -0.048078775
-0.040530011 0.10366773 -0.047574878
-0.040705755 0.10361307 -0.047073487
-0.040937208 0.1035699 -0.046569832
-0.041074932 0.1035075 -0.046069961
-0.041251108 0.10345303 -0.045568574
-0.041421786 0.10339736 -0.045067359
-0.041522712 0.10332752 -0.04456903
-0.041598253 0.10325258 -0.044071704
-0.041695021 0.10318197 -0.043573476
-0.041773118 0.10310749 -0.043076128
-0.041849256 0.10303263 -0.042578753
-0.041909769 0.10295463 -0.042082068
-0.041957475 0.10287395 -0.041585851
-0.041962631 0.10278464 -0.041091364
-0.041984096 0.10269867 -0.040596325
-0.041976824 0.10260683 -0.040102389
-0.041975215 0.10251619 -0.039608166
-0.041954614 0.10242172 -0.03911477
-0.041919574 0.10232419 -0.038621999
-0.041897886 0.10222945 -0.038128588
-0.041868076 0.10213303 -0.037635535
-0.041837633 0.10203651 -0.037142593
-0.041801482 0.10193881 -0.036649801
-0.041737914 0.10183564 -0.036158118
-0.04166048 0.10172947 -0.035667047
-0.041553661 0.10161745 -0.035177182
-0.041445903 0.10150518 -0.034687273
-0.041318916 0.10138907 -0.034198172
-0.04119727 0.1012739 -0.033708844
-0.041077577 0.10115933 -0.033219524
-0.040953778 0.10104377 -0.032730307
-0.040828258 0.10092786 -0.032241199
-0.040728472 0.1008173 -0.031750973
-0.04062634 0.10070613 -0.031260874
-0.04051096 0.10059234 -0.03077135
-0.040327646 0.10046479 -0.030284604
-0.040071405 0.10032231 -0.029800737
-0.039491393 0.100114 -0.029330162
-0.038638055 0.09985017 -0.028870573
-0.038251646 0.099681295 -0.028392119
-0.037986614 0.099537 -0.027908584
-0.037712701 0.099390991 -0.027425556
-0.037404723 0.099238001 -0.02694387
-0.036980495 0.099061392 -0.026466809
-0.036475256 0.098868378 -0.025993209
-0.035884269 0.098657854 -0.025522938
-0.035223141 0.098433062 -0.025055647
-0.034599751 0.098215982 -0.024586692
-0.033834405 0.097969957 -0.024123607
-0.033143468 0.097739197 -0.023657529
-0.032518946 0.097521842 -0.023188656
-0.032001384 0.097326219 -0.022715447
-0.031545497 0.097143285 -0.022239754
-0.031175703 0.096977681 -0.021760589
-0.030927971 0.096836977 -0.021276463
-0.030685998 0.096697472 -0.020792099
-0.030572169 0.096583955 -0.020302372
-0.030507684 0.096480474 -0.01981079
-0.030523948 0.096393488 -0.019315945
-0.025280461 0.09496595 -0.017552312
-0.02493865 0.094806097 -0.017071979
-0.024692945 0.094665781 -0.016587798
-0.024585754 0.09455359 -0.016097855
-0.024509221 0.094447725 -0.015606681
-0.024610355 0.09437792 -0.015108386
-0.024654225 0.094296515 -0.014612291
-0.024646014 0.094204567 -0.014118424
-0.024589449 0.094102666 -0.013626495
-0.024447791 0.093983538 -0.013138015
-0.024214089 0.093845658 -0.012653273
-0.024027653 0.093717486 -0.01216658
-0.02375444 0.093571573 -0.01168347
-0.023421466 0.093413532 -0.011202715
-0.023147993 0.093267597 -0.010719687
-0.022854567 0.093117602 -0.010237433
-0.022597536 0.092974909 -0.0097535998
-0.022388075 0.092842065 -0.0092678554
-0.022151999 0.092703648 -0.0087832268
-0.021985084 0.09257938 -0.008295767
-0.02177348 0.092446037 -0.0078101386
-0.02162673 0.092325829 -0.0073219161
-0.021578621 0.092225775 -0.0068295863
-0.021516647 0.092122816 -0.0063378536
-0.021365285 0.092001677 -0.0058497903
-0.021303732 0.091898873 -0.0053580529
-0.021336187 0.091815107 -0.0048624878
-0.021006595 0.091652222 -0.0043704337
-0.020579085 0.09146674 -0.0038767555
-0.020445168 0.091344379 -0.0033781147
-0.020207807 0.091199845 -0.0028813118
-0.0091308989 0.10149749 -0.068026915
-0.0094741806 0.10147699 -0.067518689
-0.013210874 0.10214429 -0.066872619
-0.014273513 0.10226952 -0.066335179
-0.015171707 0.10236147 -0.065804482
-0.016134016 0.10246642 -0.065271139
-0.016863778 0.10252418 -0.064747252
-0.017568029 0.10257683 -0.064224362
-0.018135458 0.10260164 -0.063706987
-0.018650357 0.10261585 -0.063191831
-0.019272581 0.10265183 -0.062672302
-0.019784592 0.10266542 -0.062157206
-0.020211026 0.10266175 -0.061645634
-0.020556264 0.10264152 -0.061137319
-0.020779017 0.10259654 -0.060634047
-0.027119905 0.10379186 -0.059882142
-0.028635137 0.10400889 -0.059326306
-0.02951362 0.1040968 -0.058796376
-0.030316487 0.10416942 -0.058269493
-0.03172306 0.10436438 -0.057718087
-0.032895625 0.10451184 -0.057176173
-0.033852749 0.10461578 -0.056643035
-0.034701779 0.10469774 -0.056114256
-0.035305373 0.10472996 -0.055595502
-0.035838462 0.10474785 -0.055079557
-0.036235012 0.10473809 -0.0545692
-0.036545798 0.10471091 -0.054062322
-0.036784053 0.10466904 -0.053558357
-0.037040912 0.10463086 -0.053053685
-0.037463978 0.10462653 -0.052542221
-0.037965357 0.10463796 -0.052027576
-0.038281105 0.10461187 -0.051520497
-0.038654976 0.10459748 -0.051011033
-0.038990028 0.10457525 -0.050503168
-0.039279178 0.10454369 -0.049997121
-0.039556436 0.1045097 -0.049491663
-0.039841406 0.10447728 -0.048985802
-0.040102102 0.10444 -0.048480928
-0.040313467 0.10439266 -0.047978099
-0.040541902 0.10434885 -0.047474515
-0.040686361 0.10428789 -0.046974439
-0.040873811 0.10423575 -0.046472557
-0.04098852 0.1041688 -0.045973599
-0.041135237 0.10410845 -0.045473371
-0.041276775 0.1040469 -0.044973388
-0.041406021 0.10398296 -0.044473842
-0.041473195 0.10390646 -0.043976851
-0.041564539 0.10383479 -0.043478835
-0.041638434 0.10375963 -0.042981632
-0.041724049 0.10368678 -0.042483836
-0.041776866 0.10360733 -0.041987479
-0.041824624 0.10352688 -0.041491285
-0.041833229 0.10343843 -0.040996678
-0.041835777 0.10334874 -0.040502273
-0.041837618 0.10325896 -0.040007941
-0.041823559 0.10316589 -0.039514251
-0.041810066 0.10307302 -0.03902052
-0.041796736 0.10298017 -0.038526878
-0.041779891 0.1028866 -0.038033191
-0.041758142 0.102792 -0.037539851
-0.041734792 0.10269716 -0.037046567
-0.041698404 0.10259963 -0.036553752
-0.041650139 0.10249966 -0.036061447
-0.041585192 0.10239629 -0.035569824
-0.041491881 0.10228723 -0.035079397
-0.041391291 0.10217666 -0.034589183
-0.041262269 0.10206027 -0.03410013
-0.04112757 0.10194282 -0.033611346
-0.04097379 0.10182153 -0.03312334
-0.040825211 0.10170118 -0.032635156
-0.040672369 0.10158002 -0.032147083
-0.040561698 0.10146748 -0.031657305
-0.040462203 0.10135716 -0.03116711
-0.040345788 0.10124331 -0.030677592
-0.040171698 0.10111794 -0.030190388
-0.039938174 0.10098039 -0.029705608
-0.039420962 0.1007854 -0.029232325
-0.038583718 0.10052551 -0.028772136
-0.038189091 0.10035529 -0.028293846
-0.037933394 0.1002133 -0.027810017
-0.037650213 0.10006572 -0.027327267
-0.037327215 0.099910051 -0.026846102
-0.036928706 0.099739097 -0.026368024
-0.03644973 0.099551886 -0.025893221
-0.035666667 0.09930294 -0.025430791
-0.035099149 0.099097721 -0.02495954
-0.034544818 0.098895155 -0.024487793
-0.033820532 0.098658189 -0.02402295
-0.033035085 0.098408826 -0.023560615
-0.032323122 0.098174252 -0.023095276
-0.031889163 0.097996131 -0.022618698
-0.031457119 0.097818375 -0.02214201
-0.030987427 0.097633041 -0.021666797
-0.030593328 0.097462893 -0.021188557
-0.03026966 0.097307138 -0.020707376
-0.026334532 0.096148707 -0.01889026
-0.0258523 0.095960841 -0.018415552
-0.025483385 0.095795847 -0.017936248
-0.025033206 0.095614396 -0.017460268
-0.024634205 0.095443383 -0.016982259
-0.024301372 0.095285684 -0.016501555
-0.024014123 0.095137328 -0.01601892
-0.023792557 0.095002219 -0.015533661
-0.023624457 0.094877981 -0.015046244
-0.023623131 0.094787568 -0.01455204
-0.023703851 0.094713733 -0.014054487
-0.023696236 0.094622053 -0.01356048
-0.0236421 0.094520889 -0.01306846
-0.023486443 0.094399154 -0.012580484
-0.023208514 0.094252691 -0.012097571
-0.02288609 0.094097093 -0.011616373
-0.022653908 0.093959928 -0.011131503
-0.022361021 0.09381032 -0.010649171
-0.02206745 0.093660697 -0.010166811
-0.021806147 0.093517527 -0.0096831843
-0.021533903 0.093372151 -0.0091999974
-0.021316141 0.093237877 -0.0087146014
-0.021117374 0.093107402 -0.0082283914
-0.020874705 0.092967987 -0.0077439831
-0.020735729 0.092849739 -0.0072553162
-0.020462789 0.092704162 -0.0067722141
-0.020170774 0.092553593 -0.0062873387
-0.01998071 0.092419326 -0.0057895943
-0.019900195 0.092308536 -0.0052901735
-0.019826423 0.092199169 -0.0047904751
-0.019731477 0.092085332 -0.0042912359
-0.019630797 0.091970176 -0.0037920368
-0.019550525 0.091859505 -0.0032925219
-0.019372396 0.091727808 -0.0027945102
-0.0089382119 0.10214984 -0.067933537
-0.012679055 0.1028159 -0.067287549
-0.013709072 0.10293406 -0.066751443
-0.014709808 0.10304629 -0.066216618
-0.015558444 0.1031278 -0.065687932
-0.016515892 0.10323137 -0.065154746
-0.017266903 0.10329315 -0.064630009
-0.017906345 0.10333238 -0.064109765
-0.018461008 0.10335445 -0.063593008
-0.01908052 0.10338976 -0.063073643
-0.019668277 0.10341847 -0.062555484
-0.020119555 0.10341973 -0.062042922
-0.020528298 0.10341232 -0.061532073
-0.020920254 0.10340152 -0.061021864
-0.021195617 0.10336716 -0.060516424
-0.027712569 0.10459431 -0.059757821
-0.028980657 0.10476062 -0.059212103
-0.029831782 0.10484266 -0.058683276
-0.03074947 0.10493816 -0.058151796
