# .PCD v0.7 - Point Cloud Data file format
VERSION 0.7
FIELDS x y z
SIZE 4 4 4
TYPE F F F
COUNT 1 1 1
WIDTH 1313
HEIGHT 1
VIEWPOINT 0 0 0 1 0 0 0
POINTS 1313
DATA ascii
0.077303603 0.070953898 0.012058012
0.077243999 0.070917606 0.011524845
0.077156022 0.070879288 0.01098441
0.077065766 0.070840769 0.010443453
0.077014275 0.070805162 0.009912245
0.076921955 0.070766546 0.0093706958
0.076822959 0.070727386 0.0088274442
0.076719746 0.070688032 0.0082832165
0.076673731 0.070652686 0.0077533796
0.076567754 0.070613161 0.007208433
0.076451331 0.070572779 0.006660793
0.076339014 0.070532776 0.0061142035
0.076191947 0.070490271 0.0055587888
0.07613007 0.0704538 0.0050249584
0.074933551 0.070336774 0.0042027906
0.074633345 0.070283383 0.0036084186
0.074662149 0.070253335 0.0030977037
0.074714705 0.07022506 0.0025930107
0.074678428 0.070190459 0.0020657349
0.074552335 0.070149437 0.0015156046
0.074327007 0.070101336 0.0009402819
0.074012853 0.070046917 0.00034237653
0.073748 0.069996126 -0.00024303049
0.073460586 0.069943555 -0.00083412975
0.0731197 0.069887273 -0.0014388468
0.0710347 0.069672018 -0.0030256081
0.070968591 0.069633633 -0.003572356
0.070789605 0.069586746 -0.0041507445
0.07060422 0.069539391 -0.0047308411
0.064729422 0.068832308 -0.010599999
0.064202122 0.068759345 -0.01127572
0.063788593 0.068695001 -0.01191961
0.063427366 0.068634473 -0.012548938
0.06317126 0.06858179 -0.013148809
0.063002951 0.068535738 -0.013724161
0.060963221 0.068282776 -0.01587938
0.060721278 0.068231218 -0.016475359
0.060376711 0.068172008 -0.017099937
0.059797309 0.068095118 -0.017790295
0.059524253 0.068041228 -0.018394906
0.059396513 0.067998178 -0.018958926
0.059215613 0.067951202 -0.019537769
0.058976583 0.067899823 -0.020132897
0.058452182 0.067827053 -0.020807751
0.057950415 0.067756064 -0.021476431
0.057712451 0.067704789 -0.022071226
0.05749397 0.067654997 -0.022660621
0.057320043 0.067608498 -0.023237478
0.055608168 0.067380011 -0.025301028
0.055367291 0.067328542 -0.025896674
0.044145066 0.065975003 -0.037003476
0.043774255 0.065908067 -0.037656374
0.043520335 0.065850616 -0.038273364
0.043377802 0.065802403 -0.038856123
0.04326167 0.065756351 -0.039430864
0.043119434 0.065708131 -0.040013611
0.04297043 0.065659329 -0.040598419
0.042707838 0.065601237 -0.041218035
0.042433437 0.065542206 -0.041841377
0.042185783 0.065485328 -0.042456377
0.041918073 0.065426752 -0.043077573
0.041681495 0.06537082 -0.043689303
0.04143291 0.065313853 -0.044304632
0.041173007 0.06525594 -0.044923477
0.041030817 0.065207712 -0.045506176
-0.058430128 0.065536246 0.038806338
-0.057348356 0.065588191 0.03859913
-0.055997074 0.065662071 0.038474452
-0.054916367 0.065713935 0.038266908
-0.05394147 0.065757148 0.038026873
-0.053065181 0.065792359 0.03775654
-0.052359153 0.065813661 0.037434023
-0.051678967 0.065832883 0.037103631
-0.051068351 0.06584648 0.03675181
-0.050561544 0.065851606 0.036368176
-0.050038364 0.065857947 0.035989579
-0.049590662 0.065858282 0.035587765
-0.049241219 0.065850519 0.035155863
-0.04881395 0.065849163 0.034747895
-0.044689707 0.066148996 0.03547382
-0.044091348 0.066161558 0.035118278
-0.04359667 0.066165656 0.034730915
-0.043207072 0.066161178 0.034311336
-0.042873044 0.066152193 0.033874758
-0.042568248 0.066140875 0.033429123
-0.042313978 0.066125311 0.032968011
-0.042140551 0.066103257 0.032482132
-0.042005815 0.066077992 0.031984378
-0.041969165 0.066044867 0.031456534
-0.042043805 0.066002488 0.030894566
-0.042205755 0.065953158 0.030305795
-0.04242352 0.065899238 0.029699922
-0.046215631 0.065409154 0.025841359
-0.046331719 0.065363489 0.025266644
-0.046362866 0.065324798 0.024717983
-0.04646913 0.065279901 0.024146326
-0.046598677 0.065233111 0.023567565
-0.029274367 0.066608578 0.028342355
-0.028467812 0.066638052 0.028050721
-0.027334087 0.066694237 0.027859386
-0.026465986 0.066728808 0.027586609
-0.025730692 0.066752553 0.02727304
-0.024865229 0.066786826 0.026999395
-0.02407697 0.066814892 0.026702132
-0.02343297 0.066831112 0.026360575
-0.022754151 0.06685026 0.026029702
-0.019041393 0.067116521 0.026629474
-0.017839801 0.067178257 0.026458897
-0.016919266 0.067217052 0.026202183
-0.016042465 0.067252278 0.02593207
-0.015147036 0.067289099 0.025667634
-0.014412438 0.06731274 0.025353815
-0.013666843 0.067337237 0.025043484
-0.012933112 0.067360386 0.024727587
-0.012300679 0.067374043 0.024376202
-0.011707962 0.067384817 0.024013739
-0.011229451 0.067386985 0.023619313
-0.010814867 0.067384481 0.023206938
-0.010386904 0.067382917 0.022798393
-0.0099103982 0.067384988 0.022403426
-0.0094238408 0.067387819 0.022011179
-0.0090175178 0.067384765 0.021596562
-0.0087600285 0.067370489 0.02114033
-0.0085461531 0.06735304 0.020671908
-0.0084425034 0.06732738 0.020172577
-0.0084186587 0.067294218 0.019645203
-0.0084731644 0.067253649 0.019089378
-0.0085439691 0.06721165 0.018528588
-0.0086153783 0.067169562 0.017967638
0.030894846 0.070054881 0.028006379
0.032248437 0.07012216 0.027856749
0.033393297 0.070174031 0.027648669
0.034067657 0.070190877 0.027309027
0.034598265 0.070196964 0.026929189
0.035065167 0.07019829 0.026531499
0.035440039 0.070192799 0.026108064
0.035681631 0.070177406 0.025647376
0.035808038 0.070153423 0.025154453
0.056485176 0.071607515 0.030076869
0.06099759 0.07189364 0.030705664
0.06178356 0.071917273 0.030387245
0.065590151 0.07215374 0.030836686
0.066571571 0.072191127 0.030568037
0.067605704 0.07223212 0.030312803
0.068619557 0.072271854 0.030052397
0.069560163 0.072306246 0.029773403
0.070488177 0.07233993 0.029491212
0.071269758 0.072363168 0.029171761
0.071962707 0.072380185 0.028829794
0.072469383 0.072384097 0.028440505
0.072984606 0.072388567 0.028053436
0.073441997 0.072389044 0.027651645
0.073894978 0.072389141 0.027248677
0.07429263 0.072385438 0.02683169
0.074737005 0.072384872 0.026426561
0.075128257 0.072380699 0.026008014
0.075499944 0.072375037 0.025584418
0.075776257 0.072362773 0.025136545
0.076068155 0.072351523 0.024692658
0.076367155 0.072340734 0.024250604
0.076617084 0.072326623 0.023796123
0.076876745 0.07231304 0.023344059
0.077107266 0.072297521 0.022884518
0.077340044 0.072282091 0.022425655
0.077526249 0.072263405 0.021954928
0.077672474 0.072241932 0.021473993
0.077833369 0.072221473 0.020996861
0.077961966 0.072198696 0.020511474
0.078057766 0.0721737 0.020017777
0.078148514 0.072148323 0.019522838
0.078220278 0.072121546 0.01902299
0.078210898 0.072089106 0.018502511
0.078184858 0.072055444 0.017977852
0.078137562 0.072020307 0.017447762
0.078111179 0.07198666 0.016923036
0.078088909 0.071953267 0.016399369
0.078037858 0.071917854 0.015868288
0.078025118 0.071885228 0.015346963
0.078025125 0.071853429 0.014828984
0.077982381 0.071818568 0.014300067
0.077882171 0.071779706 0.013756488
0.077820443 0.07174354 0.013222799
0.077793196 0.071709894 0.012697812
0.077713832 0.071672417 0.012159538
0.07762102 0.071634114 0.011617925
0.077543907 0.071596831 0.011080306
0.077469669 0.071559832 0.010543339
0.077351108 0.071519665 0.0099951774
0.077263907 0.071481742 0.0094549395
0.077184469 0.071444377 0.0089167356
0.077086464 0.071405597 0.0083737411
0.077011578 0.071368501 0.0078367144
0.076903537 0.071329176 0.0072911717
0.076775439 0.071288258 0.0067405216
0.076637685 0.071246803 0.0061875246
0.076498419 0.071205147 0.005634062
0.076429002 0.071168527 0.00509841
0.074593961 0.070975594 0.0035959184
0.074504204 0.070937477 0.003055023
0.074480385 0.070904009 0.0025309529
0.07446409 0.07087101 0.0020087156
0.074344896 0.070830844 0.0014603604
0.074114956 0.070782773 0.00088392198
0.073766388 0.070726424 0.00027724728
0.073470086 0.070673726 -0.00031614676
0.070978321 0.070400834 -0.0025157016
0.070913851 0.070362657 -0.0030619875
0.07084588 0.070324294 -0.0036092624
0.07070341 0.070280313 -0.0041774344
0.070579946 0.070237741 -0.004740268
0.063604273 0.069418103 -0.011445994
0.063123934 0.069348894 -0.012108673
0.062823407 0.069293134 -0.012721071
0.062705211 0.069251046 -0.013282312
0.062656023 0.069213979 -0.013824455
0.060763627 0.069006369 -0.015410328
0.060512275 0.068954252 -0.016008951
0.060162723 0.068894863 -0.016634984
0.059594631 0.068819217 -0.017322108
0.05913087 0.06875132 -0.01798011
0.058907136 0.068701267 -0.01857095
0.058764033 0.068657197 -0.01913932
0.0586266 0.068613596 -0.019706108
0.058235146 0.068551116 -0.020343808
0.057577603 0.068468742 -0.021056045
0.057291463 0.068414114 -0.021664349
0.057186134 0.068372846 -0.022222107
0.057100594 0.068333082 -0.022774328
0.05698467 0.068291068 -0.023335051
0.055478945 0.068112314 -0.024812708
0.055299416 0.068065532 -0.025391225
0.055154949 0.068021357 -0.025959924
0.053637061 0.067841664 -0.027441081
0.045044541 0.066799119 -0.036193043
0.044524074 0.066720545 -0.036891811
0.044102941 0.06665007 -0.037560008
0.043775767 0.06658721 -0.038199466
0.04355472 0.066532992 -0.038806397
0.043368235 0.066481493 -0.039402634
0.043172467 0.066429354 -0.040001802
0.042984873 0.066377871 -0.040598422
0.042726085 0.066320658 -0.041216891
0.042460967 0.066262767 -0.041837286
0.042147998 0.066201128 -0.042472392
0.041810513 0.066137411 -0.043114953
0.041404944 0.066068158 -0.043778475
0.041071676 0.066004828 -0.044419751
0.040871643 0.065952301 -0.045020252
-0.058463439 0.066265732 0.038792271
-0.057156887 0.06633532 0.038653944
-0.055836789 0.066405937 0.038519721
-0.054796889 0.066454016 0.038299646
-0.053843349 0.066495046 0.03805298
-0.053064696 0.066522062 0.037752736
-0.052420329 0.066538185 0.037411273
-0.051709238 0.06655965 0.037090283
-0.051102325 0.066572763 0.036737408
-0.050580572 0.06657891 0.036358271
-0.050065152 0.066584684 0.03597736
-0.049635168 0.066583417 0.035570186
-0.049252912 0.066578396 0.035148289
-0.048890293 0.066571757 0.034720425
-0.04854548 0.066563725 0.034287132
-0.044918373 0.066820644 0.034860469
-0.044378527 0.066828288 0.034487043
-0.043900914 0.06683097 0.034094386
-0.043464772 0.066830255 0.033689111
-0.043105945 0.066823363 0.033260111
-0.042832967 0.066809393 0.032804754
-0.042596269 0.066792615 0.032338273
-0.042418357 0.066771142 0.031853784
-0.042333607 0.066742048 0.03134064
-0.042290915 0.066709578 0.030814733
-0.042359788 0.066668175 0.030254532
-0.042571146 0.066615202 0.029650647
-0.046025503 0.066156887 0.025895838
-0.046118882 0.066113405 0.025328089
-0.046172809 0.066073127 0.024772543
-0.046274293 0.066028997 0.024202261
-0.030078899 0.067264535 0.028091323
-0.028677799 0.067341745 0.027982015
-0.027622379 0.067391038 0.027766563
-0.026765112 0.067424364 0.027490463
-0.026072334 0.067444414 0.027163837
-0.025323749 0.067468897 0.026854433
-0.024443649 0.067504101 0.02658527
-0.023802862 0.067519829 0.026242714
-0.023192594 0.067533232 0.025890838
-0.022568431 0.067547739 0.025543142
-0.021943044 0.06756226 0.025195938
-0.021605309 0.067553662 0.024760421
-0.016398199 0.067938097 0.025818396
-0.01546989 0.067977153 0.025564022
-0.014714168 0.068002202 0.025256749
-0.013979536 0.068025649 0.024942968
-0.013248676 0.06804873 0.024628066
-0.012632651 0.068062581 0.02427797
-0.012055215 0.068072341 0.023912068
-0.011527967 0.068078153 0.02353128
-0.011042811 0.068080783 0.023138661
-0.010592643 0.068080895 0.022736307
-0.010048516 0.068088025 0.022360206
-0.0095118806 0.068094485 0.021982051
-0.0090712784 0.068093941 0.021577034
-0.0087751215 0.068082571 0.021131564
-0.0085525205 0.068065882 0.020665552
-0.0084263682 0.068041906 0.02017257
-0.0083843078 0.068010531 0.019651163
-0.0084120603 0.067972429 0.019103542
-0.0084467977 0.067933746 0.018553782
-0.0084300619 0.06789922 0.018019877
0.032343868 0.070864402 0.02840887
0.033434585 0.070911951 0.028185692
0.034161288 0.070932508 0.027860705
0.034733865 0.070941798 0.027492616
0.035206698 0.070943482 0.027096551
0.035649877 0.070943125 0.026692238
0.036024723 0.070937648 0.026268821
0.036301643 0.070924863 0.025818001
0.036465418 0.070903786 0.025335547
0.057106785 0.072342329 0.030232206
0.061245568 0.072599933 0.030765876
0.062035173 0.072623543 0.030448452
0.062850818 0.072648913 0.030137721
0.066633753 0.072881594 0.03058099
0.067672804 0.072922677 0.030327011
0.068874128 0.072974995 0.030114256
0.070019864 0.073023513 0.029887374
0.070827819 0.073048428 0.029574666
0.071590468 0.073070072 0.029250372
0.072182007 0.073079839 0.028882757
0.072672531 0.073082633 0.02848934
0.073189743 0.073087186 0.028102662
0.073632762 0.073086537 0.027697198
0.074135959 0.073090166 0.02730706
0.074587531 0.073090166 0.026903834
0.075055376 0.073091283 0.026504587
0.075460277 0.07308805 0.026089441
0.075816676 0.073081359 0.025661986
0.076137513 0.073072158 0.025225502
0.076427832 0.073060915 0.024781231
0.076732323 0.073050603 0.024340551
0.076990917 0.073037133 0.023888152
0.07722763 0.073022082 0.023430262
0.077470161 0.073007494 0.022973944
0.077737518 0.072994687 0.022523846
0.077937655 0.072977021 0.022056658
0.078089997 0.072956115 0.021577287
0.078248456 0.072935686 0.0210995
0.078374848 0.072912924 0.020613529
0.078510486 0.072890893 0.020130042
0.078610912 0.072866276 0.019637454
0.07866846 0.072838768 0.019134067
0.078693144 0.072808944 0.018622313
0.07867977 0.072776422 0.018100791
0.078615896 0.072740465 0.017566573
0.078551546 0.072704412 0.017032158
0.078520805 0.072670691 0.016506325
0.078496575 0.072637416 0.015982121
0.078462213 0.072603516 0.015455294
0.078417264 0.072568752 0.014925793
0.078390241 0.072535314 0.014401015
0.078346297 0.072500736 0.013871767
0.078250855 0.072462469 0.013329435
0.078172773 0.072425477 0.012791555
0.078079946 0.072387479 0.012249935
0.077978611 0.072348826 0.011706099
0.077914529 0.072312772 0.011171818
0.077816524 0.072274402 0.010628823
0.077726133 0.072236478 0.010087874
0.077607848 0.072196722 0.0095397159
0.077522151 0.072159186 0.0089999326
0.077429615 0.072121084 0.0084583163
0.077322446 0.072082058 0.0079130344
0.077239238 0.0720447 0.0073738433
0.077114925 0.072004475 0.0068241805
0.076991238 0.071964227 0.0062747132
0.076846004 0.071922615 0.0057198182
0.076780222 0.071886465 0.0051850062
0.074416682 0.071626656 0.0030302852
0.074326433 0.071588837 0.0024893247
0.074239455 0.071551219 0.0019491501
0.074082769 0.071508646 0.0013913028
0.0738056 0.071457721 0.00080282241
0.073491238 0.071404211 0.00020484254
0.073216498 0.071353465 -0.00038298033
0.070812985 0.071088113 -0.0025645364
0.070742816 0.071049668 -0.0031123981
0.070673369 0.071011312 -0.0036601387
0.070576437 0.0709709 -0.0042155236
0.062546156 0.070009738 -0.012273412
0.062251121 0.069954656 -0.012884298
0.06189581 0.069894984 -0.013511982
0.061416321 0.069826186 -0.014174399
0.060888149 0.069753833 -0.014850527
0.060468435 0.069689415 -0.015496204
0.060127355 0.069630876 -0.016119933
0.059854589 0.069577381 -0.016724549
0.059177488 0.069494009 -0.01744226
0.05853866 0.069413334 -0.018149303
0.058304325 0.06936273 -0.018743109
0.058168828 0.069319412 -0.019309305
0.057870947 0.069264069 -0.019920975
0.057198673 0.069180973 -0.020637371
0.05690676 0.06912607 -0.021247324
0.056789413 0.069084071 -0.021808442
0.056639686 0.069039725 -0.022378586
0.056504048 0.068996415 -0.02294492
0.056236267 0.068943292 -0.023548093
0.055428147 0.068850212 -0.024302509
0.055109352 0.068793252 -0.024919976
0.054991566 0.068751246 -0.025481233
0.0546581 0.068693258 -0.026102789
0.053699911 0.068588972 -0.026899189
0.053433258 0.068535924 -0.027502097
0.05330687 0.068493381 -0.028065795
0.045357876 0.067538098 -0.03610155
0.044755697 0.067453556 -0.036825359
0.044319596 0.067382447 -0.037498213
0.043942075 0.067316152 -0.038152993
0.043643728 0.06725613 -0.038783647
0.043418981 0.067202143 -0.039391629
0.043102536 0.067140624 -0.040027734
0.042846143 0.067084104 -0.040645439
0.042629082 0.067030661 -0.041251052
0.04240771 0.066976845 -0.041858032
0.040755123 0.066735715 -0.043982096
0.040484726 0.066678062 -0.0446041
-0.058602713 0.06698674 0.03874572
-0.057096213 0.067071617 0.038668644
-0.055833511 0.06713704 0.038516778
-0.054820247 0.067182444 0.038288493
-0.053937625 0.067217425 0.038020078
-0.053147089 0.067245096 0.037723489
-0.052553482 0.067256868 0.037366435
-0.051866181 0.067276269 0.037038155
-0.051249582 0.06729003 0.036688197
-0.050690528 0.067299075 0.036320604
-0.050168406 0.067305237 0.035941675
-0.049753096 0.067302838 0.03552999
-0.049334802 0.067300715 0.035119239
-0.049000744 0.067291848 0.034682553
-0.048663329 0.067283235 0.034247007
-0.048121002 0.067290992 0.033874314
-0.044983502 0.067506224 0.034297418
-0.044304095 0.067524962 0.033966694
-0.043797489 0.067529894 0.033582997
-0.043416005 0.067524761 0.03316091
-0.04316631 0.067509219 0.032698441
-0.042900465 0.067494787 0.032240946
-0.042699743 0.067475304 0.031763386
-0.042580638 0.06744922 0.031260874
-0.042538863 0.067416951 0.030734621
-0.042605821 0.067376047 0.03017503
-0.042813115 0.067323864 0.029572405
-0.045804415 0.066906646 0.025959808
-0.045885034 0.06686461 0.025395963
-0.045947716 0.066824079 0.024837695
-0.046130378 0.066773862 0.024242621
-0.032014649 0.067866892 0.028032493
-0.03055425 0.067948096 0.027941272
-0.029037338 0.068033814 0.027867403
-0.028090712 0.068073854 0.02761868
-0.027167588 0.06811215 0.027362663
-0.026430208 0.068135478 0.027049717
-0.025759444 0.06815356 0.026716385
-0.02490015 0.068186671 0.026440844
-0.024200063 0.068206988 0.02611652
-0.023658168 0.068214737 0.025743678
-0.023126591 0.068221644 0.025367588
-0.022543717 0.068232678 0.025007311
-0.022080548 0.068234123 0.024610221
-0.021823838 0.068219043 0.024149921
-0.021519192 0.068207823 0.023704287
-0.021021899 0.068211995 0.023317758
-0.020535219 0.068215318 0.022927981
-0.020026617 0.068220332 0.02254482
-0.012876806 0.068756446 0.024198439
-0.012289464 0.068767868 0.023839537
-0.01181611 0.068770066 0.023445573
-0.011379667 0.068769261 0.0230399
-0.010952735 0.068767585 0.022631053
-0.010327675 0.068780594 0.022277582
-0.0097739892 0.068788365 0.021904279
-0.0092552453 0.06879352 0.021521013
-0.0088767521 0.068788312 0.021098685
-0.008613714 0.068774603 0.02064389
-0.0084602265 0.068752781 0.020158555
-0.0083944341 0.068723299 0.01964343
-0.0083532352 0.06869103 0.019117039
-0.0083378442 0.068656594 0.018582672
0.033620123 0.071660303 0.028763112
0.034266159 0.071674787 0.028415557
0.03496464 0.071693212 0.028082706
0.035455484 0.071696311 0.027691711
0.035928816 0.071698114 0.027295854
0.036299106 0.071692348 0.026871126
0.036605112 0.07168182 0.02642842
0.036880713 0.071668938 0.025977235
0.037094101 0.0716516 0.025508668
0.057466246 0.073058225 0.030320901
0.061381668 0.073298015 0.030797753
0.062141843 0.073319383 0.030472878
0.063023403 0.073349096 0.030178826
0.066921763 0.073587768 0.030651364
0.067923456 0.073625751 0.03038789
0.069309935 0.073690489 0.030222207
0.070275135 0.073725969 0.029949363
0.07106027 0.073749095 0.029630832
0.071773618 0.073767103 0.029294036
0.072336704 0.073774822 0.028919078
0.072839543 0.073778354 0.02852888
0.073380433 0.073784463 0.028148293
0.073914438 0.073790148 0.027765941
0.074446574 0.073795624 0.027383059
0.074923173 0.073797397 0.026986107
0.075395502 0.073798783 0.026588116
0.075772308 0.073793493 0.026165832
0.076130487 0.073786996 0.025738839
0.076444931 0.073777527 0.025300644
0.076743007 0.073766842 0.0248584
0.077057362 0.073757291 0.02442028
0.07732188 0.073744275 0.023969393
0.077559642 0.073729418 0.023511831
0.077799685 0.073714755 0.02305479
0.07806398 0.073701739 0.022603828
0.078273438 0.073684946 0.022139069
0.078458495 0.073666468 0.02166808
0.07861007 0.073645666 0.021188524
0.078733049 0.07362283 0.020701773
0.078871392 0.073601082 0.020218942
0.078962713 0.073576108 0.019723993
0.079039887 0.073550105 0.019225582
0.079073459 0.073521152 0.018716116
0.079018705 0.073486038 0.018184118
0.078992531 0.073452972 0.017659459
0.078954481 0.07341899 0.01713172
0.078914367 0.073384903 0.016603533
0.078895248 0.073352315 0.016080644
0.078858197 0.073318414 0.015553158
0.07884483 0.073286191 0.015031781
0.07879889 0.073251627 0.014502008
0.07876128 0.07321775 0.013974406
0.078691639 0.073181622 0.013438683
0.078602113 0.073144108 0.012897853
0.078449197 0.073102228 0.012340982
0.078336336 0.073063128 0.011794265
0.078277528 0.073027745 0.011261296
0.078170352 0.072989017 0.010716025
0.078082658 0.0729516 0.010175716
0.077948377 0.072911009 0.0096235611
0.077863395 0.072873779 0.0090839118
0.077765748 0.072835691 0.0085411221
0.077659346 0.072797075 0.0079960413
0.077542923 0.072757699 0.0074484013
0.077437893 0.072719067 0.0069036484
0.077335469 0.072680712 0.0063596144
0.077208228 0.07264059 0.0058092289
0.07709495 0.0726014 0.0052623749
0.074216284 0.072276831 0.0024588201
0.074028388 0.072232537 0.0018930566
0.073807418 0.072185911 0.0013188384
0.073489219 0.07213261 0.00071995333
0.073190294 0.07208062 0.00012597069
0.070602119 0.071772136 -0.002626013
0.070444196 0.071727335 -0.0031984635
0.07034871 0.071687214 -0.0037536006
0.070217267 0.071644381 -0.0043186732
0.061891399 0.070665173 -0.012459781
0.061504409 0.070603475 -0.013096368
0.061193578 0.070547372 -0.013711735
0.060875773 0.070490822 -0.014328944
0.060499743 0.070429876 -0.0149625
0.060027726 0.070361927 -0.015622877
0.059755959 0.07030873 -0.016227234
0.058049709 0.070083402 -0.018289559
0.057776012 0.070030011 -0.018894508
0.057390116 0.069968417 -0.019530764
0.056593589 0.06987647 -0.020281961
0.056273431 0.069819726 -0.020899896
0.056161918 0.069778271 -0.02145944
0.056095377 0.069740295 -0.022006322
0.055948786 0.069696262 -0.022575688
0.055662498 0.069642015 -0.023184128
0.055209912 0.069575489 -0.02383903
0.054910742 0.06952022 -0.024451109
0.054763295 0.069476269 -0.025020596
0.054607876 0.069431663 -0.025592456
0.054036085 0.06935624 -0.026280781
0.053368654 0.069273815 -0.026995864
0.05324078 0.069231257 -0.027559882
0.044509657 0.068112478 -0.03744448
0.04397415 0.068034098 -0.038147695
0.043612305 0.067969613 -0.038797691
0.043348633 0.067912914 -0.039417677
0.042988587 0.067848518 -0.040067196
0.042662237 0.067786843 -0.040706288
-0.058901325 0.067695506 0.038650233
-0.057194259 0.067795314 0.038634617
-0.055972863 0.067856759 0.038470168
-0.054910887 0.06790562 0.038256716
-0.05420237 0.067926399 0.037934933
-0.053382844 0.067956023 0.037647158
-0.052714631 0.067973711 0.037313052
-0.052092265 0.067987643 0.036964886
-0.051461063 0.068002418 0.036619361
-0.050881211 0.068012975 0.036258135
-0.050323002 0.068021953 0.035890277
-0.049901359 0.068020009 0.035480518
-0.049472451 0.068018727 0.035073008
-0.049132977 0.06801033 0.034638055
-0.048817072 0.068000033 0.034195874
-0.048460655 0.067992948 0.033766095
-0.045205276 0.068215474 0.034225248
-0.044484954 0.068237297 0.03390716
-0.043970596 0.068242699 0.033525787
-0.043600317 0.068236716 0.033100281
-0.04334598 0.068221554 0.032639235
-0.04314106 0.06820254 0.03216305
-0.04295674 0.068181828 0.031680565
-0.042819262 0.068157464 0.031183619
-0.042805973 0.068123147 0.030648615
-0.042819813 0.068086766 0.030105334
-0.042968351 0.068039775 0.02952081
-0.043435819 0.067967437 0.028838363
-0.045518592 0.067661375 0.026043456
-0.045651406 0.067615516 0.025463771
-0.045764711 0.067571238 0.02488992
-0.032697219 0.068570875 0.028357919
-0.031931553 0.068596169 0.028053682
-0.030735314 0.06865564 0.027881451
-0.02938956 0.068726934 0.027755089
-0.028595071 0.068754569 0.027459655
-0.027821317 0.068780519 0.027157906
-0.026836991 0.068823181 0.026920695
-0.026200883 0.068838343 0.026576702
-0.025556959 0.068854064 0.026235078
-0.024880968 0.06887231 0.025903296
-0.024304651 0.068882585 0.025541034
-0.023860106 0.068882525 0.02513827
-0.023334544 0.068888858 0.024760433
-0.022894939 0.068888441 0.024356123
-0.022536995 0.06888143 0.023926836
-0.022163318 0.068875745 0.023502376
-0.021720205 0.068875603 0.023099214
-0.021137765 0.068886437 0.022738799
-0.020479847 0.068903178 0.02240146
-0.01984752 0.06891796 0.022056337
-0.012396898 0.069472723 0.023801923
-0.012045028 0.069465347 0.023370825
-0.011749072 0.069453478 0.022922534
-0.01136231 0.069448814 0.022502039
-0.010805779 0.069457583 0.022133674
-0.010155606 0.069473572 0.021792926
-0.0095852837 0.069482453 0.021424223
-0.0091178464 0.069483884 0.021026656
-0.0087817535 0.069475494 0.020592336
-0.0085943723 0.069456294 0.020116519
-0.0084516285 0.069432288 0.019621298
-0.0083527863 0.069404826 0.019112516
-0.008320679 0.06937211 0.018583372
0.033605069 0.072393529 0.029284429
0.034475904 0.072424434 0.028999828
0.035046946 0.07243342 0.028631311
0.035673648 0.072446495 0.028278336
0.036161404 0.072449312 0.027886514
0.036591791 0.072447948 0.027478617
0.036951579 0.072441429 0.027050968
0.0371967 0.072426423 0.026591238
0.037365649 0.072405808 0.026110176
0.037577096 0.072388276 0.025641035
0.05765371 0.07376194 0.030365869
0.061298795 0.073981062 0.030773934
0.062222399 0.074013352 0.030490544
0.063325293 0.074057996 0.030252796
0.067291506 0.074299112 0.030742485
0.06827946 0.074335866 0.030475542
0.069443598 0.074384697 0.030253299
0.070394285 0.074418828 0.029976789
0.071207084 0.074443519 0.029665262
0.071845628 0.074456327 0.029309485
0.07244505 0.074466355 0.028943766
0.073036291 0.074475922 0.028576009
0.073655412 0.074487321 0.028215189
0.074261457 0.074497804 0.027851235
0.074764937 0.074501343 0.027461093
0.075239815 0.074502811 0.027063746
0.075655252 0.074500315 0.026651219
0.076033138 0.074495211 0.026229262
0.076393872 0.074488901 0.025802925
0.076671883 0.074476928 0.02535544
0.076976582 0.074466713 0.024914827
0.077284411 0.074456774 0.024474997
0.077579297 0.074445918 0.024031904
0.077831984 0.074432284 0.023578137
0.078066349 0.074417241 0.023119662
0.078324452 0.074403882 0.022667199
0.07853213 0.074387081 0.022201981
0.078714788 0.074368611 0.021730337
0.078869693 0.074348092 0.02125163
0.079011016 0.074326754 0.020769443
0.07912603 0.074303649 0.020280734
0.079232514 0.074279889 0.019789789
0.079316288 0.07425455 0.019293007
0.079357684 0.074226335 0.018785503
0.079340339 0.074194029 0.018263061
0.079300739 0.074160248 0.017734934
0.079284169 0.074128039 0.0172127
0.079259209 0.074095279 0.016688365
0.079224586 0.074061878 0.016161546
0.079213358 0.074030042 0.015640687
0.079204537 0.073998384 0.015120342
0.079158455 0.073964141 0.014590573
0.079096951 0.073928878 0.014056958
0.07904759 0.073894449 0.013526402
0.078979254 0.073858604 0.012991082
0.07885465 0.073818982 0.012441281
0.078718312 0.073778614 0.011888664
0.078574441 0.073737681 0.011334095
0.078464285 0.073699065 0.010788027
0.078346148 0.073659897 0.010239992
0.078256048 0.073622584 0.0096990354
0.07813444 0.073583238 0.0091501661
0.078046173 0.073546126 0.0086097308
0.07794448 0.073508061 0.0080658197
0.077834748 0.07346946 0.0075198859
0.077730626 0.073431216 0.0069754645
0.077621602 0.073392704 0.0064296536
0.077496931 0.073353074 0.0058800578
0.077335708 0.073310927 0.0053210333
0.077178456 0.073269077 0.0047630556
0.073901534 0.072919928 0.0018582921
0.073563777 0.072865725 0.0012544915
0.073162451 0.072807059 0.00063446164
0.072782166 0.072749898 1.9799918e-05
0.070208363 0.072442904 -0.0027387813
0.069936655 0.072389908 -0.0033432096
0.069666959 0.072337091 -0.0039469749
0.069277056 0.072275423 -0.0045844205
0.06110917 0.071311668 -0.012681943
0.060734719 0.071251221 -0.013314969
0.060550198 0.071204558 -0.013894944
0.060329452 0.071155295 -0.014485138
0.059966534 0.071095675 -0.015115
0.059639893 0.071038559 -0.015734715
0.059415087 0.070989013 -0.016326029
0.059178188 0.070938632 -0.016920628
0.056081094 0.070545852 -0.020429026
0.055646569 0.070480913 -0.021078922
0.055383414 0.070428573 -0.021680983
0.055118479 0.070376031 -0.022283353
0.054896519 0.070326686 -0.02287388
0.054740883 0.070282273 -0.023445815
0.054473042 0.070229538 -0.024049055
0.054353982 0.070187747 -0.024610706
0.05426915 0.070148475 -0.025162805
0.053868867 0.070086047 -0.025803143
0.053243 0.070006996 -0.026506627
0.052917361 0.069950074 -0.027126083
0.052778382 0.069906898 -0.027693266
0.051281769 0.069730788 -0.029168852
0.049725894 0.069517374 -0.031189203
0.049503442 0.069468006 -0.031779788
0.047547054 0.06922511 -0.03391232
-0.064030923 0.06809561 0.03815164
-0.060426522 0.068343334 0.038717803
-0.059062377 0.068415336 0.038597051
-0.057437904 0.068507798 0.03855611
-0.056158986 0.068573132 0.038409155
-0.055085979 0.068622321 0.038199078
-0.054418616 0.068639636 0.037864711
-0.05370098 0.068660975 0.037545715
-0.052961849 0.068683989 0.037233349
-0.052345116 0.068697363 0.036883388
-0.051713061 0.068711936 0.036538135
-0.051127441 0.068722859 0.036178697
-0.050530497 0.06873472 0.035822641
-0.050058085 0.068736821 0.035428461
-0.049661577 0.068732917 0.035011072
-0.049306441 0.06872572 0.03458089
-0.04899922 0.068714887 0.034136061
-0.048675697 0.068705261 0.033696201
-0.045292024 0.068935618 0.0341946
-0.044552758 0.068958655 0.033882227
-0.044048503 0.068963192 0.033497814
-0.043715823 0.068954319 0.033060763
-0.043493666 0.068936817 0.032589905
-0.043303426 0.068916686 0.032109205
-0.043109845 0.068896927 0.031629499
-0.042984616 0.068871729 0.031128835
-0.042927243 0.068841271 0.030607436
-0.042947493 0.068804726 0.030062154
-0.043092694 0.068758316 0.029478628
-0.043352962 0.068702906 0.028859824
-0.043620978 0.068646945 0.028238568
-0.043970324 0.068584494 0.027592387
-0.044700589 0.068492301 0.026829515
-0.045148477 0.068422168 0.026153099
-0.045329854 0.068372957 0.025558431
-0.045523886 0.068322696 0.024959918
-0.03287496 0.069279902 0.028299201
-0.031986374 0.069314554 0.028032642
-0.030948408 0.069360942 0.027811829
-0.029791251 0.069416806 0.027627613
-0.028967232 0.0694464 0.027341247
-0.028351508 0.069459766 0.026990999
-0.027527735 0.069489352 0.026704539
-0.026665799 0.069521941 0.026429739
-0.026150454 0.069527432 0.026048746
-0.025674403 0.069529712 0.025655705
-0.025085509 0.069540925 0.025297198
-0.024611529 0.069543116 0.024903554
-0.024287805 0.069533587 0.024463739
-0.023984622 0.069522373 0.024017666
-0.023569174 0.069519967 0.023605984
-0.023161512 0.069516912 0.023191951
-0.022605155 0.069525585 0.022823561
-0.021943212 0.069542497 0.02248745
-0.021159163 0.069568999 0.022188794
-0.020148966 0.069613323 0.021959495
-0.019120049 0.06965895 0.021735951
-0.015422662 0.069913998 0.022330631
-0.013994049 0.069991067 0.022229575
-0.011913346 0.070119269 0.0223285
-0.011259382 0.070135631 0.021989997
-0.01056235 0.07015527 0.021664683
-0.0099737486 0.070166484 0.021306161
-0.0094546946 0.070172131 0.020926241
-0.0090333018 0.070170224 0.020516381
-0.0087598013 0.070156746 0.020061228
-0.0085991006 0.070134364 0.019571465
-0.0084624123 0.070110105 0.019074317
0.033482313 0.073118597 0.02977566
0.034230623 0.073140442 0.029456776
0.035102341 0.073171355 0.029172417
0.035709348 0.07318294 0.028813947
0.036320716 0.073194817 0.028456729
0.036755245 0.073193707 0.028050009
0.037131112 0.07318832 0.027626831
0.03746127 0.073179565 0.027190901
0.037683778 0.073162965 0.026724827
0.037852276 0.073142469 0.026243661
0.03803743 0.073123083 0.025767095
0.057741754 0.074458681 0.030385576
0.061107807 0.074656785 0.030722745
0.062643409 0.074730337 0.030594829
0.063716576 0.074772522 0.030349486
0.06441813 0.074789397 0.030009676
0.068460062 0.075033523 0.030518543
0.069397457 0.07506644 0.030238699
0.070453055 0.075107425 0.029988833
0.071209095 0.075128011 0.029662911
0.071854889 0.075141184 0.029308971
0.072567254 0.075158805 0.028971907
0.073344909 0.075180881 0.028651483
0.074010685 0.075195342 0.02830258
0.074538909 0.075200446 0.027918857
0.075032152 0.075203121 0.027526092
0.075472057 0.075202301 0.027119849
0.075872615 0.075198665 0.026703585
0.076244876 0.075193197 0.026280127
0.076586828 0.075185567 0.025848936
0.076872393 0.075174168 0.025403555
0.077203766 0.075165913 0.024969686
0.077502199 0.075155422 0.024527501
0.077776588 0.07514327 0.024079166
0.077989973 0.075126953 0.023615386
0.078252204 0.07511396 0.023163971
0.078531928 0.075102173 0.022717018
0.078743882 0.075085759 0.022252839
0.07894218 0.075068414 0.021785263
0.079100356 0.07504838 0.021307331
0.079265438 0.075028807 0.020831313
0.07937897 0.07500571 0.020342138
0.079493478 0.074982718 0.019853216
0.079580598 0.074957758 0.019357286
0.079624929 0.074930027 0.018850494
0.07963454 0.074899763 0.018334933
0.079605736 0.074867032 0.017809551
0.079598919 0.074835777 0.017289873
0.079579219 0.074803576 0.016766854
0.079513378 0.074768327 0.016232114
0.079511315 0.074737355 0.015713539
0.07951808 0.074707031 0.015197184
0.079482608 0.07467372 0.014670242
0.079425499 0.07463903 0.014137663
0.079358228 0.074603699 0.013602529
0.079253122 0.074565656 0.013057839
0.079183288 0.07453014 0.012522049
0.079035714 0.074489228 0.011966564
0.078868657 0.07444714 0.011406098
0.078703023 0.074405015 0.01084603
0.078588814 0.074366421 0.010298975
0.078483067 0.0743284 0.0097540952
0.078399293 0.07429184 0.0092147663
0.07827647 0.07425271 0.0086655617
0.078182466 0.074215502 0.0081236176
0.078070939 0.074177109 0.0075772293
0.077962697 0.074138895 0.0070317574
0.077859081 0.074101046 0.0064873882
0.07771834 0.074060693 0.0059336014
0.077556476 0.074018858 0.0053745098
0.077429891 0.073979452 0.0048243217
0.072442308 0.073424511 -6.8964437e-05
0.069774389 0.073110893 -0.0028628148
0.069466263 0.073055491 -0.0034773927
0.069147035 0.072999224 -0.0040951446
0.068821259 0.072942421 -0.0047145858
0.060087427 0.071908318 -0.01349944
0.05979418 0.071853936 -0.014109862
0.059610076 0.071807578 -0.014689708
0.059407339 0.07175982 -0.015274825
0.059231281 0.071714021 -0.015852498
0.059025556 0.071666069 -0.016438402
0.058703758 0.071609639 -0.017056802
0.058313005 0.071548067 -0.017694514
0.055015229 0.07114213 -0.021259347
0.054774702 0.071091659 -0.021855082
0.054371573 0.071029253 -0.022496212
0.054040521 0.070972174 -0.023117248
0.053875718 0.070927098 -0.023691757
0.053717166 0.070882611 -0.024264414
0.053523965 0.070835613 -0.024846897
0.053099193 0.07077162 -0.025494095
0.052789569 0.070716105 -0.026109135
0.052604049 0.070669562 -0.026689377
0.052405652 0.070622168 -0.027273238
0.051992554 0.070559017 -0.027917283
0.051280372 0.070474036 -0.028644959
0.051020343 0.070422068 -0.029246092
0.050748717 0.070369266 -0.029850449
0.050182838 0.070294902 -0.030537266
0.049638953 0.070222236 -0.031217819
0.049357787 0.070168786 -0.031824812
0.04799426 0.070003092 -0.033263236
0.047709152 0.069949359 -0.033871382
-0.063876577 0.068878174 0.038734231
-0.063446745 0.0688769 0.038327057
-0.061035212 0.06902948 0.038527314
-0.05943368 0.069119163 0.038479347
-0.057695717 0.06921953 0.038473155
-0.056367181 0.069288008 0.038341384
-0.055439789 0.069325358 0.038086694
-0.054651663 0.069351934 0.037789311
-0.053972907 0.069369972 0.037458386
-0.053188853 0.069396175 0.037159737
-0.052561939 0.069410175 0.036812894
-0.051915355 0.06942568 0.036472153
-0.051328167 0.069436692 0.036113109
-0.050784629 0.069444224 0.035740748
-0.050294563 0.069447555 0.035352003
-0.049860384 0.069446653 0.034946088
-0.049483106 0.069441251 0.034522738
-0.049161002 0.069431521 0.034082476
-0.048814125 0.069423877 0.033649776
-0.045391668 0.069654942 0.034160051
-0.044662282 0.069676921 0.033844557
-0.044135042 0.069683254 0.033467229
-0.043807823 0.069674015 0.033028562
-0.043589171 0.06965632 0.032556545
-0.043415386 0.069635063 0.032070734
-0.043248571 0.069613352 0.03158294
-0.043134384 0.069587506 0.031078905
-0.043045614 0.06955979 0.030567106
-0.043049041 0.069524854 0.030027006
-0.043166827 0.069481 0.029451892
-0.043342363 0.069432668 0.028859083
-0.04358276 0.069379352 0.02824631
-0.04389314 0.069320507 0.027612131
-0.044119086 0.069268309 0.027003799
-0.044656605 0.069191828 0.026300002
-0.045079995 0.069124267 0.025631145
-0.034348752 0.06992317 0.028382208
-0.033184022 0.069978908 0.02820028
-0.032168746 0.070023105 0.027972527
-0.031197648 0.070063829 0.027731221
-0.030184779 0.07010784 0.02750269
-0.029281434 0.070143327 0.027240593
-0.02876965 0.070148416 0.02685855
-0.028131526 0.070163272 0.026515108
-0.027221125 0.070199326 0.026255209
-0.026664671 0.070207886 0.025886778
-0.026234135 0.070206612 0.02547973
-0.025781509 0.070207119 0.025079455
-0.02532883 0.070207521 0.024679229
-0.024963818 0.070201188 0.024252143
-0.024798006 0.070179477 0.023763955
-0.024477579 0.070169665 0.023323197
-0.023969214 0.070174478 0.022939947
-0.023402881 0.070183709 0.022574626
-0.022673806 0.070205681 0.02225912
-0.021790858 0.070239559 0.021990757
-0.020528212 0.070302986 0.02183887
-0.015314929 0.070673205 0.022898186
-0.014836244 0.070675671 0.022505868
-0.014045829 0.070702434 0.02220916
-0.013115744 0.070739985 0.021955255
-0.011991722 0.070792623 0.021760873
-0.010970749 0.070837192 0.021534849
-0.010350317 0.070850722 0.02118608
-0.0098093674 0.070858076 0.020812888
-0.0093337949 0.070860364 0.020419661
-0.0089546181 0.070855156 0.019996881
-0.0087833088 0.070833705 0.019510355
-0.0086550182 0.070808999 0.019010697
0.034008313 0.073858038 0.029920131
0.035083946 0.073903687 0.029692885
0.035656933 0.073912658 0.029324934
0.036306128 0.073927216 0.028978284
0.036924042 0.073939458 0.028622914
0.037338816 0.073936962 0.028210621
0.037660211 0.073927656 0.027772259
0.037942179 0.073915355 0.027322825
0.038175307 0.073899597 0.02685969
0.038308423 0.073876597 0.026368584
0.038428281 0.073852532 0.025873814
0.038553014 0.073828854 0.02538031
0.057934351 0.075131677 0.029913738
0.063245438 0.075459138 0.030744988
0.063989729 0.075478688 0.03041612
0.064722434 0.075497493 0.030084167
0.068547212 0.075724661 0.030537855
0.069335401 0.075747274 0.030220043
0.070353724 0.075785272 0.029960763
0.071187921 0.075810939 0.029654663
0.071968064 0.075833 0.029334825
0.072822511 0.075859964 0.029033903
0.073689997 0.075887851 0.028736323
0.074263819 0.075896017 0.028364047
0.074763462 0.075899057 0.027972993
0.075239412 0.075900629 0.027575839
0.075675547 0.075899415 0.027168617
0.076044455 0.075893775 0.026744302
0.076401576 0.075887159 0.026316974
0.07672774 0.07587865 0.025881868
0.077037416 0.075868897 0.02544257
0.077371694 0.075860828 0.02500942
0.077676177 0.075850807 0.024568744
0.077925898 0.075837098 0.024114192
0.078165948 0.075822726 0.023657147
0.078451082 0.075811312 0.023211632
0.078733504 0.075799808 0.02276532
0.078947097 0.075783595 0.022301611
0.079163961 0.075767644 0.021838676
0.079331107 0.075748369 0.021363109
0.079504006 0.075729437 0.020889048
0.079638295 0.075707942 0.020405103
0.079772726 0.075686432 0.019921292
0.079867758 0.075662225 0.0194274
0.079935543 0.075636275 0.018926632
0.079964995 0.07560762 0.018416118
0.079943813 0.07557565 0.017892618
0.079940408 0.075544856 0.017373871
0.0799077 0.075512059 0.016847502
0.079854511 0.075477943 0.016315896
0.079818815 0.075444937 0.015788883
0.07982678 0.075414896 0.015272859
0.07980261 0.075382732 0.014748733
0.079725035 0.075346947 0.01421104
0.079637997 0.075310409 0.01367094
0.079559274 0.075274542 0.013132855
0.079473086 0.075238198 0.01259302
0.079352401 0.075199455 0.012044322
0.079154901 0.075155608 0.011476137
0.079003923 0.075114816 0.010919731
0.078849666 0.075073838 0.010362532
0.07871256 0.075034074 0.0098097362
0.078597054 0.074995711 0.0092622899
0.078486688 0.074957691 0.0087162964
0.078363232 0.074918851 0.0081668831
0.078278899 0.074882604 0.0076274313
0.078164265 0.074844226 0.0070804022
0.07805296 0.074806228 0.0065340661
0.077919833 0.074766643 0.005982168
0.077790253 0.074727327 0.0054313354
0.077672854 0.074688874 0.0048834346
0.069277309 0.073741786 -0.0035329573
0.069023833 0.073690586 -0.0041322466
0.068799667 0.073641434 -0.0047233626
0.059394389 0.072562464 -0.01369677
0.059195273 0.072515182 -0.014280759
0.059097856 0.072475277 -0.014836486
0.05899737 0.072435178 -0.015392932
0.058881588 0.072393954 -0.015953802
0.058679491 0.072346389 -0.016538721
0.058422454 0.072294913 -0.017139073
0.058154173 0.072242603 -0.017742433
0.053869251 0.071700796 -0.022640586
0.053364996 0.071631208 -0.023310138
0.053209156 0.071587101 -0.023882143
0.052908137 0.071532361 -0.024494741
0.05247242 0.071467832 -0.02514511
0.052219294 0.071416631 -0.025744336
0.052147057 0.071378581 -0.026292939
0.052090842 0.071341656 -0.026836999
0.051947162 0.071298376 -0.027405642
0.051361438 0.071222931 -0.028097926
0.050911121 0.071157359 -0.028752455
0.050724756 0.071111016 -0.029332954
0.050458185 0.071058787 -0.029935939
0.049755313 0.07097476 -0.030661043
0.04939061 0.070915341 -0.031291507
0.049122542 0.070863023 -0.031894952
0.048610181 0.07079298 -0.032566745
0.047932796 0.070710823 -0.033284735
0.047685932 0.070659995 -0.033882253
-0.063281365 0.069659404 0.03891303
-0.062558755 0.069680616 0.038595486
-0.060934581 0.069771081 0.038554419
-0.059559621 0.069842532 0.038436834
-0.058095865 0.069920711 0.038346637
-0.056656253 0.069997005 0.038248952
-0.055738762 0.070033215 0.037991147
-0.054948796 0.070059583 0.03769429
-0.054230947 0.070080414 0.037375357
-0.053468965 0.070104629 0.037069958
-0.05282104 0.070120126 0.036729541
-0.052155465 0.070136935 0.03639457
-0.051539794 0.070149899 0.036044281
-0.051031347 0.070154622 0.035661098
-0.050512239 0.07016018 0.035281241
-0.050102912 0.070157319 0.0348677
-0.049693082 0.070154436 0.034454364
-0.049331758 0.070147812 0.034026105
-0.049008224 0.070138402 0.033586245
-0.045475993 0.070375688 0.034130067
-0.044736288 0.070398107 0.033817831
-0.044224296 0.070403107 0.033435713
-0.043895919 0.070394062 0.032997448
-0.043691229 0.070375457 0.032521196
-0.043544568 0.070352338 0.032027092
-0.043395203 0.07032942 0.031533938
-0.043282509 0.070303679 0.031029429
-0.043169167 0.070278041 0.030525122
-0.043133512 0.070246391 0.029997017
-0.043202374 0.070206702 0.029436961
-0.043295741 0.070165232 0.028869346
-0.043466203 0.070117749 0.028278053
-0.043648995 0.070069239 0.027682986
-0.043814417 0.070022136 0.027093221
-0.04415001 0.069962032 0.026451346
-0.034437284 0.070640244 0.028350856
-0.033404045 0.070685342 0.028128564
-0.03237284 0.070730269 0.027905706
-0.03149901 0.070763096 0.027634557
-0.030685425 0.070791252 0.027344979
-0.029767331 0.070827544 0.027087342
-0.029146519 0.07084088 0.026738655
-0.028669879 0.07084316 0.026345763
-0.028013207 0.070859313 0.026008066
-0.027370796 0.070874348 0.025665965
-0.026931748 0.070873722 0.02526154
-0.02651725 0.070871219 0.024849635
-0.026235223 0.070858508 0.024397124
-0.025906611 0.070849456 0.023958817
-0.025572825 0.070840687 0.023522146
-0.025114518 0.070841558 0.023123581
-0.024580784 0.070848241 0.022748183
-0.024053656 0.07085447 0.022370741
-0.023401383 0.070870236 0.022031732
-0.022540994 0.07090205 0.021756422
-0.01550412 0.071408845 0.023374643
-0.014914503 0.071419835 0.023016401
-0.014293761 0.071433172 0.022667654
-0.01373986 0.071441367 0.022298437
-0.013192349 0.071449086 0.021927249
-0.012671235 0.071454823 0.021548051
-0.011586874 0.071503878 0.021341402
-0.010700859 0.071537651 0.021074053
-0.010173291 0.071543865 0.020696755
-0.0096887909 0.071546704 0.020306274
-0.0092680259 0.071544684 0.019896228
-0.0089641493 0.07153365 0.0194504
0.034181878 0.074604169 0.030494425
0.034805045 0.074616782 0.030140515
0.035733011 0.07465148 0.029871929
0.03634689 0.074663453 0.029515412
0.037015073 0.074679315 0.029174116
0.037482738 0.074680641 0.028776642
0.037859228 0.074675247 0.028353691
0.038184069 0.074666217 0.027916208
0.038446579 0.074652627 0.027461331
0.038666006 0.074635953 0.026994411
0.038749434 0.07460928 0.026489347
0.038815442 0.074581414 0.025979459
0.038921114 0.074556433 0.025480691
0.058038183 0.075829424 0.029937502
0.063457057 0.076161012 0.030795984
0.064121142 0.076174989 0.03044669
0.064877152 0.07619518 0.030120764
0.066193409 0.076252788 0.029937077
0.069230728 0.076425239 0.030190591
0.070243143 0.076462574 0.029929791
0.071282037 0.076501638 0.029675674
0.072257325 0.076536454 0.029405456
0.073158443 0.076566286 0.029116314
0.073869668 0.0765834 0.028779004
0.074423999 0.076590158 0.028401751
0.074931532 0.076593675 0.028012719
0.075410686 0.076595433 0.02761643
0.075812899 0.076591894 0.027200628
0.076175049 0.076585785 0.026774544
0.076541692 0.076579928 0.026349705
0.076878898 0.07657215 0.025917422
0.077208839 0.076563805 0.02548315
0.077562243 0.07655713 0.025054909
0.077861823 0.076546825 0.024612993
0.078134015 0.076534703 0.024164204
0.07841175 0.07652282 0.023716718
0.078704923 0.076512076 0.023273233
0.078948535 0.076498084 0.022817109
0.07918857 0.076483823 0.022360068
0.079403654 0.076467775 0.021896679
0.079600677 0.076450631 0.021428704
0.079769455 0.076431535 0.020953596
0.079923436 0.076411538 0.020474691
0.080066264 0.076390781 0.019992974
0.080159239 0.076366588 0.01949862
0.080225393 0.07634075 0.018997397
0.080269702 0.076313309 0.018490594
0.080281459 0.07628385 0.017975561
0.080277763 0.076253287 0.017456666
0.080207646 0.076218262 0.016920879
0.080147915 0.076183885 0.016387712
0.080148071 0.076153591 0.015869725
0.08012867 0.076121993 0.01534684
0.080111541 0.076090492 0.014824469
0.080047406 0.076055951 0.01429012
0.079988316 0.076021671 0.013757151
0.079910651 0.07598608 0.013219398
0.079806685 0.075948842 0.012674961
0.079650454 0.075908065 0.012117248
0.079438306 0.075863607 0.011545394
0.079252973 0.0758209 0.010980282
0.079082079 0.075779125 0.010418899
0.078933164 0.075738914 0.0098630823
0.0788358 0.075702034 0.0093202889
0.078696504 0.075662389 0.0087668933
0.07858 0.075624309 0.0082193203
0.078485861 0.07558772 0.0076773837
0.078385651 0.07555066 0.0071339346
0.078257933 0.075511836 0.0065834858
0.078163214 0.075475171 0.0060414132
0.078029007 0.075435877 0.005489327
0.077898949 0.075396873 0.0049382932
0.069124006 0.074430898 -0.0035784412
0.068917148 0.074383155 -0.0041647479
0.058936529 0.073234074 -0.013828252
0.058710523 0.073185027 -0.014419906
0.058571324 0.073142238 -0.01498729
0.058487572 0.073103555 -0.015539058
0.058361262 0.073061697 -0.016102832
0.05825159 0.073021144 -0.016661983
0.05804415 0.072973408 -0.017248418
0.057729557 0.072917938 -0.017864916
0.056811005 0.072818518 -0.018650472
0.056317426 0.072750084 -0.019316988
0.056070425 0.072699457 -0.0199145
0.052931421 0.072308294 -0.02343541
0.052672386 0.072256826 -0.024036283
0.052152418 0.072186418 -0.024710253
0.051698681 0.072120883 -0.025365697
0.051552519 0.072077528 -0.025934935
0.051496729 0.072040893 -0.026478995
0.051443208 0.072004348 -0.027022397
0.051148672 0.071950264 -0.027633226
0.050697017 0.071884811 -0.028288072
0.050496053 0.071837649 -0.028872738
0.050316799 0.071791962 -0.029451264
0.049986605 0.071735263 -0.030072179
0.049418312 0.071661428 -0.030759661
0.04910776 0.071606219 -0.031375036
0.048858486 0.071555413 -0.031973206
0.048425678 0.071491353 -0.032622717
0.047865354 0.071418069 -0.033307955
0.047636241 0.071368754 -0.033900499
-0.062441941 0.070492327 0.039705519
-0.062023714 0.070490122 0.039294686
-0.061302453 0.070511028 0.038976822
-0.060375351 0.070547491 0.038722012
-0.059477158 0.070581794 0.038458299
-0.058383796 0.070630997 0.038254466
-0.057101544 0.070694618 0.038108516
-0.056041509 0.070741296 0.037894469
-0.055229183 0.070769027 0.037604373
-0.054485142 0.070791632 0.037293535
-0.053673808 0.070819288 0.037003178
-0.053070035 0.070831209 0.036649238
-0.052423961 0.070846319 0.0363083
-0.051782455 0.070861146 0.035965893
-0.051301077 0.070863709 0.035574503
-0.050761875 0.070870683 0.035200745
-0.050335467 0.070869111 0.034792509
-0.049917739 0.070866808 0.034381483
-0.049491823 0.070865154 0.033973053
-0.04634672 0.071070656 0.034398135
-0.045587305 0.071094379 0.034091931
-0.04481592 0.071119033 0.033789311
-0.044329412 0.071121961 0.033399511
-0.044014353 0.07111188 0.032957058
-0.043773852 0.071096182 0.03249174
-0.04362135 0.071073741 0.031999502
-0.043498684 0.071048953 0.031498045
-0.043381784 0.071023792 0.030994941
-0.043261819 0.070998929 0.030492689
-0.043196112 0.070969835 0.029973868
-0.043213572 0.070934467 0.029429454
-0.043222338 0.07089965 0.028887827
-0.043248836 0.070863642 0.028340694
-0.043362353 0.070820868 0.027766909
-0.043475717 0.070778199 0.027193122
-0.043688759 0.070727855 0.026588839
-0.036158737 0.07126718 0.028357983
