# .PCD v0.7 - Point Cloud Data file format
VERSION 0.7
FIELDS x y z
SIZE 4 4 4
TYPE F F F
COUNT 1 1 1
WIDTH 1316
HEIGHT 1
VIEWPOINT 0 0 0 1 0 0 0
POINTS 1316
DATA ascii
0.058028359 0.074993178 -0.018202953
0.057806332 0.074988045 -0.018702617
0.057493422 0.074973471 -0.019198179
0.057069231 0.074947372 -0.019688664
0.056592535 0.074915774 -0.020176897
0.056186792 0.074891612 -0.020668263
0.055886667 0.07487841 -0.021164436
0.055585388 0.074865073 -0.021660499
0.055009227 0.074823186 -0.022144297
0.054422054 0.074780084 -0.022627512
0.053952131 0.074749269 -0.023116032
0.053524148 0.074722774 -0.023606451
0.053019043 0.074688226 -0.024093358
0.052444223 0.074646495 -0.024577176
0.051990788 0.074617356 -0.025066419
0.051708546 0.074605972 -0.025563426
0.051593956 0.074612029 -0.026067784
0.051721569 0.074643202 -0.026583146
0.05181976 0.074671417 -0.027097123
0.051893923 0.074697062 -0.027610121
0.051898759 0.074715465 -0.028119953
0.0517441 0.074717373 -0.028622618
0.051606383 0.074721076 -0.029125998
0.05152804 0.074730888 -0.029632129
0.051441085 0.074739851 -0.030137835
0.051324409 0.074745655 -0.030642202
0.051223326 0.074753121 -0.031147271
0.051113103 0.07475961 -0.031651974
0.050984789 0.074764289 -0.032155834
0.050772797 0.074760221 -0.03265588
0.050487924 0.074748568 -0.033152714
0.050210711 0.07473772 -0.033649851
0.04001816 0.073858388 -0.038288474
0.039911736 0.07386528 -0.038793236
0.039733578 0.073864698 -0.039294884
0.039601605 0.073868968 -0.039798498
0.039451174 0.073871285 -0.040301457
0.039280865 0.073871545 -0.040803328
0.039075028 0.073868163 -0.041303746
0.038934585 0.073871493 -0.041807003
0.038822893 0.073877841 -0.042311627
0.038701575 0.073883206 -0.042815782
0.038543656 0.07388483 -0.043318346
0.038317535 0.073879264 -0.043817759
0.037979875 0.07386218 -0.044312231
0.037676223 0.073848575 -0.044808216
0.071407884 0.075090624 0.032883793
0.072250351 0.075193629 0.03232155
0.0731332 0.075300671 0.031756476
0.074007362 0.075406834 0.031192021
0.075033113 0.075528175 0.030616952
0.075660482 0.075609669 0.030069718
0.076232255 0.075685762 0.029526366
0.076739535 0.075755283 0.028987462
0.077100247 0.075810298 0.028458798
0.077506229 0.075869709 0.027927013
0.077861562 0.075924158 0.027398711
0.078212544 0.075978182 0.026870737
0.078542709 0.076030053 0.026344212
0.078837261 0.076078445 0.025820194
0.079084039 0.076121956 0.025299476
0.079316497 0.076164141 0.024779765
0.079529822 0.076204441 0.02426138
0.079733923 0.076243751 0.023743646
0.079901725 0.076279439 0.023228446
0.079954788 0.076303728 0.022721233
0.079981461 0.076325394 0.022215864
0.0800194 0.076348208 0.02170972
0.08004418 0.076369613 0.021204552
0.080075651 0.076391727 0.020698829
0.080111206 0.076414265 0.020192852
0.080129609 0.076435082 0.019688072
0.080169171 0.076458037 0.019181805
0.080187336 0.07647875 0.018677017
0.080197275 0.076498799 0.018172825
0.080165252 0.076514564 0.017671535
0.080094755 0.076526448 0.017172949
0.079973325 0.076533377 0.01667797
0.079825744 0.076537587 0.016184719
0.079656824 0.076539755 0.015693093
0.079516232 0.076544687 0.015199328
0.079396531 0.076551765 0.014704173
0.079249129 0.076555982 0.014211016
0.079143569 0.076564506 0.013714777
0.079045147 0.076573633 0.013218192
0.078964666 0.0765846 0.012720363
0.078908965 0.076598041 0.012220684
0.078863502 0.076612391 0.011720374
0.078802556 0.076625384 0.011221057
0.078749657 0.076639004 0.010721276
0.078662455 0.076649368 0.010223879
0.078568608 0.076658934 0.0097269472
0.078452855 0.076666333 0.0092314556
0.078273669 0.076667488 0.0087404549
0.077997133 0.076658852 0.0082562454
0.077647552 0.07664296 0.0077772047
0.077215329 0.07661885 0.0073038246
0.05520368 0.074878387 -0.0032478124
0.054892581 0.074864179 -0.0037434818
0.054644298 0.074856475 -0.0042418931
0.054473404 0.074856803 -0.0047439151
0.054269794 0.074853711 -0.0052443696
0.054072153 0.074851252 -0.0057450579
0.053947713 0.074856453 -0.0062491465
0.053953346 0.074875101 -0.0067590289
0.054276709 0.074926622 -0.0072831037
0.054910969 0.075010359 -0.0078212116
0.055711601 0.075111307 -0.0083667468
0.05616362 0.075176157 -0.0088966303
0.056535702 0.075232796 -0.0094228992
0.0568575 0.075284079 -0.009946961
0.057273682 0.075345308 -0.010475208
0.057431381 0.075379647 -0.010991966
0.057545979 0.075409546 -0.011506706
0.057781067 0.075451925 -0.012026846
0.057909701 0.07548333 -0.012542268
0.05807231 0.075518213 -0.013059102
0.058120485 0.075541191 -0.013570953
0.058204848 0.075568005 -0.014084248
0.058186781 0.075584151 -0.014593111
0.058173742 0.075600766 -0.015102109
0.058165472 0.075618021 -0.015611351
0.058087122 0.07562793 -0.016117467
0.057960402 0.07563284 -0.016621433
0.05787966 0.075642489 -0.01712738
0.057836566 0.075656027 -0.017635068
0.057706203 0.075660624 -0.018138791
0.057529289 0.075660303 -0.0186405
0.057254609 0.075649835 -0.019137843
0.056893189 0.075630456 -0.01963119
0.056532439 0.075611107 -0.020124553
0.056201 0.07559479 -0.020619342
0.055896465 0.075581275 -0.021115297
0.055554386 0.075563848 -0.021609554
0.055082981 0.075533092 -0.022097988
0.054587323 0.075499751 -0.022585437
0.054063667 0.075463563 -0.023071475
0.053579431 0.075431451 -0.023559431
0.053107794 0.075400591 -0.024047853
0.052293006 0.075334206 -0.024520911
0.05172227 0.075293183 -0.025004955
0.051359463 0.075273566 -0.025498202
0.051114071 0.075266242 -0.025996882
0.051053341 0.075277969 -0.026503734
0.051076505 0.075298429 -0.027014401
0.051067743 0.075315543 -0.027523555
0.051108647 0.075337812 -0.028035011
0.051068943 0.075351745 -0.028542841
0.050999876 0.075362533 -0.029049391
0.050977703 0.075378262 -0.029558009
0.050955299 0.075393997 -0.030066611
0.050893899 0.075405695 -0.030573459
0.050840426 0.075418137 -0.03108071
0.050769527 0.075428873 -0.031587124
0.050666172 0.07543616 -0.032092065
0.050442938 0.075431086 -0.032591738
0.05015498 0.075419344 -0.033088371
0.03947353 0.074511148 -0.038214877
0.039241876 0.074505128 -0.038714051
0.03906871 0.074505299 -0.039215945
0.038982294 0.074514389 -0.039721616
0.038869359 0.074520692 -0.040226176
0.038701493 0.074521318 -0.040728293
0.038548205 0.074523471 -0.041231062
0.038436834 0.074529946 -0.041735642
0.038347512 0.074538738 -0.04224126
0.038290307 0.074550867 -0.04274831
0.038127612 0.074552022 -0.043250605
0.037876207 0.07454405 -0.04374896
0.03761638 0.074535102 -0.044246823
0.03745136 0.074536115 -0.044749122
0.071285054 0.075757436 0.032939494
0.072004765 0.075847887 0.032385774
0.073176846 0.075983196 0.031800494
0.074403077 0.076123983 0.031211438
0.075280651 0.076230064 0.030646691
0.07586357 0.076306999 0.030102497
0.07644026 0.076383345 0.02955878
0.076882884 0.07644628 0.029024364
0.077233404 0.07650017 0.028496468
0.077644691 0.076560058 0.027964251
0.07800813 0.076615259 0.027435416
0.078330979 0.076666415 0.02690939
0.078673497 0.076719463 0.026381979
0.078962117 0.076767273 0.025858352
0.079225808 0.076812513 0.025336469
0.079472095 0.076856025 0.024815852
0.079708114 0.07689862 0.024295831
0.079947665 0.076941401 0.023775605
0.080091313 0.076974757 0.023262119
0.080172867 0.077002011 0.022752961
0.080222055 0.077026069 0.022246005
0.080263317 0.077049293 0.021739678
0.08029294 0.077071346 0.021234082
0.080323234 0.07709343 0.020728471
0.080353037 0.077115484 0.02022296
0.080356345 0.077134922 0.019719249
0.080397725 0.077158146 0.01921287
0.080424234 0.077179909 0.018707549
0.080442056 0.0772008 0.018202828
0.080386892 0.077214457 0.0177032
0.080297306 0.077224754 0.0172059
0.08022736 0.077236958 0.016707366
0.080102533 0.077243686 0.01621254
0.079969481 0.077249639 0.015718309
0.079834759 0.077255346 0.015224276
0.079659358 0.077257119 0.014732996
0.079488739 0.077259317 0.014241459
0.079357147 0.077265427 0.013747158
0.079227835 0.077271707 0.013252718
0.07912311 0.077280447 0.012756569
0.079055518 0.077292815 0.012257725
0.07902649 0.077309072 0.011756351
0.078988075 0.07732445 0.011255451
0.078910574 0.077335909 0.010757405
0.078827024 0.077346705 0.010259779
0.078721762 0.077355422 0.0097635929
0.078574032 0.07735993 0.0092704128
0.078404441 0.077362165 0.0087788086
0.078141496 0.077355243 0.0082937162
0.077796668 0.077340215 0.0078142267
0.07735607 0.077315629 0.0073415097
0.054620471 0.075535759 -0.0036815181
0.054259982 0.075516626 -0.0041749645
0.053989794 0.075506791 -0.0046724631
0.053738605 0.075499006 -0.00517081
0.053497363 0.075492218 -0.0056695947
0.053238515 0.075483501 -0.0061676456
0.053130779 0.075490579 -0.0066724541
0.053183418 0.075514071 -0.0071843714
0.053499248 0.075564794 -0.0077081909
0.054166358 0.075651772 -0.0082477033
0.055073012 0.075763561 -0.008797965
0.055431094 0.075818606 -0.0093236547
0.055823114 0.075877234 -0.0098508839
0.056271475 0.075941682 -0.010380534
0.056550469 0.075988643 -0.010902751
0.056664485 0.076018512 -0.011417428
0.056841847 0.076054923 -0.011935048
0.057041768 0.076093681 -0.012453578
0.05726162 0.076134525 -0.012973068
0.057417486 0.076168716 -0.013489703
0.05751073 0.07619641 -0.014003504
0.057523686 0.076215848 -0.014513638
0.057504226 0.076231979 -0.015022384
0.057444196 0.076243915 -0.015529331
0.057394113 0.076256841 -0.016036715
0.057416912 0.076277278 -0.016547332
0.057438467 0.076297589 -0.017057881
0.057403538 0.07631208 -0.017565964
0.057334457 0.076323055 -0.018072497
0.057180461 0.076325268 -0.018575151
0.056970339 0.076321684 -0.019075386
0.056761097 0.076318204 -0.019575648
0.056464348 0.076305613 -0.020071948
0.056156497 0.076291986 -0.020567698
0.055806983 0.076273963 -0.021061638
0.05545361 0.076255515 -0.021555424
0.055075597 0.076234564 -0.022048084
0.054685723 0.076212481 -0.022540227
0.0541679 0.076177076 -0.023026666
0.053570118 0.07613337 -0.023509404
0.053015787 0.076094218 -0.023994206
0.052328598 0.076041415 -0.024472984
0.051788632 0.076003686 -0.024958424
0.051360767 0.075977594 -0.025448868
0.050921682 0.075950369 -0.02593872
0.050609823 0.075936235 -0.026434407
0.050270144 0.075919293 -0.026928822
0.050193939 0.07592947 -0.027435016
0.050268944 0.075955413 -0.027947921
0.050447773 0.075991988 -0.028465608
0.050477576 0.076013111 -0.028976519
0.050483 0.076031752 -0.029486397
0.050477091 0.076049268 -0.029995725
0.050442602 0.076063856 -0.030503815
0.050400678 0.076077618 -0.031011602
0.050285332 0.076083764 -0.031515978
0.050116528 0.076084465 -0.032017983
0.049912505 0.076081552 -0.032518506
0.037360013 0.074984081 -0.037561379
0.037251443 0.074990906 -0.038066052
0.037280489 0.075012036 -0.038576998
0.038335226 0.075139128 -0.039133921
0.038500372 0.075174294 -0.039650984
0.038429558 0.075185008 -0.040157355
0.038271409 0.075186826 -0.04065989
0.038076531 0.07518477 -0.041160792
0.037956897 0.075190589 -0.041665003
0.037938736 0.075206749 -0.042173907
0.037919361 0.075222865 -0.04268261
0.037807088 0.075229406 -0.043187167
0.03765991 0.075232334 -0.043690193
0.071115628 0.076419719 0.03299851
0.071880788 0.076514363 0.032441586
0.073486388 0.076691873 0.03182596
0.074661821 0.076827019 0.031240376
0.075371847 0.076916263 0.030687267
0.075947523 0.076992281 0.03014362
0.076536849 0.077069603 0.029598957
0.076947778 0.077129364 0.029066758
0.077337787 0.077187084 0.028536042
0.077760383 0.077248 0.028003072
0.078128189 0.077303544 0.027473899
0.078444943 0.077353999 0.026948331
0.078777283 0.077406049 0.026421608
0.079113498 0.077458516 0.025894688
0.07940878 0.077506833 0.025370577
0.079662383 0.077551052 0.024849394
0.079909518 0.077594697 0.024328599
0.080158427 0.077638581 0.023807781
0.080298305 0.077671625 0.023294592
0.08041361 0.077702194 0.022783017
0.08049725 0.077729724 0.02227365
0.080528289 0.077752128 0.021768088
0.080543801 0.077772841 0.02126359
0.080550075 0.077792779 0.020759659
0.080545932 0.077811591 0.02025648
0.080583647 0.077834599 0.019750355
0.080637649 0.077859215 0.019243056
0.080653161 0.077880032 0.018738562
0.080672354 0.077901162 0.018233733
0.0806555 0.077918798 0.017731452
0.080583528 0.077930935 0.017232964
0.080515653 0.077943601 0.016734241
0.080438584 0.077955268 0.016236195
0.0803563 0.077966392 0.015738515
0.080213159 0.077971548 0.015245
0.080006287 0.077970453 0.014755936
0.079797909 0.077969208 0.014267029
0.079602465 0.077969149 0.013777221
0.079429775 0.077971496 0.013285832
0.079300106 0.077977955 0.012791462
0.079212561 0.077988625 0.01229405
0.079155669 0.078002222 0.011794591
0.07911171 0.078017227 0.011294156
0.079050124 0.07803037 0.010795003
0.078958318 0.078040592 0.010297975
0.078846723 0.078048922 0.0098023172
0.078717664 0.078055404 0.009307798
0.078548729 0.078058064 0.0088162068
0.078313485 0.078054197 0.0083291456
0.077932253 0.078035839 0.0078522656
0.077459097 0.078008458 0.0073819179
0.053844217 0.07617376 -0.004106598
0.053408463 0.076147035 -0.0045967177
0.053090837 0.076132536 -0.005092158
0.052813757 0.076122098 -0.005589311
0.052607331 0.076119013 -0.0060896538
0.052532043 0.076129518 -0.0065959329
0.05249529 0.076143846 -0.0071039014
0.05253825 0.076166473 -0.0076154703
0.052660856 0.076197289 -0.0081305588
0.0530576 0.076256342 -0.0086579639
0.054190997 0.076391213 -0.0092183752
0.054723259 0.076464288 -0.0097518405
0.055221949 0.076533787 -0.010283812
0.055608969 0.076591857 -0.010810787
0.055886682 0.076638669 -0.011332849
0.05609921 0.076678708 -0.01185208
0.056347501 0.076722473 -0.012372758
0.056520816 0.076758474 -0.012890222
0.05667923 0.076792926 -0.01340685
0.056774739 0.07682097 -0.013920775
0.056808416 0.076842628 -0.014431924
0.056805443 0.076860525 -0.014941383
0.05683494 0.076881766 -0.015452323
0.056867938 0.076903298 -0.015963463
0.056884643 0.076923162 -0.016473792
0.056939494 0.076947041 -0.016985964
0.056947675 0.076966047 -0.017495835
0.056919526 0.076981328 -0.018004201
0.056831267 0.076990463 -0.01850996
0.056708153 0.076995976 -0.019014059
0.056551125 0.076997906 -0.019516615
0.056306403 0.076990917 -0.020015288
0.055995289 0.076977007 -0.020510932
0.05561718 0.076956257 -0.021003621
0.055272955 0.076938979 -0.021497769
0.054997239 0.076928794 -0.021995028
0.054685917 0.076914862 -0.022490669
0.054237504 0.076886877 -0.022980215
0.053612869 0.076840691 -0.023461858
0.052892912 0.076784745 -0.023939179
0.052343663 0.076746352 -0.024424182
0.051942814 0.076723233 -0.02491582
0.051569555 0.076703019 -0.025408721
0.051072333 0.076669939 -0.025896115
0.050405916 0.076619528 -0.026375763
0.049743343 0.076569468 -0.02685578
0.049319316 0.076543979 -0.027346363
0.04916589 0.076546311 -0.027849067
0.049547743 0.076603837 -0.028375862
0.049919251 0.076660261 -0.028902097
0.049971115 0.076683849 -0.02941403
0.049967255 0.076701619 -0.029923478
0.049856808 0.076708421 -0.030428147
0.049712569 0.076711707 -0.030931318
0.04962945 0.076721296 -0.031437166
0.038685981 0.075775921 -0.036042821
0.038145326 0.07573846 -0.036528237
0.03777422 0.075718418 -0.03702122
0.037365347 0.075694457 -0.0375125
0.037062753 0.075681493 -0.0380086
0.036748707 0.075667292 -0.038504101
0.036499437 0.075659871 -0.039002515
0.071309924 0.077117875 0.033032097
0.072314575 0.077235669 0.03245838
0.073738053 0.0773945 0.031855427
0.074739963 0.077512108 0.031281881
0.075399429 0.077596098 0.030732306
0.076002672 0.077674672 0.030186715
0.076564625 0.077749059 0.029643958
0.076991245 0.077810287 0.029110672
0.077440307 0.077873722 0.028575795
0.077893332 0.077937484 0.028040679
0.078263432 0.077993184 0.027511364
0.078581586 0.078043692 0.026985632
0.078954786 0.078099705 0.026456075
0.079341576 0.07815703 0.025925564
0.079645783 0.078206211 0.02540083
0.079903498 0.078250863 0.024879372
0.080152988 0.078294769 0.024358498
0.080366358 0.078335069 0.023840116
0.080533355 0.078370824 0.023324987
0.080639765 0.078400753 0.02281403
0.080691516 0.078425176 0.022306995
0.080717236 0.078447104 0.021801757
0.080746934 0.078469485 0.021296224
0.080769926 0.078491129 0.020791119
0.08077842 0.078511335 0.020287154
0.080820724 0.078534976 0.019780694
0.080848932 0.078557082 0.019275313
0.080853596 0.078576982 0.018771512
0.080878511 0.078598872 0.018266333
0.080897704 0.078620128 0.017761515
0.08089079 0.078638859 0.017258575
0.080853909 0.078654669 0.016757673
0.080788538 0.078667708 0.016258823
0.080698684 0.078678302 0.015761642
0.080570608 0.078685209 0.015267173
0.080421716 0.078690089 0.014774138
0.080165073 0.078684352 0.01428858
0.079910561 0.078678787 0.013802933
0.079698041 0.078677401 0.013314387
0.079517603 0.078679115 0.012823496
0.079370305 0.078684136 0.012330342
0.07928367 0.078695141 0.01183293
0.079223901 0.078708634 0.011333669
0.079166308 0.078722425 0.010834236
0.079072356 0.078732692 0.010337306
0.07896027 0.078741081 0.009841755
0.078851894 0.07874991 0.0093458835
0.078695208 0.078753933 0.0088534206
0.078444988 0.078748904 0.0083673988
0.078115433 0.07873603 0.007886976
0.077648669 0.078709655 0.0074161906
0.052967723 0.07680206 -0.0045272354
0.052519087 0.076774165 -0.0050167656
0.052226197 0.076762386 -0.0055132797
0.052066576 0.076764248 -0.0060157375
0.051983502 0.076773927 -0.0065216646
0.051913213 0.076784976 -0.0070282063
0.05188885 0.076800756 -0.0075366311
0.051914994 0.0768217 -0.0080475146
0.052097965 0.076858766 -0.0085653123
0.05255213 0.076923586 -0.0090952953
0.053550217 0.077044338 -0.0096496614
0.054118644 0.077121049 -0.010184723
0.05462287 0.077191018 -0.010716933
0.05485573 0.077233233 -0.011237028
0.055124391 0.077279091 -0.01175868
0.055489797 0.077334821 -0.012284625
0.055697788 0.077374436 -0.012803596
0.055921692 0.07741569 -0.013323244
0.056050319 0.077447206 -0.013838656
0.056135181 0.077474125 -0.014352042
0.056182001 0.077497169 -0.014863858
0.05627555 0.077525049 -0.015377605
0.056329381 0.077548802 -0.015889712
0.056330118 0.07756719 -0.016399274
0.05638836 0.077591375 -0.016911592
0.056464959 0.077617556 -0.017424606
0.056499664 0.077639356 -0.017935812
0.056450333 0.077652507 -0.018443158
0.056357536 0.077661201 -0.01894865
0.056210484 0.077664435 -0.019451717
0.05598643 0.077659644 -0.019951304
0.055695478 0.077648006 -0.020447902
0.055408482 0.077636786 -0.020944692
0.055126082 0.077626012 -0.021441612
0.054902401 0.077621326 -0.021941248
0.054606307 0.077609137 -0.022437532
0.054188427 0.077584438 -0.022928476
0.053591911 0.077541471 -0.023411324
0.05294301 0.077493086 -0.023891965
0.052425403 0.07745821 -0.024378369
0.0520414 0.077436976 -0.024870776
0.051706221 0.077420868 -0.025365325
0.051053796 0.077372074 -0.025845768
0.05059531 0.077343218 -0.026334824
0.048936758 0.077209406 -0.02727982
0.048595157 0.077192612 -0.027774133
0.048002027 0.077149935 -0.02825713
0.047248896 0.077090845 -0.028733075
0.047236346 0.077107765 -0.029242152
0.048051301 0.077209704 -0.029788265
0.040326048 0.076598935 -0.034538314
0.039849281 0.076568134 -0.035026617
0.039199755 0.076519728 -0.035507105
0.038598645 0.076476231 -0.03598984
0.038164318 0.076449841 -0.036479924
0.037794579 0.076430127 -0.036973007
0.037338935 0.076401651 -0.037462234
0.036972143 0.076382227 -0.037955459
0.036590736 0.076361269 -0.038447946
0.036189664 0.076338358 -0.038939565
0.072720543 0.077953711 0.032477111
0.073767215 0.0780752 0.031900391
0.074711114 0.078186601 0.031330913
0.075319305 0.078265421 0.030784914
0.075992033 0.078350425 0.030234376
0.076581582 0.078427367 0.029689679
0.077081785 0.078495674 0.029151218
0.077590778 0.078564845 0.028612187
0.078060418 0.078630105 0.028075861
0.078445181 0.078687161 0.027545484
0.078799829 0.0787412 0.02701723
0.079177707 0.078797534 0.026487326
0.079578102 0.078856081 0.025955902
0.079893187 0.078906402 0.025430387
0.080159962 0.078951925 0.024908269
0.08037135 0.078992069 0.024390059
0.080602214 0.079034097 0.023870433
0.080737039 0.079066776 0.023357602
0.080828786 0.079095244 0.022847706
0.08089143 0.079120912 0.02233992
0.08094354 0.079145558 0.021832844
0.080956683 0.079166397 0.021328459
0.080976322 0.079187855 0.020823644
0.080979824 0.079207808 0.020319959
0.081021294 0.079231426 0.019813647
0.081034884 0.079252295 0.019309254
0.081070185 0.079275332 0.018803323
0.081113249 0.079299077 0.018296892
0.081146553 0.079321854 0.017791083
0.081163853 0.079343125 0.017286489
0.081128597 0.079359286 0.016785478
0.081076056 0.079373732 0.016285712
0.080982402 0.079384193 0.015788833
0.080889434 0.079394683 0.015291942
0.080735192 0.079399191 0.014799235
0.080512717 0.07939712 0.014311368
0.08026965 0.079393007 0.013824923
0.079985023 0.079384908 0.013341481
0.079760954 0.079382665 0.01285373
0.079578891 0.079384431 0.012362974
0.079444826 0.079390965 0.01186898
0.079353154 0.07940159 0.011371937
0.079288214 0.079414845 0.010873094
0.079184547 0.079424299 0.010376832
0.079065576 0.079432309 0.009881774
0.078964189 0.079442024 0.0093853921
0.078827068 0.079448268 0.0088915937
0.07858859 0.079444587 0.0084048044
0.078256711 0.079431839 0.0079246201
0.077822924 0.079409167 0.0074515212
0.05204561 0.077426337 -0.0049458956
0.051781218 0.07741759 -0.005443682
0.051597293 0.077417053 -0.005945053
0.051519427 0.077427387 -0.0064512389
0.051463138 0.077439934 -0.006958371
0.051430333 0.077454977 -0.0074665109
0.051430535 0.077473253 -0.0079761092
0.051514309 0.077500172 -0.0084895622
0.05162913 0.077530287 -0.0090042939
0.052246507 0.077611804 -0.0095415693
0.053029139 0.077710323 -0.010086264
0.053510901 0.077777945 -0.010617515
0.053814832 0.077827409 -0.011140734
0.054112431 0.077876195 -0.01166367
0.054518979 0.077936128 -0.012191469
0.054883081 0.077991754 -0.012717485
0.055159856 0.078038439 -0.013239445
0.055349525 0.078076206 -0.013757575
0.055461306 0.078105927 -0.014272217
0.055516701 0.078129902 -0.014784345
0.055569451 0.078153707 -0.015296288
0.055651318 0.078180373 -0.015809668
0.055705633 0.078204304 -0.016321642
0.055840958 0.078236416 -0.016837388
0.055949789 0.078265943 -0.017351888
0.056037854 0.078293271 -0.017865507
0.056042101 0.078311972 -0.018375257
0.055958349 0.07832174 -0.018881163
0.055799078 0.078323819 -0.019383656
0.055617657 0.078323558 -0.019885158
0.055408765 0.078320503 -0.020385433
0.05519243 0.078316629 -0.020885417
0.055019911 0.078317314 -0.02138729
0.05483621 0.078316793 -0.021888664
0.054513503 0.078302145 -0.022383863
0.0540937 0.078277491 -0.022874705
0.053648133 0.078250185 -0.023364404
0.053127345 0.078215107 -0.023850661
0.052593019 0.078178741 -0.024336325
0.052228276 0.078159675 -0.02482966
0.051877301 0.078142114 -0.025323583
0.051343638 0.078105755 -0.025809256
0.05090021 0.078078724 -0.026299037
0.043055046 0.077476881 -0.031553604
0.042623162 0.077451065 -0.032043926
0.042137999 0.077419624 -0.032531809
0.041493375 0.077371962 -0.033012584
0.041052394 0.077345088 -0.033502407
0.040605262 0.077317663 -0.033992082
0.040128928 0.077287264 -0.034480371
0.039502673 0.077241436 -0.034961849
0.038814757 0.077189326 -0.035440706
0.038390677 0.077164248 -0.035931386
0.038051337 0.077147827 -0.036425814
0.037698094 0.077129982 -0.036919609
0.037258495 0.077103265 -0.037409548
0.036883987 0.0770832 -0.037902366
0.036500473 0.077062294 -0.038394846
0.036047764 0.077034183 -0.038884208
0.035737142 0.077020794 -0.039379913
0.07282874 0.07864242 0.032516629
0.073583648 0.078735143 0.031960309
0.074507087 0.078844242 0.031392209
0.075089917 0.078920282 0.030847905
0.075934604 0.079021759 0.030285345
0.076657817 0.07911142 0.029731238
0.077238008 0.079187267 0.029187175
0.077762887 0.079257824 0.028647007
0.078249708 0.079324618 0.028109455
0.07865721 0.079383761 0.027577525
0.079034999 0.07944002 0.027047595
0.079423741 0.079497397 0.026516942
0.079774737 0.079551011 0.025988927
0.080080211 0.079600349 0.025464067
0.080335632 0.079644732 0.024942817
0.080564082 0.07968659 0.024423374
0.080757603 0.07972496 0.023906449
0.080906123 0.079759076 0.023392545
0.08100386 0.079788223 0.022882322
0.081093878 0.079816632 0.02237259
0.081138343 0.079840638 0.021866066
0.081188321 0.079865225 0.021359088
0.081231266 0.079889074 0.02085272
0.081210151 0.079906777 0.020350764
0.081230491 0.07992845 0.019845853
0.081249565 0.079949982 0.019341106
0.081285179 0.079973117 0.018835215
0.081308559 0.07999517 0.018330222
0.081328779 0.080016844 0.017825359
0.081339851 0.080037624 0.017321104
0.081320673 0.080055483 0.016819073
0.081258625 0.080069125 0.016319958
0.081194118 0.080082573 0.015821123
0.081132188 0.080096327 0.015321972
0.080998972 0.080103189 0.014827849
0.08081916 0.080105513 0.014337076
0.080584571 0.080102451 0.013850061
0.080272138 0.080092013 0.0133685
0.079978243 0.080083229 0.012885727
0.079749927 0.080080867 0.012398293
0.079596773 0.080085807 0.011905583
0.079489276 0.080095038 0.011409715
0.079407975 0.080106892 0.010912016
0.079297319 0.080115944 0.010416301
0.079186141 0.080124877 0.0099206734
0.079059526 0.080132335 0.0094261654
0.078931481 0.080139637 0.0089316424
0.078729227 0.080139779 0.0084424186
0.078371406 0.080124937 0.0079640131
0.077982754 0.080107056 0.0074878763
0.051402461 0.0780797 -0.0053770626
0.051103737 0.078067653 -0.0058733625
0.051004697 0.078075975 -0.0063785138
0.051003773 0.078094222 -0.0068880888
0.051006507 0.0781129 -0.0073978975
0.051010218 0.078131676 -0.0079076802
0.051024374 0.078151584 -0.0084179891
0.051008996 0.078168415 -0.0089269606
0.051069777 0.078192949 -0.00943927
0.051556397 0.078261122 -0.0099707367
0.052640323 0.078390129 -0.010528811
0.053031761 0.078448527 -0.011056004
0.053316031 0.078495942 -0.011578357
0.053668592 0.078550316 -0.012103824
0.054003943 0.078603007 -0.012628462
0.054349158 0.078656569 -0.01315359
0.054604355 0.078701027 -0.013674606
0.054770526 0.078736432 -0.014191711
0.054897416 0.078767769 -0.014706964
0.054985259 0.078795202 -0.01522056
0.055105384 0.078825846 -0.01573552
0.055183496 0.078852199 -0.016248697
0.055284981 0.078880906 -0.016762847
0.055443566 0.078915581 -0.017279601
0.055541936 0.078944013 -0.0177937
0.055551033 0.078963354 -0.018303659
0.055539776 0.07898061 -0.018812878
0.055436406 0.078988403 -0.019317785
0.055314217 0.078994356 -0.019821966
0.055167388 0.078997694 -0.020325026
0.055022378 0.079001293 -0.020828202
0.05489466 0.079006679 -0.021332152
0.054725889 0.079007886 -0.021834215
0.054443751 0.078997411 -0.022331208
0.05406848 0.078977555 -0.022824034
0.053684954 0.078956738 -0.023316506
0.053272594 0.07893309 -0.023807637
0.052769501 0.078900136 -0.024294795
0.052395929 0.07888031 -0.024787705
0.052025285 0.078860879 -0.025280751
0.051655319 0.078841567 -0.025773793
0.051252808 0.078818806 -0.026265414
0.050832998 0.078794345 -0.026756248
0.041905537 0.078085229 -0.031962484
0.041154802 0.078026928 -0.032438561
0.040617876 0.077990584 -0.032924108
0.040166676 0.07796292 -0.033413615
0.03982712 0.077946581 -0.033908039
0.039459959 0.077927545 -0.034401178
0.03868787 0.077867106 -0.034876309
0.038280141 0.077843793 -0.035367668
0.038019616 0.077835642 -0.035865679
0.037758831 0.077827387 -0.036363605
0.037426624 0.077811867 -0.036858365
0.037065122 0.07779339 -0.037351787
0.036681388 0.077772595 -0.037844256
0.036341377 0.077756248 -0.038338669
0.036017548 0.077741563 -0.038833834
0.035757121 0.07773342 -0.039331809
0.072730184 0.079311095 0.032570593
0.073369622 0.079392366 0.03202235
0.074105099 0.079482988 0.031467371
0.074843749 0.079573922 0.030912178
0.075972483 0.07970231 0.030329609
0.076809213 0.079802655 0.02976756
0.077404022 0.079879656 0.02922246
0.077932179 0.079950325 0.028681973
0.078425482 0.080017611 0.028144015
0.078846171 0.080077872 0.027611116
0.079214334 0.080133215 0.027081883
0.079592913 0.080189481 0.026551927
0.079921603 0.080240928 0.026025461
0.080223277 0.080289833 0.02550091
0.080464527 0.080332883 0.024980621
0.080679476 0.080373429 0.024462124
0.080883324 0.080412827 0.023944398
0.081021592 0.08044602 0.02343134
0.081154987 0.080478661 0.022918502
0.081280649 0.080510668 0.022406382
0.081388161 0.080540814 0.021895418
0.081463039 0.080567852 0.021386759
0.081481785 0.080589578 0.020881983
0.081488669 0.080610022 0.020378167
0.081485078 0.08062955 0.019874977
0.08146134 0.080647171 0.019373214
0.081475139 0.080668345 0.018868832
0.081509158 0.080691427 0.018363068
0.081514627 0.080711856 0.017859237
0.081522793 0.080732539 0.017355269
0.081522375 0.080752261 0.01685193
0.081484482 0.080768548 0.016351128
0.081429809 0.080783129 0.015851593
0.081365079 0.080796778 0.015352773
0.081228897 0.080803536 0.014858896
0.08103615 0.08080487 0.014368942
0.080841348 0.080806024 0.013879212
0.080550864 0.080797948 0.01339622
0.08021532 0.080785491 0.012916338
0.079974085 0.080782123 0.012429815
0.079765886 0.080781974 0.011940977
0.079631016 0.080788873 0.011447074
0.07953541 0.080799587 0.010950403
0.079427138 0.080809005 0.010454519
0.079304516 0.080817088 0.0099597331
0.079186618 0.080825612 0.0094645582
0.079060361 0.080833271 0.0089700092
0.07886371 0.080834277 0.008480398
0.0785373 0.080822706 0.0079999063
0.078161389 0.080806404 0.0075228158
0.051031645 0.078742959 -0.0053108186
0.050773483 0.07873518 -0.0058089094
0.050569709 0.078732878 -0.006309486
0.050520282 0.078746334 -0.0068168445
0.050527301 0.078765504 -0.0073268153
0.050552275 0.078786507 -0.0078375749
0.050580192 0.078807801 -0.0083484771
0.050569903 0.078825295 -0.0088576544
0.050573397 0.078844078 -0.0093674297
0.050622802 0.078867599 -0.0098793162
0.051022355 0.078926727 -0.010406826
0.051992159 0.079043955 -0.010959866
0.0524836 0.07911244 -0.011491472
0.052907806 0.079174101 -0.012020111
0.053306337 0.079233199 -0.012547553
0.05357888 0.079279363 -0.013069449
0.053914327 0.079332054 -0.013594046
0.054145399 0.079374023 -0.014114127
0.054350529 0.079413339 -0.01463292
0.054530788 0.079450227 -0.015150573
0.054694552 0.079485342 -0.015667511
0.0547815 0.079512648 -0.0161811
0.054848168 0.079537861 -0.016693678
0.054943893 0.079566099 -0.017207595
0.055069488 0.079597421 -0.017722899
0.055117164 0.079620682 -0.018234627
0.055136252 0.079641111 -0.018745108
0.055122007 0.079658195 -0.019254088
0.055059511 0.079670273 -0.019760968
0.054999288 0.079682618 -0.020267969
0.054885801 0.079689518 -0.020772515
0.054744486 0.079693623 -0.021275789
0.05457959 0.079695329 -0.021778086
0.054355662 0.079690948 -0.022277694
0.054018956 0.079675205 -0.022772277
0.053637128 0.079654738 -0.023264805
0.05323327 0.079632148 -0.023756379
0.05286717 0.07961335 -0.024249671
0.052475397 0.079591908 -0.024741769
0.052166816 0.079578958 -0.025237581
0.051827382 0.079562835 -0.025732035
0.051433828 0.079541244 -0.026224097
0.050953742 0.079510838 -0.026712161
0.050459247 0.079479031 -0.027199714
0.039982654 0.078634031 -0.032846585
0.039361868 0.078589365 -0.033328392
0.038852666 0.078555919 -0.033815257
0.038362991 0.078524567 -0.034302935
0.037998591 0.078506008 -0.03479629
0.037779663 0.078502156 -0.035296157
0.037535187 0.078495786 -0.035794884
0.037278678 0.078488037 -0.036292963
0.037015878 0.078479826 -0.03679084
0.036747776 0.078470968 -0.037288502
0.036476728 0.0784619 -0.037786018
0.036184996 0.078450657 -0.03828261
0.035915066 0.078441635 -0.038780145
0.035648301 0.078432903 -0.039277829
0.072535142 0.079970591 0.032631323
0.073084667 0.080043107 0.03208942
0.073712602 0.080123127 0.031541906
0.074754596 0.080242671 0.030965412
0.07616207 0.080397241 0.030363264
0.076923087 0.080489948 0.02980643
0.077502713 0.0805654 0.029262366
0.078027174 0.08063554 0.028722202
0.078535393 0.080704086 0.028183149
0.07894589 0.080763325 0.027650924
0.079294726 0.080816694 0.027123043
0.079672396 0.080872729 0.026593165
0.079996809 0.080923736 0.026067028
0.08030057 0.080972806 0.025542313
0.080532461 0.081014976 0.025022635
0.080743253 0.081055082 0.024504473
0.080980659 0.081097826 0.023984345
0.081156582 0.081134669 0.02346863
0.081339791 0.081172131 0.022952424
0.081492409 0.081206776 0.022438278
0.081611335 0.081238061 0.021926584
0.081704974 0.081267081 0.021416632
0.081712261 0.081287749 0.020912686
0.081725791 0.081308991 0.020408405
0.081717834 0.081328295 0.019905576
0.081705779 0.081347175 0.019403001
0.081702709 0.081366822 0.018899849
0.081723139 0.081388794 0.018395005
0.081736028 0.081410043 0.017890649
0.081752762 0.081431694 0.017386144
0.081745967 0.081451021 0.016883196
0.081729978 0.081469476 0.016380949
0.081700861 0.081486724 0.015879603
0.081613407 0.081498399 0.015382314
0.081456542 0.081503414 0.014889965
0.081291735 0.081507593 0.014398111
0.081096783 0.081509061 0.013908451
0.080846339 0.081505105 0.013422644
0.080537573 0.081495561 0.012940884
0.080248237 0.081487924 0.012457812
0.080012918 0.081485435 0.011970937
0.079806641 0.081485756 0.011482049
0.079667434 0.081492417 0.010988414
0.079547122 0.08150097 0.010493429
0.079440415 0.081510745 0.0099975374
0.079322621 0.081519559 0.0095024239
0.079199538 0.081527725 0.0090076532
0.078995943 0.081528313 0.0085184928
0.078696966 0.08151979 0.0080361217
0.078314945 0.081503287 0.0075595733
0.050436359 0.079402104 -0.0057441983
0.050191432 0.079395808 -0.0062429067
0.050084304 0.079403505 -0.0067478176
0.050087664 0.079422377 -0.0072575407
0.050122358 0.079444461 -0.007768725
0.050136186 0.07946445 -0.0082790684
0.050123852 0.079481684 -0.0087881275
0.050130505 0.079500951 -0.0092980331
0.050116695 0.079518043 -0.009807026
0.05017934 0.079542935 -0.010319528
0.050784733 0.079622924 -0.01085627
0.051530253 0.079717167 -0.011399212
0.052041974 0.079787634 -0.011931827
0.052404974 0.079843111 -0.012457602
0.052794855 0.079901181 -0.012984779
0.053188842 0.07995975 -0.01351198
0.053497534 0.080009669 -0.01403545
0.053733211 0.08005207 -0.014555657
0.053966831 0.080094308 -0.015075734
0.054158542 0.080132328 -0.015593989
0.054323327 0.080167688 -0.016110972
0.054410357 0.080194987 -0.016624521
0.054528248 0.080225475 -0.017139433
0.054645907 0.08025606 -0.017654333
0.054709982 0.080281086 -0.018166816
0.054758582 0.080304578 -0.018678645
0.054802109 0.080327518 -0.019190246
0.054772254 0.080343038 -0.019698516
0.05475327 0.080359682 -0.020207325
0.05469064 0.080371857 -0.020714143
0.054556724 0.080376774 -0.021217855
0.054385047 0.080377892 -0.021719849
0.054172542 0.080374837 -0.022219952
0.053841349 0.080359735 -0.022714751
0.053496297 0.080343343 -0.023209
0.053138878 0.080325603 -0.023702638
0.052872028 0.080317073 -0.024200356
0.05256344 0.080304228 -0.02469616
0.05226675 0.08029265 -0.02519257
0.051910456 0.080275021 -0.025686229
0.05149113 0.080250993 -0.026177133
0.050933104 0.080212943 -0.026661813
0.050413061 0.080178693 -0.027148206
0.049930293 0.080148213 -0.02763621
0.049449928 0.080118015 -0.028124386
0.038281847 0.079206854 -0.033740532
0.037766442 0.079173148 -0.034227125
0.037465122 0.079161108 -0.034723327
0.037249088 0.07915765 -0.035223238
0.037068807 0.079157919 -0.035724819
0.036867168 0.079155982 -0.03622546
0.036683057 0.079155847 -0.036726892
0.036484137 0.079154186 -0.037227668
0.036254462 0.079149425 -0.037727036
0.036024425 0.079144657 -0.038226344
0.035741426 0.079134464 -0.038723387
0.035418931 0.079120226 -0.03921856
0.072731748 0.080687664 0.032161228
0.073416978 0.080772951 0.031609751
0.07507886 0.080950923 0.030989656
0.076243117 0.081081629 0.030404465
0.076955721 0.081169449 0.029851036
0.077508003 0.081242055 0.02930888
0.07804139 0.081312865 0.028768057
0.078537613 0.081380166 0.028229827
0.078951001 0.081439599 0.027697379
0.079307482 0.081493586 0.027168984
0.079683781 0.081549488 0.02663915
0.080014974 0.081601098 0.026112514
0.080330729 0.081651241 0.025586946
0.080592796 0.081696227 0.025065215
0.08082892 0.081738815 0.024545243
0.081053585 0.081780262 0.024026083
0.081292346 0.081823133 0.023505935
0.081511974 0.081864119 0.022987137
0.08167693 0.081899934 0.022472145
0.081825376 0.081934251 0.021958346
0.081900835 0.081961498 0.021449646
0.081896633 0.081981301 0.020946631
0.081879959 0.081999838 0.020444399
0.0818872 0.0820207 0.019940557
0.081906959 0.082042746 0.019435735
0.081921548 0.082064241 0.018931312
0.081941485 0.082086295 0.018426577
0.081965446 0.082108766 0.017921554
0.081978783 0.082130134 0.017417194
0.081974015 0.082149833 0.016914135
0.081978753 0.082170412 0.016410427
0.081952572 0.082188144 0.015908955
0.081865549 0.082200028 0.015411654
0.081699193 0.082204349 0.014919987
0.081514016 0.082206912 0.01442959
0.081333131 0.0822099 0.013938932
0.081146896 0.082212433 0.013448594
0.080905035 0.082209542 0.012962254
0.080664292 0.082206875 0.012475813
0.080354497 0.082197614 0.011994146
0.080055654 0.082189389 0.011511751
0.079839393 0.082188986 0.011023633
0.079684198 0.082194358 0.010531096
0.079564199 0.08220312 0.010036167
0.079426229 0.08221022 0.0095424838
0.079287559 0.082217202 0.0090489071
0.079098791 0.082219347 0.0085587818
0.078799948 0.082211219 0.0080763958
0.078492999 0.082202129 0.0075945351
0.049889609 0.080066755 -0.0061798282
0.049671199 0.080063224 -0.0066796485
0.049557749 0.080070436 -0.0071842652
0.049601492 0.080093488 -0.007695863
0.049662665 0.080118239 -0.0082083037
0.049650323 0.080135673 -0.0087173479
0.049647842 0.080153979 -0.0092268791
0.049651012 0.080172963 -0.0097366786
0.049661849 0.080192655 -0.010246794
0.049796719 0.080224939 -0.010762522
0.050363865 0.08030092 -0.011297462
0.051243354 0.080408543 -0.011846473
0.051685978 0.080472015 -0.012375915
0.052073989 0.080529913 -0.012902878
0.052471187 0.080588676 -0.013430318
0.052776676 0.080638193 -0.013953568
0.053057101 0.080685191 -0.014475776
0.053296167 0.080728091 -0.014996113
0.053513963 0.08076866 -0.015515482
0.053766754 0.080812864 -0.01603655
0.053918164 0.080846824 -0.016552866
0.054058332 0.080879658 -0.017068816
0.054209035 0.080913514 -0.017585259
0.054286752 0.080940031 -0.018098284
0.05436362 0.080966443 -0.018611385
0.054399114 0.080988646 -0.019122623
0.05439711 0.081007086 -0.019632244
0.054402296 0.081026211 -0.020142084
0.054378677 0.081042416 -0.020650676
0.054286662 0.081051745 -0.021156194
0.054110933 0.081052549 -0.021658026
0.053842817 0.081043981 -0.022155667
0.053578313 0.081035912 -0.022653446
0.053308289 0.081027202 -0.023151005
0.053072315 0.081021868 -0.023650168
0.052847054 0.08101774 -0.024149731
0.052595887 0.081010856 -0.024648102
0.05229469 0.080999039 -0.025144327
0.051909495 0.080978692 -0.025636775
0.051479425 0.08095374 -0.026127173
0.050898563 0.080913648 -0.026610821
0.05037963 0.080879718 -0.027097221
0.049932968 0.08085309 -0.027586941
0.04946788 0.080824636 -0.028075846
0.037505228 0.079855926 -0.034166295
0.03708322 0.079831809 -0.034657143
0.036793526 0.079821117 -0.035153832
0.03659042 0.079819135 -0.0356544
0.036442906 0.079822861 -0.036157414
0.036337472 0.079830788 -0.036662392
0.036186703 0.079834223 -0.037165307
0.036010608 0.07983502 -0.037667084
0.035773348 0.079829536 -0.038166095
0.035456732 0.079816163 -0.038661528
0.035207391 0.079809539 -0.039160017
0.072540432 0.08134798 0.032221816
0.07343547 0.08145272 0.031655498
0.075204641 0.081639983 0.03102774
0.076160267 0.081750467 0.030457249
0.076891199 0.081839763 0.029902468
0.077433094 0.081911154 0.029360997
0.077967867 0.08198192 0.028820025
0.078400478 0.082043059 0.028286258
0.078853652 0.082106106 0.02775106
0.079252139 0.08216399 0.02721967
0.079667807 0.082223609 0.02668708
0.080041572 0.082279116 0.026157456
0.080353215 0.082328834 0.025632197
0.080654889 0.082377627 0.025107639
0.080934584 0.082424268 0.024584619
0.081183121 0.082468048 0.024063716
0.081407651 0.082509592 0.023544611
0.081643626 0.082552075 0.02302468
0.081842184 0.082591116 0.022507409
0.08196342 0.082622878 0.021995516
0.082034692 0.082649916 0.021487037
0.082060665 0.082672641 0.020981887
0.082059532 0.082692862 0.02047869
0.082094744 0.082716495 0.019972758
0.082110435 0.082738303 0.019468332
0.08212249 0.082759723 0.018964147
0.082152054 0.08278276 0.018458715
0.082155615 0.082803413 0.017955119
0.082168072 0.082824945 0.017450793
0.082193121 0.082847551 0.016945751
0.082169607 0.08286567 0.016444018
0.082150191 0.082884118 0.015942028
0.08205843 0.082895748 0.015445145
0.081886292 0.082899794 0.014953816
0.081700817 0.08290264 0.014463535
0.081526354 0.082906425 0.013972426
0.081367567 0.082911789 0.013480196
0.081209123 0.082917064 0.012988003
0.081017584 0.082919322 0.012498133
0.080762893 0.082915545 0.012012662
0.080401301 0.082901776 0.011534786
0.080032438 0.082887299 0.011057299
0.079832882 0.0828887 0.010568012
0.079682589 0.082894832 0.010075185
0.079534769 0.082901224 0.0095822308
0.079383299 0.082907222 0.0090895128
0.079214677 0.082911581 0.0085979942
0.07894662 0.082906596 0.0081134327
0.078646347 0.082898512 0.007631259
0.0496489 0.080743976 -0.0061194338
0.04939086 0.0807366 -0.0066175452
0.049166836 0.080732718 -0.0071171587
0.049132247 0.080747887 -0.0076252511
0.049212407 0.080774702 -0.0081385355
0.049207687 0.080792956 -0.0086480174
0.049222007 0.080813058 -0.0091582267
0.049283713 0.08083801 -0.0096706199
0.049318764 0.080860212 -0.010181847
0.049383458 0.08088547 -0.010694468
0.049532507 0.080919169 -0.011210703
0.049922615 0.080977239 -0.011737886
0.050847579 0.081089251 -0.012288794
0.051236402 0.081147179 -0.012815816
0.051744465 0.081217155 -0.013348201
0.052109119 0.081272587 -0.013874201
0.052468773 0.081327662 -0.014399925
0.052731555 0.08137285 -0.014921296
0.052863706 0.081404842 -0.015436888
0.053145122 0.081451967 -0.015959069
0.05336171 0.081492521 -0.016478451
0.053522211 0.081527345 -0.016995287
0.053671081 0.081561126 -0.017511602
0.05380502 0.08159329 -0.018027229
0.053887058 0.081620246 -0.018540498
0.053957362 0.081646055 -0.019053308
0.053998519 0.081668943 -0.019564811
0.054027904 0.081690572 -0.02007577
0.054043163 0.081710801 -0.020586083
0.053973664 0.08172249 -0.021092638
0.053822313 0.081725888 -0.0215955
0.053612333 0.081723407 -0.022095803
0.053374667 0.081718124 -0.022594875
0.053159203 0.081715085 -0.023094822
0.052981544 0.08171583 -0.023596562
0.052775975 0.081713788 -0.024097076
0.052546207 0.081709206 -0.024596475
0.052265648 0.08169961 -0.025093529
0.051835116 0.081674933 -0.025583895
0.051406901 0.081650354 -0.026074495
0.050864238 0.081614338 -0.026559843
0.050389979 0.081585124 -0.027048275
0.049946025 0.081558973 -0.027538111
0.04949325 0.081531964 -0.028027533
0.049053129 0.081506334 -0.028517509
0.047243834 0.0813611 -0.029455988
0.046812184 0.081336208 -0.029946348
0.036854587 0.080518231 -0.034597814
0.036469355 0.080498084 -0.035090156
0.036162764 0.080485813 -0.035586193
0.035959516 0.080484025 -0.036086701
0.035910033 0.080497667 -0.036594182
0.035822123 0.080507524 -0.037099939
0.035656992 0.080509536 -0.037602205
0.035431053 0.08050549 -0.038101748
0.035171989 0.08049798 -0.038599793
0.072924078 0.082062341 0.032241933
0.073906437 0.082174852 0.03166946
0.075040534 0.082301639 0.031086253
0.075954109 0.082407735 0.030518623
0.076682404 0.082496554 0.029964039
0.077294543 0.082574382 0.029417614
0.077828199 0.082644828 0.028876724
0.078266367 0.082706422 0.028342584
0.078769237 0.082774013 0.027803836
0.079224035 0.08283712 0.027268494
0.079693586 0.082901582 0.026732119
0.080096453 0.082959801 0.026200371
0.080417812 0.083010405 0.025674479
0.080735892 0.083060622 0.025148692
0.081045359 0.083110079 0.024623545
0.081292227 0.08315371 0.024102846
0.081519023 0.083195411 0.023583608
0.081746101 0.083237119 0.02306428
0.081930965 0.083274938 0.022547884
0.082049787 0.083306544 0.022036171
0.082154393 0.083336785 0.021525504
0.082210958 0.083362564 0.021018179
0.082234323 0.083385125 0.02051322
0.082272261 0.083409123 0.020007161
0.082281351 0.083430462 0.01950313
0.08228457 0.083451197 0.018999593
0.082323834 0.083475329 0.018493516
0.082331762 0.083496518 0.017989585
0.082381934 0.083521709 0.017482737
0.082405418 0.083544366 0.016977737
0.082376719 0.083562128 0.016476413
0.082340136 0.083579145 0.015975634
0.08224678 0.08359082 0.015478881
0.082066342 0.083594307 0.014988249
0.081846669 0.083594218 0.014500322
0.081675544 0.083598606 0.014008949
0.081552431 0.083607458 0.013514327
0.081421182 0.083615661 0.013020251
0.081266955 0.083621576 0.012527773
0.081062704 0.083622932 0.012038816
0.08076261 0.083615154 0.01155653
0.080334768 0.083595566 0.011083277
0.080001786 0.083584778 0.0106034
0.079819649 0.083588116 0.010112844
0.07966955 0.083594456 0.0096200295
0.079530299 0.083601914 0.009126544
0.079347119 0.083605133 0.0086360481
0.079122975 0.083604582 0.00814851
0.078782216 0.083593071 0.0076691266
0.049212918 0.081420444 -0.0065600146
0.048932716 0.081411026 -0.0070571098
0.048843995 0.081420943 -0.0075627975
0.048856754 0.081440896 -0.0080729844
0.048896927 0.081463754 -0.008584518
0.04892778 0.081485629 -0.0090955338
0.048998319 0.081511445 -0.0096083432
0.049064659 0.081536964 -0.010120941
0.049100637 0.081559286 -0.010632275
0.049138941 0.081581876 -0.011143603
0.049240422 0.081610896 -0.011657731
0.049657319 0.081671648 -0.012186123
0.05051573 0.081776738 -0.012734087
0.050989967 0.081843227 -0.013264885
0.051413294 0.081904553 -0.013793524
0.051683422 0.081950538 -0.014315236
0.052026678 0.082003854 -0.014840201
0.052242149 0.082044266 -0.015359569
0.052462529 0.082085222 -0.015879015
0.052756164 0.082133502 -0.016401762
0.052985277 0.082175307 -0.016921669
0.053185102 0.082214266 -0.017440226
0.053350154 0.082249627 -0.017957311
0.053515073 0.08228498 -0.018474348
0.053605359 0.08231277 -0.01898798
0.053676698 0.082338713 -0.019500848
0.053720307 0.082361855 -0.020012394
0.053736713 0.082382321 -0.020522812
0.053703371 0.082397744 -0.021030959
0.053570155 0.082403086 -0.021534741
0.053408321 0.08240559 -0.022037186
0.053271901 0.082410634 -0.022540731
0.053097937 0.082411893 -0.023042578
0.052894201 0.082410097 -0.023543201
0.052700583 0.082409397 -0.024044175
0.052463803 0.082404323 -0.024543256
0.052187432 0.082395315 -0.025040507
0.05178703 0.082373738 -0.025532363
0.051369738 0.08235056 -0.026023345
0.050884273 0.082320414 -0.026511259
0.050403487 0.082290903 -0.026999468
0.049955029 0.082264535 -0.027489118
0.049508665 0.082238309 -0.027978772
0.049027886 0.082208715 -0.028466986
0.048167873 0.08214093 -0.028938206
0.047390033 0.082081437 -0.029413091
0.046852764 0.082046188 -0.029898835
0.035861135 0.08116544 -0.035523631
0.035569433 0.081154794 -0.036020271
0.035501495 0.081166714 -0.036526859
0.035436403 0.081178911 -0.037033617
0.035276711 0.081181683 -0.037536137
0.035091337 0.081181817 -0.038037471
0.073883966 0.082850456 0.031718045
0.074810952 0.082957387 0.031149426
0.075689167 0.0830599 0.030584229
0.076387271 0.083145484 0.030031731
0.077036157 0.083226562 0.029482694
0.077648088 0.083304197 0.028936269
0.078210354 0.083377108 0.028393352
0.07875888 0.083448805 0.027851382
0.079283714 0.083518364 0.027311118
0.07974185 0.083581567 0.026775496
0.080139548 0.083639227 0.026244139
0.080471069 0.083690755 0.025717529
0.080798864 0.083741851 0.025191071
0.081095159 0.083790109 0.024666922
0.081345141 0.083833933 0.02414594
0.081586435 0.083877087 0.023625569
0.081801251 0.08391761 0.023107121
0.081971541 0.083954096 0.022591824
0.082121253 0.083988622 0.022077965
0.08222954 0.084019296 0.02156697
0.082305089 0.084046952 0.021058341
0.082352072 0.084071949 0.020551646
0.082399443 0.084096946 0.020045025
0.082416162 0.084119081 0.01954055
0.082451463 0.084143013 0.019034686
0.082489699 0.08416713 0.018528668
0.082506776 0.084189296 0.018024145
0.08255519 0.084214427 0.017517468
0.082571954 0.084236592 0.017012903
0.082560763 0.08425618 0.016510354
0.082503453 0.084271349 0.016011061
0.082403898 0.084282741 0.015514793
0.08223182 0.084287293 0.015023543
0.082054377 0.084291279 0.014532702
0.0818737 0.084295087 0.014042096
0.081742212 0.084303372 0.013548033
0.081617981 0.084312409 0.013053447
0.081448942 0.084317237 0.012562105
0.081217721 0.084316291 0.012074973
0.080976278 0.084314406 0.011588695
0.080570713 0.084297195 0.011113958
0.080194578 0.084282771 0.010637145
0.079952925 0.084280893 0.010150781
0.079793066 0.084286526 0.0096587315
0.079648674 0.084293731 0.0091655739
0.07948783 0.084299333 0.008673504
0.079258278 0.084298529 0.0081863888
0.078966141 0.08429189 0.007703634
0.078709126 0.084288523 0.007218428
0.049073488 0.082108289 -0.0065041566
0.048734076 0.08209306 -0.0069986368
0.048616197 0.082100034 -0.0075030271
0.048604254 0.082117684 -0.0080121988
0.048657488 0.082141913 -0.0085242148
