# .PCD v0.7 - Point Cloud Data file format
VERSION 0.7
FIELDS x y z
SIZE 4 4 4
TYPE F F F
COUNT 1 1 1
WIDTH 1298
HEIGHT 1
VIEWPOINT 0 0 0 1 0 0 0
POINTS 1298
DATA ascii
0.053520422 0.068955176 0.013380057
0.054110106 0.068766654 0.013647331
0.071011424 0.065147154 0.013987817
0.071577124 0.064956948 0.01428235
0.072023839 0.064778775 0.014629728
0.07238666 0.064609073 0.015014238
0.072747871 0.064439483 0.01539949
0.073240466 0.064256594 0.015726347
0.073742278 0.064072862 0.016049273
0.074097149 0.063903973 0.016437253
0.074441858 0.063736066 0.016829856
0.074851565 0.063561603 0.017193485
0.075351559 0.063378021 0.017517155
0.07595221 0.063184239 0.017796261
0.0765054 0.06299524 0.018096339
0.07706026 0.06280601 0.018395636
0.077588804 0.062619515 0.018706711
0.078163132 0.062428415 0.018997379
0.078705385 0.062240627 0.019302262
0.079233006 0.062054146 0.019613685
0.079703979 0.061873589 0.019950261
0.080271281 0.061683122 0.020244125
0.083653003 0.060808767 0.020926118
0.084340923 0.06060617 0.02116639
0.085205644 0.060385589 0.021328432
-0.038406633 0.10818535 -0.065746367
-0.040974718 0.10824393 -0.063852929
-0.042540703 0.10822822 -0.062486619
-0.043011419 0.10813119 -0.061696634
-0.043403793 0.10802837 -0.060947858
-0.045294866 0.1080367 -0.059410572
-0.045875173 0.10794775 -0.058562905
-0.046391357 0.1078541 -0.057748951
-0.046800643 0.10775255 -0.056991205
-0.047156297 0.10764696 -0.056261763
-0.047465049 0.10753783 -0.055556916
-0.047741845 0.10742645 -0.054868922
-0.048030946 0.10731584 -0.054174446
-0.048261754 0.10720102 -0.053510599
-0.048429899 0.1070815 -0.052879848
-0.048591606 0.1069616 -0.052252397
-0.048682205 0.10683627 -0.051662363
-0.048816685 0.10671432 -0.051049128
-0.048903137 0.10658865 -0.050461389
-0.048953842 0.10646046 -0.049892277
-0.048990127 0.10633118 -0.049330808
-0.049008589 0.10620059 -0.048778757
-0.049056172 0.10607217 -0.048211358
-0.049049184 0.1059397 -0.047672607
-0.049035214 0.10580672 -0.047137633
-0.049034663 0.10567462 -0.046595499
-0.049017414 0.10554139 -0.046062201
-0.049001511 0.10540816 -0.045528181
-0.048973974 0.10527421 -0.045000255
-0.048922058 0.10513829 -0.044485204
-0.048862591 0.10500189 -0.043974176
-0.048821934 0.10486699 -0.043453239
-0.048727155 0.10472797 -0.042960584
-0.048595365 0.10458621 -0.042487636
-0.048484519 0.10444596 -0.042003594
-0.048344772 0.10430361 -0.041534699
-0.048175842 0.10415909 -0.041081272
-0.047977682 0.10401243 -0.040643103
-0.047752082 0.10386363 -0.040219493
-0.047515079 0.10371409 -0.039801784
-0.04725242 0.10356264 -0.039397575
-0.046939012 0.10340741 -0.039020039
-0.046605658 0.10325073 -0.038653135
-0.046266284 0.10309348 -0.038289279
-0.045945242 0.10293764 -0.037915803
-0.045619421 0.10278151 -0.037544869
-0.045281887 0.10262447 -0.037180051
-0.044957686 0.1024684 -0.036808275
-0.044691682 0.10231674 -0.036405832
-0.044472367 0.10216847 -0.035978794
-0.044245642 0.10201965 -0.035555728
-0.043955319 0.10186615 -0.035166107
-0.04362705 0.10170978 -0.034796424
-0.043230716 0.10154838 -0.034462571
-0.042858884 0.1013888 -0.034115843
-0.042454213 0.10122678 -0.033786349
-0.042026311 0.10106307 -0.033469103
-0.041583076 0.10089817 -0.033159941
-0.041127339 0.1007324 -0.032857366
-0.04067054 0.10056648 -0.032555282
-0.040213082 0.10040057 -0.032253623
-0.039766688 0.10023539 -0.031946063
-0.039328028 0.10007094 -0.031634465
-0.038886409 0.099906154 -0.031324439
-0.038430247 0.099740282 -0.031022113
-0.037954237 0.099573001 -0.030730162
-0.037478235 0.099405758 -0.030438175
-0.036940668 0.099233791 -0.030178649
-0.036401976 0.099061869 -0.029919678
-0.035869215 0.098890319 -0.02965761
-0.035313867 0.098717086 -0.029407425
-0.034723897 0.098541386 -0.02917539
-0.034170363 0.098368272 -0.028924275
-0.033671662 0.098199315 -0.028644277
-0.033242054 0.09803547 -0.028327929
-0.032879796 0.097876541 -0.027976114
-0.032570451 0.097721659 -0.027596511
-0.032275245 0.097567722 -0.027209444
-0.031947989 0.097411469 -0.026839245
-0.031583313 0.097252429 -0.026488747
-0.031199293 0.097091898 -0.026148403
-0.03082196 0.096932001 -0.025804529
-0.030463582 0.096773349 -0.025450697
-0.030135807 0.09661708 -0.025080798
-0.029774887 0.096458308 -0.024728335
-0.029394219 0.096298054 -0.024386209
-0.029036425 0.096139535 -0.024032082
-0.028611604 0.095976003 -0.023713188
-0.028183324 0.095812283 -0.023396116
-0.0277358 0.095647044 -0.023089187
-0.027253812 0.095479272 -0.022800433
-0.026784627 0.095312446 -0.022504885
-0.026351238 0.095148362 -0.022190541
-0.025866395 0.094980381 -0.021903215
-0.025417363 0.094815038 -0.021597095
-0.024944806 0.094647989 -0.021303345
-0.02449017 0.094482236 -0.021000173
-0.02400062 0.094314002 -0.020715369
-0.023463374 0.09414205 -0.020455623
-0.022826923 0.093962856 -0.0202481
-0.022212353 0.093785264 -0.020029087
-0.021725455 0.093617149 -0.019742882
-0.021274475 0.093451686 -0.019437762
-0.020808632 0.093285188 -0.01914048
-0.020292254 0.093114793 -0.01886975
-0.019761711 0.092943504 -0.018606493
-0.019156909 0.092766672 -0.018382343
-0.01853784 0.09258876 -0.018165626
-0.017980749 0.09241543 -0.017916411
-0.017445436 0.092243657 -0.017655639
-0.016889062 0.092070356 -0.017406005
-0.016269755 0.091888964 -0.017183628
-0.015647106 0.091699868 -0.016950669
-0.015011176 0.091509514 -0.016724369
-0.014218261 0.091304846 -0.016576301
-0.013460422 0.091103457 -0.016410768
-0.012804208 0.090911269 -0.016194526
-0.012178733 0.090721861 -0.015963022
-0.011610437 0.090537667 -0.015702974
-0.011144593 0.090362817 -0.015391859
0.012380071 0.085309371 -0.01516606
0.012847138 0.085134372 -0.014855606
0.013313288 0.084959373 -0.014544589
0.04449144 0.078221135 -0.013742835
0.044596046 0.078078583 -0.013247578
0.044646155 0.077941202 -0.01272669
0.044666693 0.077806577 -0.012191872
0.044646725 0.07767579 -0.011638019
0.044676464 0.077540271 -0.011107531
0.044722337 0.077403285 -0.010584678
0.044813674 0.077261992 -0.010083209
0.044916753 0.077119626 -0.0095871827
0.045016188 0.076977588 -0.0090894708
0.045090307 0.076837979 -0.008579785
0.045185983 0.076696262 -0.0080802795
0.045308016 0.076552086 -0.0075932178
0.045441695 0.076406881 -0.0071115969
0.045597754 0.076259591 -0.0066405199
0.045803435 0.076107569 -0.006192619
0.0460256 0.075953938 -0.0057525462
0.046248 0.075800419 -0.0053125429
0.046437759 0.075649932 -0.0048572994
0.046609629 0.075501129 -0.004393667
0.046764553 0.075353816 -0.0039219488
0.046950378 0.075203776 -0.0034647996
0.047145721 0.075052656 -0.0030121142
0.047373708 0.074898623 -0.0025747409
0.047687333 0.074736431 -0.0021776026
0.048018411 0.074572735 -0.0017887314
0.04831896 0.07441178 -0.0013854747
0.048626248 0.074250303 -0.00098539505
0.048961766 0.074086122 -0.00059850561
0.049309023 0.073920794 -0.0002171844
0.049701873 0.073751271 0.00014267999
0.050093692 0.073581748 0.00050309364
0.05053455 0.073407717 0.00084045524
0.050951496 0.073235951 0.0011890266
0.051351123 0.073065668 0.0015457656
0.051758852 0.072894767 0.0018987618
0.052121714 0.072727941 0.0022727372
0.052343283 0.072574429 0.0027131066
0.05233537 0.072442539 0.0032612092
0.051924858 0.072348326 0.0039983667
0.051391229 0.072265752 0.0047934665
0.051030442 0.072166942 0.005507377
0.050748363 0.072060727 0.0061843032
0.050603207 0.071941651 0.0067968974
0.050528739 0.071815945 0.0073763481
0.050512221 0.071684822 0.0079284925
0.050551306 0.071548447 0.008454551
0.050626725 0.071408629 0.0089635588
0.050726052 0.071266651 0.0094613805
0.050869457 0.071120486 0.0099384654
0.051086079 0.070967436 0.010381096
0.051302396 0.070814461 0.010823908
0.051476058 0.070665412 0.01128678
0.051656533 0.070515864 0.011746479
0.051866051 0.070363477 0.012192489
0.052136239 0.070205383 0.012609963
0.052498288 0.070038721 0.012984326
0.052917764 0.069866672 0.013331761
0.053364903 0.069692038 0.0136662
0.053914111 0.06950774 0.013952597
0.071804896 0.065671332 0.014395884
0.072277732 0.065490805 0.014731768
0.072640292 0.065321386 0.015116526
0.073084943 0.065143704 0.015464821
0.073622316 0.064956851 0.015771952
0.074104242 0.064775363 0.016103785
0.074478209 0.064604864 0.016483495
0.074823655 0.064437181 0.016875774
0.075280242 0.064258382 0.017218713
0.07582891 0.064070247 0.017521046
0.076326258 0.063887239 0.017845916
0.076831505 0.063703515 0.018167326
0.077337816 0.063519642 0.018488361
0.077857174 0.063334562 0.018803583
0.078427881 0.063144207 0.019096047
0.078998379 0.062953874 0.019388596
0.079469711 0.062773593 0.019725051
0.079926454 0.062594652 0.020068077
0.080435716 0.062410548 0.020387702
0.085452251 0.061108556 0.021436729
-0.038695425 0.10887136 -0.065393358
-0.039430622 0.10879351 -0.064464226
-0.042516217 0.10888845 -0.062299095
-0.042995531 0.1087917 -0.061504573
-0.043411128 0.10869039 -0.060743548
-0.045514207 0.10871318 -0.059095159
-0.045986585 0.10861591 -0.058304302
-0.046400353 0.10851438 -0.057544276
-0.046753682 0.10840845 -0.056816071
-0.047078956 0.10830043 -0.056102581
-0.047440138 0.10819499 -0.055370376
-0.047660369 0.10807927 -0.054712109
-0.047935557 0.10796758 -0.054025002
-0.048186742 0.107854 -0.053350568
-0.048381045 0.10773638 -0.052705966
-0.048555899 0.10761731 -0.052071646
-0.048671141 0.10749383 -0.051468618
-0.048788421 0.10737048 -0.050864562
-0.04889499 0.10724634 -0.050266162
-0.048958957 0.1071191 -0.049690068
-0.048999313 0.10699011 -0.049126536
-0.049018372 0.10685957 -0.048574112
-0.049061179 0.10673071 -0.048009165
-0.049058162 0.10659856 -0.047468431
-0.049039505 0.10646517 -0.046935797
-0.049041878 0.10633345 -0.04639215
-0.049016297 0.10619962 -0.045863293
-0.048964862 0.10606395 -0.045347996
-0.048915457 0.10592829 -0.044831492
-0.04885466 0.10579189 -0.04432109
-0.048801295 0.10565601 -0.043806858
-0.048747201 0.10552008 -0.043292873
-0.04864268 0.10538033 -0.042805508
-0.048516743 0.10523921 -0.042329319
-0.04839563 0.10509835 -0.041850716
-0.048249952 0.10495568 -0.041384891
-0.0480855 0.10481156 -0.040928997
-0.047896899 0.10466572 -0.040485807
-0.047685474 0.10451827 -0.040054679
-0.047462508 0.10436988 -0.039629489
-0.047219496 0.10421999 -0.039214984
-0.046941552 0.10406766 -0.038818724
-0.046636239 0.10391323 -0.038437001
-0.046259284 0.1037536 -0.038092837
-0.04589729 0.103595 -0.037740894
-0.045519534 0.10343526 -0.037397124
-0.04516397 0.10327714 -0.037041776
-0.044853784 0.10312235 -0.036662504
-0.044599455 0.10297171 -0.036253877
-0.0443841 0.10282389 -0.035824753
-0.044142079 0.10267418 -0.035409637
-0.04382864 0.10251911 -0.035032213
-0.043459743 0.10236002 -0.034683809
-0.04307171 0.10219955 -0.03434553
-0.042693745 0.10203974 -0.034001939
-0.042291269 0.10187819 -0.0336712
-0.04188849 0.10171658 -0.033340678
-0.041429639 0.10155086 -0.033039622
-0.040973224 0.10138538 -0.032737263
-0.040510099 0.10121941 -0.032438435
-0.040075045 0.10105544 -0.032124914
-0.039644189 0.10089178 -0.031809129
-0.039230838 0.10072938 -0.031484149
-0.038794048 0.10056531 -0.031171497
-0.038343627 0.10040026 -0.03086601
-0.037872069 0.10023362 -0.03057163
-0.037396751 0.10006667 -0.030279297
-0.036859442 0.099895194 -0.030019499
-0.036315829 0.099723212 -0.029762991
-0.035788193 0.09955249 -0.029498134
-0.035225142 0.099379107 -0.029251851
-0.034622628 0.099202767 -0.029026426
-0.034051131 0.09902887 -0.028784551
-0.033563804 0.098861039 -0.028498495
-0.033147987 0.098698437 -0.028174829
-0.032828014 0.098543018 -0.027800735
-0.032519266 0.098388292 -0.027420737
-0.032216497 0.098234035 -0.027037624
-0.031882588 0.098077536 -0.026670815
-0.03150646 0.097917952 -0.026326295
-0.031136142 0.097758777 -0.025978647
-0.03074527 0.097597986 -0.02564186
-0.030370774 0.097438529 -0.025296465
-0.030045621 0.097282641 -0.024925075
-0.029691068 0.097124636 -0.024569156
-0.029321155 0.096965447 -0.024221351
-0.028962618 0.09680713 -0.023867495
-0.02856308 0.096645825 -0.02353527
-0.028144846 0.096483022 -0.023212889
-0.027713669 0.096319348 -0.02289724
-0.027223883 0.096151434 -0.02261246
-0.026727291 0.095982842 -0.022331288
-0.02629244 0.095818974 -0.022017596
-0.025833791 0.095653296 -0.02171642
-0.02540517 0.095489785 -0.021399524
-0.024933195 0.095323101 -0.021105319
-0.024447177 0.095155381 -0.020818604
-0.023923907 0.094984971 -0.02055138
-0.023325248 0.094808973 -0.020323893
-0.022672566 0.094628952 -0.020124817
-0.022074003 0.094453029 -0.019897176
-0.021596733 0.09428592 -0.019605845
-0.02112384 0.094119206 -0.019312216
-0.020665411 0.093953475 -0.019010907
-0.020162189 0.093784526 -0.018733224
-0.019644322 0.093614504 -0.01846314
-0.019046172 0.093438499 -0.018235436
-0.018411284 0.093259864 -0.018026914
-0.017857295 0.093087144 -0.017775878
-0.017323766 0.092915922 -0.017514158
-0.016828988 0.092747666 -0.01723196
-0.016235938 0.092569374 -0.016997116
-0.0155508 0.092374742 -0.016795252
-0.014808649 0.092174985 -0.016621744
-0.014030603 0.091972008 -0.016466174
-0.013397188 0.091782056 -0.016238481
-0.012742058 0.091590285 -0.016021598
-0.012077703 0.091397576 -0.015809366
-0.011495807 0.091212302 -0.015555983
0.011912926 0.086176902 -0.015268994
0.012572513 0.085984662 -0.015054332
0.012973666 0.085815713 -0.014710899
0.013419963 0.085642748 -0.014390001
0.044793874 0.079038814 -0.014218321
0.044837624 0.078902088 -0.013694513
0.044899989 0.078763604 -0.013179362
0.044917714 0.078629293 -0.012643212
0.044975325 0.078491218 -0.012125907
0.044979662 0.078358144 -0.011583347
0.045026846 0.078221045 -0.011061147
0.045041516 0.078087024 -0.010523586
0.04511828 0.077947281 -0.010015196
0.045227464 0.077804439 -0.0095220739
0.04531901 0.077663191 -0.009020579
0.045391928 0.077523805 -0.0085103959
0.045526516 0.077378578 -0.0080291331
0.045612205 0.077237971 -0.0075248904
0.045723591 0.07709489 -0.0070328116
0.045859024 0.076949663 -0.0065520117
0.046030179 0.076801077 -0.0060878699
0.046212889 0.076651409 -0.0056291907
0.046427194 0.076498769 -0.0051853792
0.046625804 0.076347604 -0.0047342447
0.046791404 0.076199561 -0.0042675659
0.046913557 0.076055549 -0.0037804532
0.047065452 0.075908698 -0.003307282
0.047250699 0.075758874 -0.0028498098
0.047439698 0.075608566 -0.0023941614
0.047720551 0.075449757 -0.0019815075
0.0480332 0.075287968 -0.0015839229
0.048314687 0.075129159 -0.001171639
0.048599511 0.074969985 -0.00076096645
0.048889078 0.074810348 -0.00035247032
0.049189065 0.074649796 5.1158029e-05
0.049546506 0.074483916 0.00042776272
0.049946491 0.074314006 0.00078440318
0.050347455 0.074143998 0.0011405728
0.050747361 0.073974162 0.0014972176
0.051185716 0.073800653 0.0018358777
0.051579297 0.073631406 0.0021955403
0.051959638 0.073463358 0.002561419
0.052288398 0.073300086 0.0029515731
0.052414998 0.073155627 0.0034365067
0.052319162 0.073031828 0.0040259166
0.051915817 0.072936766 0.0047597489
0.051542852 0.072838761 0.0054792366
0.051220831 0.072736099 0.0061749453
0.05101186 0.072622798 0.0068174303
0.050861832 0.072504103 0.0074322675
0.050763268 0.072380647 0.0080230152
0.050777223 0.072246671 0.0085608466
0.050827749 0.072109289 0.0090816543
0.050926611 0.071967468 0.0095795738
0.051072035 0.071821198 0.010055759
0.051261138 0.071671002 0.010511442
0.051438566 0.071521819 0.010972556
0.051592939 0.071374826 0.01144452
0.051758312 0.071226738 0.011911293
0.051959448 0.071075305 0.012361296
0.052217033 0.070918709 0.012784787
0.052529685 0.070756942 0.013182466
0.0528787 0.07059183 0.013563023
0.053320732 0.070418052 0.013899908
0.053815402 0.070239343 0.014212119
0.054366402 0.070055395 0.014497885
0.072408222 0.066215463 0.014888557
0.072844394 0.066038951 0.015240673
0.073405668 0.065850005 0.015537473
0.074027106 0.065655097 0.015807595
0.074499466 0.065474942 0.016143741
0.074867509 0.0653053 0.01652603
0.075256117 0.065133639 0.016899316
0.075776674 0.064948715 0.017214138
0.076271117 0.064766452 0.017540431
0.07669732 0.064591043 0.017897096
0.077137478 0.064414218 0.018247548
0.077596791 0.064235412 0.01858943
0.078163274 0.064045943 0.018883882
0.07873676 0.063855723 0.019175209
0.079235658 0.063673034 0.01949963
0.079661138 0.06349764 0.019856555
0.080139674 0.063316986 0.020189995
0.08065363 0.063132688 0.020507738
0.085818112 0.061819665 0.021492239
0.086476617 0.061621021 0.021746011
-0.024092808 0.10860327 -0.07341215
-0.038808201 0.10954401 -0.065132879
-0.039214693 0.10944166 -0.064376801
-0.042559929 0.10955365 -0.06207557
-0.043018807 0.10945514 -0.061291941
-0.045021214 0.10946913 -0.059696712
-0.045539744 0.10937504 -0.058881707
-0.046006765 0.10927717 -0.058093734
-0.046351682 0.10917032 -0.057370037
-0.046658237 0.10906084 -0.056666486
-0.046960518 0.10895091 -0.055965208
-0.047301773 0.10884383 -0.055243395
-0.047523353 0.10872801 -0.054584518
-0.047749311 0.10861259 -0.053923257
-0.04802138 0.10850041 -0.053237893
-0.048220273 0.10838301 -0.052590877
-0.048378155 0.10826259 -0.05196555
-0.048548248 0.10814304 -0.051333696
-0.048641082 0.10801793 -0.050742552
-0.048750434 0.10789398 -0.050142631
-0.048817717 0.10776696 -0.049564868
-0.048845787 0.10763703 -0.049007744
-0.048890498 0.10750841 -0.048441857
-0.048942737 0.1073803 -0.047871999
-0.048933323 0.10724759 -0.047334567
-0.048909675 0.10711391 -0.04680457
-0.048901375 0.10698143 -0.046266548
-0.048873138 0.10684743 -0.045739003
-0.048795439 0.10670983 -0.045237452
-0.0487381 0.10657371 -0.044725277
-0.04868665 0.10643801 -0.044209875
-0.048619643 0.10630122 -0.043702677
-0.048564121 0.10616522 -0.043189548
-0.048480351 0.1060272 -0.042691208
-0.048337508 0.10588488 -0.042223863
-0.04818958 0.10574211 -0.041759267
-0.048060294 0.10560076 -0.041284852
-0.04791351 0.10545813 -0.04081969
-0.04773619 0.10531324 -0.040370531
-0.047534339 0.10516666 -0.03993427
-0.047323145 0.10501932 -0.039502926
-0.047099132 0.10487105 -0.03907837
-0.046861347 0.10472177 -0.038660966
-0.046580218 0.1045694 -0.038266338
-0.046236828 0.10441242 -0.037904531
-0.045869734 0.10425364 -0.037555166
-0.045480039 0.1040934 -0.037217639
-0.04509604 0.10393345 -0.036877222
-0.044768929 0.10377765 -0.036506727
-0.044495847 0.10362585 -0.036107987
-0.044257686 0.10347649 -0.035690881
-0.043987572 0.10332485 -0.035290428
-0.043661349 0.10316917 -0.034919575
-0.043259438 0.10300796 -0.034588464
-0.042892449 0.1028493 -0.034239039
-0.042509675 0.10268942 -0.033897884
-0.042098798 0.10252757 -0.033571586
-0.041657418 0.10236345 -0.033261247
-0.041209113 0.10219878 -0.032954559
-0.04076995 0.10203491 -0.032643065
-0.040340777 0.10187165 -0.032326341
-0.039946098 0.10171092 -0.031991415
-0.039537363 0.10154928 -0.031663947
-0.039127115 0.10138742 -0.031337269
-0.03868483 0.10122322 -0.031027446
-0.038245052 0.10105929 -0.030716242
-0.037768546 0.10089261 -0.030424412
-0.037282392 0.10072519 -0.030137621
-0.036753409 0.10055467 -0.029873366
-0.036207266 0.10038297 -0.029618125
-0.035650905 0.1002105 -0.029368225
-0.03506593 0.10003592 -0.029133422
-0.034476873 0.099861056 -0.028900756
-0.033936687 0.099689759 -0.028642373
-0.033463765 0.099523269 -0.02834863
-0.033068664 0.099362589 -0.028013989
-0.032763734 0.099208385 -0.027631916
-0.032447599 0.099053472 -0.027255742
-0.032126695 0.098898128 -0.026882108
-0.031778503 0.098740853 -0.02652278
-0.031404395 0.098581649 -0.026177049
-0.031033747 0.098422647 -0.025829567
-0.030638343 0.098261848 -0.025495071
-0.030273985 0.098103382 -0.025144285
-0.029933441 0.097946689 -0.024780944
-0.029578554 0.097788841 -0.024425112
-0.029216945 0.097630523 -0.02407288
-0.028851466 0.09747193 -0.023722621
-0.028450578 0.097310811 -0.023390992
-0.028039914 0.097148947 -0.023064541
-0.027612161 0.096985795 -0.022747079
-0.027136287 0.096819222 -0.022454865
-0.026643407 0.09665139 -0.022171594
-0.026218396 0.096488409 -0.021852659
-0.025786871 0.09632504 -0.021537205
-0.025357885 0.096161887 -0.021220354
-0.024901848 0.09599673 -0.020917729
-0.024434207 0.095830664 -0.020621197
-0.023900717 0.095659837 -0.020359324
-0.023297431 0.095483936 -0.020134101
-0.0226168 0.095302433 -0.019949593
-0.022026641 0.095127419 -0.019717496
-0.021514418 0.094958164 -0.019444436
-0.021006575 0.094789244 -0.019169012
-0.020536389 0.094622985 -0.01887387
-0.020032819 0.0944544 -0.018596208
-0.019505443 0.094283938 -0.018331112
-0.018882215 0.094106607 -0.018116415
-0.018216539 0.093926132 -0.01792402
-0.017659353 0.093753569 -0.017674586
-0.017120361 0.093582384 -0.017415587
-0.016618943 0.093413897 -0.017136827
-0.016034462 0.093234614 -0.016894119
-0.015404779 0.093045183 -0.016664503
-0.014663007 0.092845745 -0.016490698
-0.01382052 0.092637196 -0.016367139
-0.01319053 0.092447817 -0.016137687
-0.01263102 0.092264786 -0.015873037
0.011516321 0.087037638 -0.015407247
0.012296837 0.086834706 -0.015252756
0.012837173 0.086653411 -0.014978593
0.01319829 0.086488321 -0.014615106
0.045252968 0.079709664 -0.014222899
0.045241896 0.079578035 -0.0136733
0.045257289 0.079444028 -0.013136102
0.045316741 0.079305865 -0.012619521
0.045397665 0.079165742 -0.012113105
0.045408595 0.079032078 -0.01157375
0.04538884 0.078901276 -0.011019992
0.045414034 0.078766279 -0.010487424
0.045435797 0.078631617 -0.0099532511
0.045514897 0.078491732 -0.0094458768
0.04565895 0.07834585 -0.0089690862
0.045770988 0.078202829 -0.0084771616
0.045858383 0.078062169 -0.0079737352
0.045942057 0.077921778 -0.0074685421
0.046016507 0.077782303 -0.0069591128
0.046104707 0.077641524 -0.0064560752
0.046244517 0.077496007 -0.005977218
0.046427023 0.077346474 -0.0055184062
0.04664126 0.077194102 -0.0050744549
0.046842635 0.077042885 -0.0046245884
0.046985164 0.076897115 -0.004147049
0.047095437 0.076754257 -0.0036543745
0.047207993 0.076611236 -0.0031627251
0.047390617 0.076461762 -0.0027040064
0.047593411 0.076310463 -0.0022546782
0.047845948 0.076154456 -0.0018288129
0.04809675 0.075998716 -0.0014019805
0.048352003 0.075842507 -0.00097742863
0.048623081 0.07568489 -0.00056019891
0.048873894 0.075529136 -0.00013346647
0.049143638 0.07537163 0.00028442388
0.049454004 0.075210303 0.00068319245
0.049806189 0.075045139 0.0010624091
0.050202988 0.074875906 0.0014206438
0.050642714 0.074702732 0.0017587377
0.051056419 0.07453189 0.0021089565
0.051447488 0.074363157 0.0024699187
0.051855039 0.074192911 0.0028230685
0.052224856 0.074026182 0.0031940071
0.05247689 0.073870309 0.0036201777
0.05257554 0.073728569 0.0041183177
0.052369591 0.073614977 0.004759396
0.051984224 0.073517792 0.0054846471
0.051663324 0.073414855 0.0061796419
0.051406499 0.073305905 0.0068446053
0.051228218 0.073189728 0.0074727861
0.051121727 0.073066793 0.0080671636
0.051091224 0.072937049 0.0086259069
0.051133353 0.072800547 0.0091505889
0.051195946 0.072662152 0.009665668
0.05131356 0.072518639 0.010154867
0.051462121 0.072372243 0.010629571
0.051605463 0.07222648 0.011106853
0.051758915 0.072079629 0.011579196
0.051900443 0.071933992 0.012057212
0.052090354 0.071783841 0.012512553
0.052306633 0.071631193 0.012955553
0.052599758 0.071471505 0.013362318
0.052915405 0.07130976 0.013758661
0.053288158 0.071142778 0.01412819
0.053724431 0.070969805 0.014467872
0.054152843 0.070797682 0.014811244
0.054640867 0.070619956 0.015126754
0.073655665 0.066563591 0.015641565
0.074335583 0.066363297 0.015885964
0.074912891 0.066173308 0.016175739
0.075375535 0.065994501 0.016516292
0.075808816 0.06581872 0.01686983
0.076268181 0.065640293 0.017211804
0.076651543 0.065469339 0.017587483
0.077002503 0.065301694 0.017977562
0.077405311 0.06512887 0.018344611
0.077896811 0.064947225 0.018672405
0.078454286 0.064759195 0.018970912
0.079061925 0.064566009 0.019247318
0.079482988 0.064391449 0.019606302
0.079924867 0.064214729 0.019956075
0.080415219 0.064033262 0.02028434
0.080974691 0.063844867 0.020581977
0.086147577 0.062534831 0.021564102
0.086748123 0.062342424 0.021843625
-0.024698885 0.10932102 -0.072890013
-0.038956862 0.11021897 -0.064853661
-0.039114833 0.11009856 -0.064228214
-0.042536989 0.11021378 -0.061887242
-0.042961523 0.11011251 -0.061121672
-0.045034193 0.11013037 -0.059489809
-0.045435645 0.11002741 -0.058736488
-0.045803472 0.10992207 -0.058000766
-0.046176292 0.10981709 -0.057262413
-0.04652451 0.10971034 -0.05653695
-0.046817333 0.1095996 -0.055840708
-0.047087904 0.10948718 -0.055156052
-0.047315985 0.10937183 -0.054493882
-0.047564566 0.10925783 -0.053820796
-0.047811303 0.10914373 -0.053148665
-0.048007041 0.10902602 -0.052503467
-0.048123728 0.10890251 -0.051899716
-0.048314173 0.10878434 -0.05125726
-0.048414379 0.10865965 -0.050662152
-0.048511177 0.10853476 -0.050068945
-0.048588078 0.10840838 -0.049486116
-0.048588853 0.10827652 -0.048943296
-0.048624907 0.10814727 -0.048381925
-0.048682369 0.10801946 -0.047809348
-0.048677213 0.10788718 -0.047269724
-0.048664011 0.10775441 -0.046734236
-0.048651669 0.10762157 -0.046198294
-0.048613843 0.10748694 -0.045675837
-0.048568007 0.10735171 -0.045157507
-0.04849162 0.10721424 -0.044655189
-0.048420317 0.10707716 -0.044150338
-0.048365925 0.10694134 -0.043636531
-0.048282612 0.10680341 -0.043137901
-0.048196577 0.10666534 -0.042640738
-0.048073366 0.1065245 -0.042163111
-0.047937147 0.10638273 -0.041692369
-0.047810901 0.10624167 -0.041216247
-0.047667656 0.10609948 -0.040749155
-0.047504265 0.10595575 -0.04029271
-0.047327418 0.10581106 -0.039843239
-0.047145009 0.10566591 -0.039396703
-0.046931725 0.10551872 -0.03896641
-0.046703503 0.10537027 -0.038543992
-0.046450257 0.10522002 -0.038134649
-0.046141226 0.10506585 -0.037754789
-0.045813169 0.10491024 -0.037384801
-0.045447141 0.10475192 -0.037034802
-0.045051694 0.10459146 -0.036700137
-0.044699032 0.10443406 -0.036343157
-0.044389602 0.10427976 -0.035963401
-0.044106007 0.10412738 -0.035570063
-0.043816831 0.10397456 -0.035179645
-0.043488357 0.10381897 -0.034809917
-0.043114185 0.10366008 -0.034464143
-0.042727906 0.10350022 -0.034124844
-0.042320166 0.10333884 -0.033796728
-0.041913852 0.1031776 -0.033467904
-0.041448005 0.10301206 -0.033170372
-0.0410253 0.10284961 -0.032850154
-0.040608186 0.1026876 -0.03252697
-0.040227313 0.10252818 -0.032184757
-0.039847445 0.10236882 -0.031841993
-0.039431594 0.10220682 -0.031518251
-0.039008357 0.10204439 -0.031198317
-0.038543306 0.10187882 -0.03090035
-0.038093653 0.10171447 -0.030594241
-0.037602443 0.10154713 -0.030310016
-0.037104532 0.10137923 -0.030029336
-0.036593087 0.10121039 -0.029755779
-0.0360163 0.10103682 -0.029516505
-0.035402272 0.10086051 -0.029296864
-0.034840651 0.10068803 -0.029049711
-0.034336429 0.10051969 -0.028772293
-0.033840664 0.10035201 -0.028490502
-0.033381723 0.10018694 -0.028189303
-0.032988105 0.10002663 -0.027853789
-0.032678578 0.099872313 -0.027474128
-0.032382261 0.09971907 -0.027087418
-0.032063365 0.099564128 -0.026712624
-0.031709872 0.0994066 -0.026356062
-0.031329099 0.099247269 -0.026013767
-0.030957384 0.099088483 -0.025666777
-0.030581383 0.098929442 -0.025322014
-0.03021883 0.098771296 -0.024970204
-0.029860744 0.098613568 -0.024615997
-0.029488314 0.098454751 -0.024269335
-0.029119451 0.098296158 -0.023920821
-0.0287345 0.09813644 -0.023580786
-0.028305698 0.097973555 -0.023263758
-0.027904855 0.097812705 -0.022932002
-0.02746862 0.097649328 -0.022618882
-0.026982725 0.097482309 -0.022331899
-0.026504658 0.097315811 -0.022040823
-0.026098035 0.097154535 -0.021712134
-0.02568591 0.096992865 -0.021386327
-0.025264315 0.096830532 -0.021065533
-0.024820751 0.096666612 -0.020756291
-0.024346858 0.096500397 -0.020462986
-0.023843748 0.0963322 -0.020185024
-0.023277454 0.096159391 -0.019940227
-0.02262393 0.095980294 -0.019741323
-0.022036258 0.095805906 -0.019507864
-0.021491729 0.095634684 -0.01925166
-0.020957083 0.095464118 -0.018990273
-0.020454189 0.095295899 -0.018712221
-0.019922586 0.09512566 -0.018449204
-0.019353146 0.094952539 -0.018206144
-0.018728513 0.094775558 -0.017992051
-0.017984521 0.094589867 -0.017840682
-0.017417213 0.094416976 -0.017596476
-0.016884794 0.094246611 -0.017333901
-0.016364284 0.094077133 -0.017065091
-0.015781252 0.093895257 -0.016816927
-0.015204794 0.093710855 -0.016560685
-0.01451513 0.093516327 -0.016360821
-0.013513165 0.093293622 -0.016316537
-0.012904542 0.093106478 -0.016076319
-0.012440565 0.092932165 -0.015764048
0.01208271 0.087679036 -0.01548194
0.012684333 0.087492421 -0.015238231
0.013074773 0.087324791 -0.014889337
0.045673613 0.08038456 -0.014209323
0.045684144 0.080251038 -0.013669844
0.04568141 0.080118716 -0.013124076
0.045700222 0.079984315 -0.012588487
0.045765474 0.079845771 -0.012074604
0.045808725 0.079709232 -0.011550471
0.045780055 0.079579234 -0.010992589
0.045785207 0.079446189 -0.010450588
0.045766871 0.07931529 -0.0098974891
0.045821857 0.079177596 -0.0093788225
0.045962974 0.079032019 -0.0089005986
0.046093564 0.078887492 -0.0084173828
0.046182308 0.078746833 -0.007914599
0.04623488 0.078609392 -0.0073948014
0.046294343 0.07847137 -0.0068781972
0.046365645 0.078332201 -0.0063672434
0.046484463 0.078188673 -0.0058785887
0.046665501 0.078039482 -0.0054189838
0.046875209 0.077887774 -0.0049729049
0.04703851 0.077740215 -0.0045050196
0.047160286 0.077596463 -0.0040177726
0.047266871 0.077454165 -0.0035233595
0.047389835 0.077310242 -0.0030365835
0.047543615 0.077163562 -0.0025642798
0.047740452 0.077013008 -0.0021120929
0.047980856 0.076858319 -0.0016804367
0.04821568 0.076704279 -0.0012461235
0.048441898 0.076550968 -0.0008077721
0.048670251 0.076397516 -0.00037044889
0.048905689 0.076243363 6.3468251e-05
0.049145374 0.076088831 0.00049551466
0.049426269 0.075930484 0.00090818241
0.049769532 0.075766556 0.0012916171
0.050159559 0.075598232 0.0016531222
0.050584048 0.075426772 0.0019984483
0.051024545 0.075253926 0.0023362702
0.051411822 0.075085871 0.0026989907
0.051791828 0.074918538 0.003065211
0.052176304 0.074750714 0.0034293479
0.052523375 0.074586399 0.0038109852
0.05276094 0.074432075 0.0042439764
0.05276062 0.074299425 0.004788599
0.052529536 0.074188039 0.0054414016
0.052111927 0.07409358 0.0061817402
0.051803321 0.07398919 0.0068709268
0.051573042 0.073877662 0.0075234459
0.051471017 0.073754385 0.008115761
0.051446997 0.07362397 0.0086714877
0.051480629 0.073488288 0.0092001315
0.05152642 0.073351517 0.0097230356
0.051602989 0.073211856 0.010231634
0.05171473 0.073069043 0.010723697
0.051843598 0.072924614 0.011207654
0.051985011 0.072779082 0.011685792
0.052108299 0.072635189 0.012172385
0.052273836 0.072487488 0.01263915
0.052474335 0.072336577 0.013089542
0.052719988 0.072181478 0.013518769
0.052978102 0.072025217 0.013942153
0.053295802 0.07186354 0.014337511
0.053677246 0.07169608 0.014703074
0.054103132 0.071524486 0.015047743
0.05451991 0.071353786 0.015396655
0.075239353 0.066880554 0.016246317
0.075840294 0.066688515 0.016525842
0.076272197 0.066513158 0.016880108
0.076645814 0.066343553 0.017260199
0.077002391 0.066175655 0.017647797
0.077349573 0.066008583 0.018039517
0.077711917 0.065840065 0.018424574
0.078126527 0.065666378 0.018786544
0.078740612 0.065473139 0.019060161
0.079328157 0.065282412 0.019345613
0.079813674 0.065101758 0.019676106
0.08026439 0.06492462 0.020022139
0.080724858 0.064746365 0.020363711
0.081332013 0.064553775 0.020640435
0.086449876 0.06325312 0.021647993
0.087017789 0.063064232 0.021942161
0.087701119 0.062864169 0.022185082
-0.024933428 0.11014318 -0.073105723
-0.025630563 0.11006118 -0.072196975
-0.038975764 0.11088438 -0.064642683
-0.038989328 0.11075351 -0.064093143
-0.042442616 0.11086872 -0.061736397
-0.042897813 0.1107694 -0.060954779
-0.044809863 0.11077433 -0.059407711
-0.0452509 0.11067411 -0.058633618
-0.045576047 0.11056545 -0.057920367
-0.045892309 0.1104562 -0.057211816
-0.046320725 0.11035495 -0.056444325
-0.046617441 0.11024433 -0.055746049
-0.046892099 0.11013215 -0.055059224
-0.047097139 0.11001489 -0.054409184
-0.047357216 0.10990165 -0.053730093
-0.047587465 0.10978628 -0.053066738
-0.04780126 0.10966963 -0.052411973
-0.047915269 0.10954592 -0.051809736
-0.048044592 0.10942324 -0.05119931
-0.048181321 0.10930118 -0.050585121
-0.048246305 0.10917392 -0.050008588
-0.048332028 0.10904826 -0.049421117
-0.048357021 0.10891812 -0.048865587
-0.048369367 0.10878713 -0.048316739
-0.048409019 0.10865807 -0.047753476
-0.048421349 0.10852708 -0.047204629
-0.048383258 0.10839247 -0.046682246
-0.048372887 0.10825985 -0.04614526
-0.048337322 0.10812543 -0.045621552
-0.048288826 0.10799008 -0.045104623
-0.048209786 0.10785253 -0.044603802
-0.048138157 0.10771554 -0.044099011
-0.048068605 0.10757864 -0.043593109
-0.048006669 0.10744232 -0.043083347
-0.047902692 0.10730292 -0.042595536
-0.047786612 0.10716276 -0.042114079
-0.047675401 0.10702298 -0.041630097
-0.047541909 0.1068815 -0.041157924
-0.04738481 0.10673841 -0.040698044
-0.047247354 0.10659659 -0.040227853
-0.047087505 0.1064533 -0.039769486
-0.046925507 0.10630988 -0.039312162
-0.046741746 0.10616478 -0.038866341
-0.046530582 0.10601781 -0.0384349
-0.046308354 0.10587002 -0.038009316
-0.046048447 0.10571956 -0.037603408
-0.045737874 0.10556541 -0.037224144
-0.045386255 0.10540844 -0.036866531
-0.04501766 0.10525014 -0.036517806
-0.044635858 0.10509089 -0.036176011
-0.044305008 0.10493536 -0.035807386
-0.044010304 0.10478237 -0.035419948
-0.043725967 0.10463014 -0.035026923
-0.043393914 0.10447452 -0.034658946
-0.043033026 0.10431676 -0.034306191
-0.042653549 0.10415772 -0.033963166
-0.042230509 0.10399555 -0.03364303
-0.041821808 0.10383441 -0.033315383
-0.041353453 0.10366908 -0.033019088
-0.040919531 0.10350607 -0.032704674
-0.04050931 0.10334488 -0.032377832
-0.040140502 0.10318657 -0.032029182
-0.039769579 0.10302809 -0.031681724
-0.039325666 0.10286447 -0.031372584
-0.038882554 0.1027009 -0.03106297
-0.038402207 0.10253461 -0.03077298
-0.037912615 0.10236765 -0.030487845
-0.03739946 0.10219909 -0.030215019
-0.036874231 0.10202962 -0.029948547
-0.036339931 0.10185948 -0.029686926
-0.035744194 0.10168491 -0.029457562
-0.035149541 0.10151048 -0.029227594
-0.034641173 0.10134225 -0.028952295
-0.034211617 0.10117965 -0.028635593
-0.033750512 0.10101473 -0.028335502
-0.033314843 0.10085171 -0.028022012
-0.032928027 0.10069215 -0.027682839
-0.032604925 0.10053707 -0.027310204
-0.032326903 0.10038531 -0.02691387
-0.032020815 0.10023153 -0.026532341
-0.031677246 0.10007506 -0.026170449
-0.031310584 0.099916965 -0.025820663
-0.030966625 0.099760391 -0.025459012
-0.030610126 0.099603102 -0.025103943
-0.030234624 0.099444225 -0.024758833
-0.029851675 0.099284969 -0.024417618
-0.029452035 0.099124454 -0.02408524
-0.029044839 0.098963469 -0.023756746
-0.028640632 0.098802611 -0.02342673
-0.028185932 0.098638207 -0.023123257
-0.027781822 0.098477349 -0.022793215
-0.027300444 0.098311037 -0.02250373
-0.026813384 0.098144315 -0.022217222
-0.026352162 0.097979367 -0.021917176
-0.025955161 0.097819135 -0.021583326
-0.025542915 0.097657762 -0.021257557
-0.025155379 0.097498074 -0.020918841
-0.024726119 0.09733551 -0.020601923
-0.024236102 0.097168572 -0.02031705
-0.023712698 0.096999243 -0.020049604
-0.023150314 0.09682703 -0.019802732
-0.022593023 0.09665525 -0.01955314
-0.022048049 0.09648443 -0.01929708
-0.021499705 0.09631329 -0.019042766
-0.020947998 0.096141934 -0.018790243
-0.020386839 0.095969886 -0.018542742
-0.019808896 0.095796585 -0.01830402
-0.019199787 0.095621161 -0.018081635
-0.018560769 0.09544348 -0.017874962
-0.017859867 0.095261447 -0.017700877
-0.01726613 0.095087081 -0.017470416
-0.016677985 0.094913147 -0.017236991
-0.01613648 0.094742455 -0.016979175
-0.015548219 0.094557822 -0.016729556
-0.014985635 0.094374843 -0.016466351
-0.013136908 0.093944222 -0.016300192
-0.012574621 0.093761273 -0.016036835
0.012520106 0.088332303 -0.015492241
0.013047093 0.088152573 -0.01521126
0.046023518 0.08119905 -0.014706869
0.046106186 0.081058957 -0.014201145
0.04609292 0.08092767 -0.01365044
0.046083495 0.080795899 -0.01310168
0.046092715 0.080662496 -0.012561465
0.046130586 0.080526434 -0.01203479
0.046139516 0.080393113 -0.011494556
0.046137687 0.080260694 -0.010949166
0.046124298 0.080129303 -0.010398524
0.046116997 0.079997376 -0.0098505989
0.046175871 0.079859458 -0.0093336962
0.046308495 0.079714864 -0.0088514825
0.046423282 0.079571895 -0.0083608059
0.046474062 0.079434738 -0.0078402422
0.04652429 0.07929755 -0.0073193023
0.046562061 0.079161584 -0.0067925137
0.046629455 0.079022914 -0.0062796576
0.046731655 0.078880966 -0.005783176
0.046913441 0.078731991 -0.005323987
0.047095414 0.07858289 -0.0048648142
0.047230471 0.078438088 -0.004383733
0.047328848 0.078296594 -0.003885346
0.047448397 0.078153163 -0.0033969355
0.047576673 0.07800892 -0.002912659
0.047732905 0.077862218 -0.0024414435
0.047918923 0.077712737 -0.0019842503
0.048134625 0.077560626 -0.0015409571
0.048363417 0.077407271 -0.0011037915
0.04857111 0.077255882 -0.00065663853
0.048789043 0.077103533 -0.00021438667
0.049028769 0.076949216 0.0002176039
0.049249623 0.076796576 0.00065854366
0.049501199 0.076641224 0.0010850024
0.049831197 0.07647866 0.0014746948
0.050180655 0.076314487 0.0018553883
0.050564241 0.076147087 0.0022198774
0.050998099 0.075975202 0.0025609676
0.051427681 0.075803667 0.0029039336
0.051805817 0.075636849 0.0032710864
0.052155256 0.075472541 0.0036517531
0.052483317 0.075310193 0.0040422836
0.052781805 0.075150542 0.0044468367
0.052979987 0.075000055 0.0048983088
0.052961841 0.074869148 0.0054513235
0.052639965 0.07476569 0.0061466573
0.05220123 0.074672915 0.0068969107
0.051955834 0.074562587 0.0075564361
0.05184925 0.074439652 0.0081509026
0.051778525 0.074313559 0.008728452
0.051803228 0.074178621 0.0092613194
0.051851649 0.07404168 0.0097831124
0.051899094 0.073904879 0.010305295
0.051973742 0.073765449 0.010814751
0.052079115 0.073623314 0.01130985
0.052220661 0.073477902 0.011787915
0.05237456 0.073331431 0.012260171
0.052549638 0.073182948 0.012722544
0.052715693 0.073035307 0.013189152
0.052899085 0.072886132 0.013647566
0.053103525 0.072735026 0.014096214
0.053340625 0.072580919 0.014529437
0.053634133 0.072421774 0.014936256
0.054002941 0.072255746 0.015307806
0.054456946 0.072081923 0.015639387
0.054886412 0.071910389 0.015982451
0.076241806 0.067389302 0.016563494
0.076617353 0.067219719 0.016942792
0.07697206 0.067052253 0.017331302
0.077305816 0.066886835 0.017729098
0.077679843 0.066717468 0.018109079
0.078022517 0.066551119 0.018502917
0.078414917 0.066380039 0.01887483
0.079005666 0.066189408 0.019158954
0.079683393 0.065990396 0.019404534
0.080146819 0.065812312 0.019745003
0.080613494 0.065633878 0.02008404
0.081157394 0.065447927 0.020388853
0.081707709 0.065261349 0.020690819
0.08730793 0.063784376 0.022031648
0.088014379 0.063582622 0.02226457
-0.024997804 0.11082092 -0.072868489
-0.02585702 0.11075 -0.071874775
-0.025894215 0.11062074 -0.071312822
-0.041834474 0.11161925 -0.062397778
-0.042327177 0.1115222 -0.061596572
-0.04278383 0.11142278 -0.060814239
-0.044557527 0.11141664 -0.059340343
-0.044995025 0.11131583 -0.058567978
-0.045329448 0.11120766 -0.057849988
-0.045631085 0.11109724 -0.057149105
-0.045993578 0.11099108 -0.056416295
-0.046285443 0.11087993 -0.055720612
-0.046622492 0.11077195 -0.055001199
-0.046872318 0.11065774 -0.05432751
-0.047105771 0.11054245 -0.053662606
-0.047339905 0.11042719 -0.052997217
-0.047572415 0.11031183 -0.052332677
-0.04771325 0.11018996 -0.051716231
-0.047841426 0.1100672 -0.051106565
-0.047957711 0.1099436 -0.050503023
-0.047992647 0.10981423 -0.049942315
-0.048082575 0.10968873 -0.049352698
-0.048137985 0.1095608 -0.048781149
-0.048134569 0.10942865 -0.048240609
-0.048171956 0.10929944 -0.047678471
-0.04817507 0.10916787 -0.047134519
-0.048143238 0.10903373 -0.046608724
-0.04812558 0.10890056 -0.04607559
-0.048079502 0.10876552 -0.045557402
-0.04802632 0.10862982 -0.045043036
-0.047938917 0.10849175 -0.044546515
-0.047870051 0.10835504 -0.044040203
-0.047801174 0.1082183 -0.043534011
-0.047738217 0.10808194 -0.043024704
-0.047634739 0.10794277 -0.042536542
-0.047537658 0.10780407 -0.042045191
-0.047415163 0.10766345 -0.041567177
-0.047272079 0.1075215 -0.041099824
-0.047119655 0.10737883 -0.040637575
-0.04699368 0.10723799 -0.040161312
-0.046850298 0.10709596 -0.039694168
-0.046693284 0.10695296 -0.039234295
-0.046539612 0.10681017 -0.038772613
-0.046350338 0.10666492 -0.038329564
-0.046158902 0.10651948 -0.037887752
-0.045934416 0.10637172 -0.037463233
-0.045648135 0.10621955 -0.037071221
-0.045314711 0.10606401 -0.036703981
-0.0449524 0.10590656 -0.036351845
-0.044558611 0.10574674 -0.036016211
-0.044227954 0.10559141 -0.035647549
-0.043951336 0.10543995 -0.035250418
-0.04369181 0.10528969 -0.034844391
-0.043378972 0.10513566 -0.034466229
-0.043017652 0.1049782 -0.034113631
-0.04265096 0.10482033 -0.033763856
-0.042232241 0.10465878 -0.033441328
-0.041802328 0.10449642 -0.033124797
-0.041333333 0.10433131 -0.032828741
-0.04088838 0.10416786 -0.032520048
-0.040462147 0.10400583 -0.032201484
-0.040062055 0.10384554 -0.03186927
-0.039673984 0.10368619 -0.031530671
-0.039225757 0.10352251 -0.031223726
-0.038754415 0.10335725 -0.030928912
-0.038233023 0.10318842 -0.030660352
-0.037687063 0.10301787 -0.030404687
-0.037148565 0.10284775 -0.030145122
-0.036610626 0.10267778 -0.029885281
-0.036020197 0.10250413 -0.029652996
-0.035461646 0.10233264 -0.029403983
-0.034962405 0.10216534 -0.029123778
-0.0345097 0.10200144 -0.028819151
-0.034111872 0.10184129 -0.028485766
-0.033683281 0.10167912 -0.028168447
-0.033272922 0.10151812 -0.027841557
-0.032887388 0.10135897 -0.027501687
-0.03254075 0.10120246 -0.027141329
-0.032257915 0.10105059 -0.026747484
-0.031968068 0.10089819 -0.026357364
-0.031647358 0.10074361 -0.025983408
-0.031312447 0.10058795 -0.025616897
-0.030955013 0.1004307 -0.025262246
-0.030613346 0.10027464 -0.024899296
-0.030249197 0.10011699 -0.024548158
-0.029839024 0.099956095 -0.024221191
-0.029425316 0.099794872 -0.023896111
-0.028982569 0.099631615 -0.02358623
-0.028568741 0.099470392 -0.023261195
-0.028115934 0.099306427 -0.022956638
-0.027682269 0.099143803 -0.022642005
-0.027189158 0.098976932 -0.022358628
-0.026711518 0.098811232 -0.0220671
-0.026250869 0.098646693 -0.021766651
-0.025828483 0.098484933 -0.021446075
-0.025402743 0.098322868 -0.021127325
-0.02502311 0.098164126 -0.020784281
-0.024591791 0.098001629 -0.020468432
-0.02413287 0.097837225 -0.020167118
-0.023602309 0.097667739 -0.01990336
-0.023062358 0.097497538 -0.019644581
-0.022526903 0.097327784 -0.019383406
-0.02197993 0.097157121 -0.019128319
-0.021421056 0.096985631 -0.018879466
-0.02087043 0.096814774 -0.018626241
-0.020312071 0.096643284 -0.018377161
-0.019719411 0.096469432 -0.018146012
-0.01909896 0.096293554 -0.017929535
-0.018465171 0.096116707 -0.017720051
-0.017826894 0.095939614 -0.017512895
-0.017218765 0.095764622 -0.017289909
-0.016599946 0.095588915 -0.017072491
-0.015967555 0.095411249 -0.016860876
-0.01535534 0.095224075 -0.016622199
-0.014844668 0.095045917 -0.016333085
0.012551126 0.089154541 -0.01584349
0.012878411 0.088992834 -0.015463041
0.046540871 0.081866302 -0.014738311
0.046587083 0.081729591 -0.014215501
0.046543803 0.081600957 -0.013650774
0.046495281 0.081472792 -0.013083569
0.046493459 0.081340402 -0.012538277
0.046524655 0.08120504 -0.01200838
0.046497583 0.081074886 -0.011451241
0.046473473 0.080944493 -0.010895516
0.046457179 0.08081346 -0.010343444
0.046500947 0.080677018 -0.0098194713
0.046570141 0.080538154 -0.0093074488
0.046677429 0.080395952 -0.0088132806
0.046768941 0.080255195 -0.0083116675
0.046822354 0.080117859 -0.0077922121
0.046834916 0.079984173 -0.0072536753
0.046882961 0.079847366 -0.00673177
0.046927653 0.079710796 -0.006208275
0.047018223 0.079570062 -0.0057062069
0.047194447 0.079421692 -0.005244364
0.047363251 0.079273917 -0.0047790487
0.047465194 0.079132207 -0.0042823385
0.047561664 0.078991041 -0.0037830623
0.047662783 0.078849323 -0.003285991
0.047778618 0.078706473 -0.0027958404
0.047956452 0.078557834 -0.002334764
0.048140675 0.078408822 -0.0018766634
0.04833046 0.07825914 -0.0014211208
0.04854244 0.078107618 -0.00097598863
0.048750069 0.077956319 -0.00052891113
0.048970051 0.077804014 -8.7448694e-05
0.049222667 0.077648789 0.00033860208
0.04944934 0.077495903 0.0007767654
0.049657777 0.077344611 0.0012235767
0.049931888 0.077187411 0.0016395646
0.050250579 0.077026211 0.0020345829
0.050570361 0.076864861 0.0024292259
0.050953377 0.07669796 0.0027941959
0.051389314 0.076526202 0.0031342339
0.051787652 0.076357909 0.0034920629
0.052119102 0.076195553 0.0038811667
0.05239401 0.076038264 0.0042967703
0.052687459 0.075879388 0.0047037508
0.053016569 0.075717211 0.0050938707
0.053146172 0.075573072 0.0055776257
0.052996006 0.075453974 0.0061924695
0.052624725 0.075354762 0.0069109588
0.052418835 0.075240791 0.0075519546
0.052271802 0.075121433 0.0081652878
0.052169748 0.074997962 0.0087575614
0.052099742 0.074871823 0.009334838
0.05213378 0.074736118 0.0098633952
0.052155983 0.074601591 0.010397417
0.052221533 0.074463144 0.010911131
0.052322872 0.074321531 0.011408137
0.052459273 0.074176721 0.011888701
0.052623305 0.074029393 0.012356265
0.052801739 0.073880821 0.012817089
0.052990939 0.073731348 0.013272836
0.053127002 0.073586442 0.013753549
0.053268764 0.073441163 0.014231569
0.053416613 0.073295325 0.014706658
0.05363287 0.073143393 0.015149819
0.053912729 0.072985671 0.015563074
0.054310381 0.072817415 0.015921175
0.054785263 0.072642148 0.016243078
0.055363573 0.072457634 0.016516499
0.076928258 0.06793002 0.017020773
0.077239498 0.067767024 0.017428575
0.077594846 0.067599736 0.017816862
0.07800246 0.067427456 0.018182177
0.07841666 0.067254424 0.018544469
0.078809045 0.067083612 0.018916355
0.079385184 0.066894978 0.019207088
0.080116183 0.066691272 0.019429328
0.08061102 0.066510424 0.019755969
0.08104977 0.06633509 0.020107388
0.081567258 0.066152059 0.020424103
0.082081802 0.065969355 0.020742038
0.082725883 0.065774061 0.021002747
-0.024994195 0.11149374 -0.072666943
-0.025877111 0.11142391 -0.071661063
-0.025895067 0.1112933 -0.071109086
-0.041484769 0.11225656 -0.062380865
-0.042165704 0.11217257 -0.061480992
-0.04259583 0.11207093 -0.060712673
-0.044233881 0.11205414 -0.059310168
-0.044710707 0.11195585 -0.058517374
-0.045011759 0.11184515 -0.05781693
-0.045320135 0.11173496 -0.057112597
-0.045632057 0.11162508 -0.056406394
-0.045944922 0.11151518 -0.055699624
-0.046312429 0.11140919 -0.054964356
-0.04662 0.1112989 -0.054260418
-0.046825346 0.11118153 -0.053610198
-0.047067471 0.11106668 -0.0529406
-0.047307029 0.11095168 -0.052272424
-0.047458142 0.11083044 -0.051650628
-0.04758928 0.11070778 -0.051039383
-0.047712702 0.11058464 -0.050432198
-0.047752742 0.11045557 -0.049868755
-0.047852326 0.11033081 -0.04927405
-0.047906931 0.1102028 -0.048702888
-0.047899853 0.11007041 -0.048164308
-0.047912288 0.10993952 -0.04761526
-0.047911834 0.10980757 -0.0470732
-0.047885302 0.10967387 -0.046544664
-0.047878936 0.10954162 -0.046005681
-0.047837112 0.10940685 -0.045485131
-0.04777018 0.10927032 -0.044977881
-0.047701403 0.10913362 -0.044471584
-0.047611553 0.10899554 -0.043976352
-0.04754236 0.10885885 -0.043470323
-0.047475424 0.10872229 -0.042963058
-0.04738364 0.10858397 -0.042468779
-0.047292776 0.10844579 -0.04197403
-0.04718918 0.10830665 -0.041486092
-0.047053434 0.10816527 -0.041014962
-0.046893146 0.10802217 -0.040556744
-0.046737723 0.10787945 -0.040095866
-0.046604931 0.10773828 -0.039623246
-0.046453591 0.10759574 -0.039160222
-0.046305422 0.10745353 -0.038695581
-0.046143591 0.10731032 -0.038238205
-0.045968331 0.10716622 -0.037787773
-0.045762956 0.10701992 -0.03735327
-0.04550311 0.1068698 -0.036947265
-0.045180444 0.10671533 -0.036574312
-0.044808012 0.10655727 -0.036227413
-0.044446677 0.10640012 -0.035874762
-0.044146817 0.10624727 -0.035489827
-0.04389482 0.10609768 -0.035079703
-0.043649435 0.10594858 -0.034666173
-0.043344483 0.10579538 -0.034283847
-0.04300024 0.10563932 -0.033922203
-0.04262986 0.10548148 -0.033574246
-0.042228099 0.10532145 -0.033242822
-0.041792657 0.10515904 -0.032929048
-0.04132577 0.10499436 -0.032631807
-0.040854897 0.10482951 -0.032336615
-0.040414453 0.10466674 -0.032025442
-0.039985627 0.10450476 -0.031708255
-0.039555077 0.10434265 -0.031391867
-0.039087467 0.10417797 -0.031095022
-0.038550947 0.10400848 -0.030834306
-0.038021635 0.10383943 -0.03056982
