# .PCD v.5 - Point Cloud Data file format
VERSION .5
FIELDS x y z
SIZE 4 4 4
TYPE F F F
COUNT 1 1 1
WIDTH 1276
HEIGHT1
POINTS 1276
DATA ascii
-84.276794   76.581345    -56.858921
-84.079475   77.112617    -56.819511
-83.896553   77.595085    -56.822746
-83.718552   78.060875    -56.840725
-83.500656   78.661057    -56.743149
-83.282806   79.260735    -56.646484
-83.108963   79.712265    -56.677929
-82.940575   80.145027    -56.725800
-82.719185   80.756561    -56.620350
-82.497330   81.369522    -56.514328
-82.316734   81.843109    -56.528324
-82.163376   82.224701    -56.621468
-81.940483   82.840790    -56.514130
-81.699020   83.518898    -56.354061
-81.506912   84.030792    -56.336750
-81.336716   84.468864    -56.383015
-81.146797   84.973083    -56.373112
-80.911583   85.629753    -56.233585
-80.694046   86.226654    -56.145569
-80.528152   86.649681    -56.206123
-80.344864   87.131203    -56.217197
-80.112671   87.777153    -56.088821
-79.883324   88.413139    -55.969460
-79.702049   88.887283    -55.987873
-79.525803   89.344620    -56.021080
-79.311569   89.929245    -55.946800
-79.089745   90.539513    -55.851192
-78.893959   91.062073    -55.830334
-78.718521   91.516235    -55.867737
-78.513519   92.069519    -55.821678
-78.262657   92.776489    -55.646271
-78.078468   93.259598    -55.660538
-77.908028   93.696411    -55.714058
-77.707497   94.234177    -55.682831
-77.461998   94.922630    -55.525284
-77.242470   95.523369    -55.441818
-77.069534   95.968353    -55.490005
-76.891182   96.431023    -55.523727
-76.651085   97.100655    -55.383949
-76.415314   97.755608    -55.257187
-76.241058   98.204269    -55.303764
-76.070198   98.641457    -55.360378
-75.837006   99.287384    -55.242496
-75.604462   99.930901    -55.127300
-75.421677   100.407654    -55.151867
-75.246353   100.859283    -55.197868
-75.017021   101.491730    -55.093227
-74.776886   102.159927    -54.959419
-74.580414   102.682007    -54.947922
-74.406273   103.129204    -54.999016
-74.220039   103.616692    -55.017021
-73.966660   104.328667    -54.848820
-73.752815   104.908119    -54.791130
-73.571632   105.378334    -54.824600
-73.394012   105.836708    -54.868359
-73.166412   106.461884    -54.774220
-72.927841   107.123619    -54.650341
-72.740845   107.612869    -54.669716
-72.560440   108.079895    -54.707809
-72.324478   108.732277    -54.593121
-72.076561   109.424408    -54.446175
-71.899384   109.880341    -54.494648
-71.721451   110.338913    -54.541275
-71.508560   110.913658    -54.492516
-71.271896   111.567657    -54.379005
-71.055473   112.153961    -54.321709
-70.886887   112.580856    -54.395882
-70.696037   113.081673    -54.409603
-70.429825   113.833473    -54.217808
-70.225319   114.379585    -54.195412
-70.040909   114.858521    -54.228333
-69.836563   115.403763    -54.207321
-69.576286   116.135330    -54.034485
-69.353279   116.742409    -53.963886
-69.177254   117.192848    -54.021683
-68.980797   117.711449    -54.024303
-68.737007   118.387230    -53.899017
-68.501236   119.036240    -53.796242
-68.324432   119.488976    -53.853676
-68.150719   119.931297    -53.919998
-67.925819   120.543640    -53.848274
-67.647118   121.334641    -53.632069
-67.453438   121.843025    -53.645954
-67.273247   122.306396    -53.696587
-67.052299   122.905136    -53.637962
-66.776291   123.686584    -53.431862
-66.577469   124.211304    -53.434177
-66.393677   124.686295    -53.476990
-66.168671   125.297684    -53.410015
-65.931679   125.948959    -53.311367
-65.712997   126.539185    -53.262489
-65.536369   126.989677    -53.326702
-65.353584   127.460732    -53.374668
-65.085091   128.215744    -53.194397
-64.846779   128.870377    -53.095516
-64.684418   129.273499    -53.199490
-64.516907   129.693405    -53.290028
-64.299713   130.277740    -53.248997
-64.072685   130.894455    -53.182343
-63.894741   131.348572    -53.246449
-63.723415   131.780670    -53.328472
-63.492382   132.410400    -53.252804
-63.242882   133.101089    -53.128799
-63.059719   133.572052    -53.180862
-62.877975   134.038223    -53.237190
-62.709812   134.459122    -53.329784
-62.449757   135.184174    -53.180405
-62.188618   135.912430    -53.028976
-62.033840   136.288971    -53.158127
-61.860802   136.725983    -53.239594
-61.632915   137.344040    -53.177200
-61.394402   137.996979    -53.087715
-61.203510   138.492325    -53.123764
-61.022968   138.953430    -53.187279
-60.817501   139.496918    -53.185757
-60.535290   140.293655    -52.984341
-60.356762   140.747879    -53.054455
-60.172295   141.221558    -53.109489
-59.955368   141.802124    -53.080437
-59.725494   142.425552    -53.018219
-59.507599   143.009186    -52.987671
-59.319485   143.494431    -53.035175
-59.120487   144.015610    -53.054619
-58.889210   144.642822    -52.991020
-58.626022   145.375244    -52.845257
-58.456345   145.799255    -52.942402
-58.281570   146.239960    -53.026573
-114.192223   -1.493265    -56.607033
-114.029709   -1.060267    -56.593712
-113.889175   -0.704855    -56.657074
-113.757645   -0.381181    -56.751736
-113.605003   0.016386    -56.773930
-113.445457   0.438618    -56.772423
-113.293594   0.833522    -56.798004
-113.157356   1.173278    -56.877861
-113.018661   1.521512    -56.949505
-112.870903   1.901959    -56.990063
-112.715912   2.307501    -57.006363
-112.566879   2.691981    -57.043530
-112.423683   3.055704    -57.101078
-112.269531   3.458139    -57.121311
-112.119499   3.845744    -57.156265
-111.967163   4.241468    -57.183617
-111.819252   4.621499    -57.226395
-111.674835   4.989201    -57.281551
-111.534515   5.342466    -57.350971
-111.378960   5.749186    -57.368793
-111.228195   6.138793    -57.403358
-111.086761   6.495708    -57.470142
-110.945000   6.853638    -57.536053
-110.808632   7.192825    -57.620365
-110.663536   7.562200    -57.675545
-110.509094   7.964365    -57.699451
-110.363968   8.333965    -57.755112
-110.220375   8.697817    -57.816540
-110.065735   9.100359    -57.840939
-109.914574   9.490623    -57.877335
-109.767899   9.865168    -57.929283
-109.615196   10.260699    -57.961430
-109.464165   10.650166    -57.999565
-109.316528   11.027762    -58.049255
-109.164993   11.418960    -58.086300
-109.010170   11.821413    -58.112827
-108.866158   12.186146    -58.175800
-108.716309   12.571032    -58.219585
-108.565903   12.957871    -58.261917
-108.405807   13.378472    -58.272385
-108.237846   13.826338    -58.257004
-108.083328   14.226995    -58.286896
-107.933846   14.610332    -58.333763
-107.779091   15.011931    -58.363495
-107.608452   15.468624    -58.341164
-107.440659   15.915355    -58.328579
-107.284981   16.319656    -58.356552
-107.140396   16.685373    -58.421631
-106.982323   17.097864    -58.442539
-106.793976   17.615799    -58.363735
-106.619141   18.086376    -58.330265
-106.473854   18.454115    -58.394619
-106.329735   18.817741    -58.463116
-106.165352   19.251699    -58.465324
-105.995834   19.703205    -58.451256
-105.840157   20.106646    -58.482971
-105.700012   20.456163    -58.565895
-105.557732   20.812960    -58.642159
-105.394081   21.243748    -58.649036
-105.223076   21.700006    -58.632015
-105.066391   22.106619    -58.662228
-104.913086   22.501143    -58.704201
-104.753906   22.916269    -58.727005
-104.582535   23.373280    -58.710636
-104.411987   23.827377    -58.697506
-104.258919   24.220837    -58.741718
-104.104729   24.618158    -58.782478
-103.928169   25.092810    -58.751122
-103.740616   25.605377    -58.684681
-103.583092   26.013872    -58.715977
-103.436974   26.382587    -58.784706
-103.276573   26.800907    -58.807529
-103.089920   27.309919    -58.745823
-102.906700   27.806913    -58.696011
-102.747574   28.220345    -58.724308
-102.592873   28.618446    -58.767174
-102.419296   29.081869    -58.749725
-102.222565   29.624722    -58.658546
-102.047707   30.092216    -58.638111
-101.897476   30.474482    -58.696999
-101.732048   30.909153    -58.707565
-101.546761   31.412220    -58.655079
-101.355820   31.934649    -58.585117
-101.191772   32.364132    -58.601696
-101.035973   32.765125    -58.644821
-100.861679   33.229759    -58.629562
-100.661705   33.782696    -58.532917
-100.483284   34.261307    -58.505573
-100.318680   34.692245    -58.522438
-100.156593   35.114376    -58.547863
-99.969025   35.624195    -58.492794
-99.775787   36.153244    -58.420433
-99.610016   36.587738    -58.435444
-99.450157   37.001518    -58.469891
-99.275513   37.466343    -58.457718
-99.089813   37.969131    -58.411236
-98.922958   38.406624    -58.424812
-98.769066   38.799629    -58.479481
-98.603287   39.233391    -58.497257
-98.407120   39.771748    -58.419666
-98.231415   40.239464    -58.407162
-98.079651   40.624401    -58.470390
-97.926826   41.013363    -58.530270
-97.748619   41.489265    -58.511295
-97.555687   42.015633    -58.446754
-97.380119   42.482319    -58.436852
-97.214111   42.915813    -58.457443
-97.042824   43.367416    -58.462059
-96.854591   43.877396    -58.413944
-96.658539   44.413826    -58.342350
-96.497467   44.830151    -58.380089
-96.339836   45.234310    -58.428856
-96.158386   45.720387    -58.404060
-95.965759   46.244560    -58.345192
-95.787758   46.718475    -58.332180
-95.626175   47.135975    -58.370483
-95.453880   47.590130    -58.375896
-95.254837   48.135551    -58.299320
-95.056450   48.678806    -58.225327
-94.891365   49.107891    -58.254589
-94.712082   49.585606    -58.240433
-94.515778   50.121193    -58.174477
-94.317474   50.663578    -58.102856
-94.145164   51.116852    -58.111824
-93.991478   51.506287    -58.178394
-93.812454   51.982338    -58.167591
-93.599640   52.573765    -58.053833
-93.408638   53.090630    -58.007347
-93.245522   53.511707    -58.046761
-93.073273   53.964142    -58.058620
-92.864655   54.540672    -57.960018
-92.673195   55.058582    -57.914234
-92.498611   55.518398    -57.920639
-92.330544   55.955963    -57.947079
-92.130753   56.501717    -57.877674
-91.922569   57.076118    -57.783268
-91.742317   57.554985    -57.774269
-91.585487   57.953789    -57.836746
-91.409180   58.418972    -57.840580
-91.184547   59.048717    -57.698677
-90.981407   59.605213    -57.622421
-90.808510   60.058296    -57.638195
-90.645432   60.477924    -57.683910
-90.445030   61.024628    -57.617573
-90.230240   61.620068    -57.508739
-90.056107   62.076656    -57.522724
-89.894066   62.492439    -57.573238
-89.704475   63.001678    -57.541630
-89.483421   63.617950    -57.416168
-89.301544   64.100601    -57.408970
-89.137543   64.522385    -57.455563
-88.947449   65.033035    -57.424366
-88.732185   65.628723    -57.318710
-88.537712   66.154037    -57.275650
-88.370689   66.585556    -57.315105
-88.205276   67.011597    -57.359673
-87.990082   67.606865    -57.256390
-87.776787   68.195320    -57.159691
-87.593773   68.680717    -57.153465
-87.431854   69.094337    -57.210278
-87.250557   69.573692    -57.210026
-86.992409   70.313797    -56.982708
-86.800423   70.829376    -56.951935
-86.650337   71.202393    -57.045574
-86.486473   71.622147    -57.098888
-86.245102   72.304794    -56.923786
-86.048531   72.834991    -56.881710
-85.891502   73.231445    -56.956257
-85.717300   73.685738    -56.980965
-85.494972   74.303154    -56.864483
-85.270111   74.928833    -56.741497
-85.099358   75.371246    -56.777592
-84.927948   75.815659    -56.812378
-84.711494   76.412354    -56.715694
-84.494667   77.010239    -56.618538
-84.308624   77.503929    -56.611954
-84.138077   77.944847    -56.651234
-83.945122   78.461700    -56.625282
-83.706955   79.131157    -56.468456
-83.513237   79.650276    -56.441589
-83.348068   80.072624    -56.498199
-83.166115   80.551598    -56.506565
-82.932587   81.204491    -56.365810
-82.705711   81.835152    -56.244900
-82.547066   82.235184    -56.322231
-82.390045   82.629433    -56.404625
-82.155861   83.284134    -56.264477
-81.919464   83.946342    -56.118511
-81.734535   84.434326    -56.121986
-81.566231   84.866310    -56.173668
-81.372467   85.383957    -56.152542
-81.122520   86.091011    -55.970169
-80.922142   86.630783    -55.931126
-80.754059   87.061386    -55.985439
-80.564568   87.564293    -55.978554
-80.324211   88.238426    -55.826496
-80.110390   88.822929    -55.751175
-79.925385   89.310112    -55.758930
-79.737839   89.805832    -55.759811
-79.522827   90.394028    -55.682709
-79.302383   91.000214    -55.590839
-79.128212   91.450188    -55.631607
-78.946228   91.926773    -55.650265
-78.726021   92.531738    -55.560787
-78.495659   93.170815    -55.443027
-78.312828   93.649689    -55.460960
-78.141365   94.090256    -55.511646
-77.926384   94.677200    -55.439240
-77.680435   95.367790    -55.280045
-77.468491   95.944115    -55.217720
-77.299484   96.376045    -55.277084
-77.116180   96.855759    -55.296600
-76.856529   97.591972    -55.101368
-76.655418   98.131317    -55.071747
-76.470909   98.614601    -55.089462
-76.285019   99.102631    -55.103607
-76.049202   99.757988    -54.978245
-75.818314   100.396652    -54.867287
-75.650536   100.823463    -54.933952
-75.475395   101.274841    -54.980270
-75.223259   101.984398    -54.811699
-75.001617   102.591446    -54.729187
-74.820671   103.061867    -54.760818
-74.657890   103.471436    -54.843559
-74.467064   103.974884    -54.848488
-74.192078   104.760040    -54.619728
-73.979134   105.337105    -54.564323
-73.799736   105.801834    -54.602715
-73.617851   106.274704    -54.634666
-73.377327   106.943771    -54.504440
-73.153282   107.557732    -54.420429
-72.967300   108.043983    -54.442528
-72.783630   108.522331    -54.471504
-72.539207   109.203758    -54.333107
-72.311775   109.828293    -54.242142
-72.145241   110.249123    -54.319782
-71.959999   110.732193    -54.346512
-71.726494   111.376389    -54.240639
-71.495956   112.010666    -54.143642
-71.304459   112.514450    -54.154469
-71.125412   112.976425    -54.199982
-70.917587   113.534378    -54.167030
-70.670265   114.224159    -54.026421
-70.462761   114.780602    -53.995762
-70.271988   115.281197    -54.011166
-70.065231   115.835220    -53.983238
-69.815666   116.531693    -53.839355
-69.586678   117.159340    -53.752193
-69.410461   117.611015    -53.809223
-69.224991   118.093239    -53.841732
-68.965065   118.823761    -53.672081
-68.734207   119.456886    -53.582497
-68.566200   119.880959    -53.663517
-68.394867   120.315529    -53.736328
-68.150459   120.993584    -53.611443
-67.889824   121.725426    -53.443581
-67.690887   122.251831    -53.443073
-67.514702   122.702126    -53.504505
-67.264137   123.400215    -53.365818
-67.013649   124.097481    -53.228188
-66.819801   124.606400    -53.243530
-66.631844   125.095558    -53.275211
-66.420067   125.663734    -53.243286
-66.174873   126.342888    -53.122341
-65.967613   126.895737    -53.103844
-65.802307   127.309105    -53.198162
-65.594795   127.862579    -53.179901
-65.312202   128.665390    -52.961456
-65.106255   129.213196    -52.948727
-64.938339   129.634949    -53.037724
-64.764435   130.076279    -53.111347
-64.550446   130.650681    -53.078400
-64.313202   131.301834    -52.984341
-64.140953   131.737473    -53.063465
-63.966351   132.180756    -53.136860
-63.732021   132.822144    -53.051987
-63.503868   133.442734    -52.984261
-63.310810   133.946976    -53.010056
-63.138142   134.383545    -53.090240
-62.947308   134.880051    -53.122860
-62.686951   135.606918    -52.972195
-62.465698   136.203812    -52.925720
-62.294788   136.634216    -53.012032
-62.104916   137.127075    -53.049084
-61.883518   137.724197    -53.003666
-61.650372   138.360107    -52.927818
-61.475071   138.804382    -53.004543
-61.298927   139.251282    -53.079464
-61.061981   139.899399    -52.995384
-60.811802   140.591202    -52.877438
-60.621197   141.085648    -52.915894
-60.446243   141.528320    -52.995590
-60.221668   142.134735    -52.946308
-59.980820   142.795197    -52.854897
-59.775879   143.336517    -52.857887
-59.596619   143.792831    -52.928211
-59.389874   144.340225    -52.927208
-59.122074   145.088867    -52.768501
-58.909786   145.653946    -52.754601
-58.741646   146.073425    -52.855328
-115.123940   -3.096341    -56.672337
-114.985764   -2.748636    -56.741592
-114.848480   -2.403919    -56.814171
-114.709496   -2.053444    -56.881290
-114.557091   -1.655559    -56.902012
-114.389091   -1.202678    -56.868866
-114.236908   -0.805838    -56.891266
-114.102020   -0.469991    -56.973843
-113.952385   -0.082301    -57.005775
-113.787605   0.358655    -56.985790
-113.641556   0.733478    -57.030933
-113.505539   1.072890    -57.111008
-113.358650   1.450517    -57.153927
-113.215202   1.816000    -57.208874
-113.061958   2.215744    -57.230721
-112.912849   2.601030    -57.266998
-112.769623   2.965241    -57.324085
-112.616058   3.365998    -57.345722
-112.467758   3.748107    -57.385929
-112.314232   4.148432    -57.408691
-112.167702   4.524208    -57.455639
-112.022186   4.895987    -57.506577
-111.877029   5.266588    -57.559059
-111.727272   5.653469    -57.596031
-111.573189   6.055275    -57.618801
-111.427971   6.425807    -57.672039
-111.280952   6.802674    -57.719658
-111.140221   7.157299    -57.788925
-110.992027   7.538135    -57.833107
-110.838272   7.938293    -57.858898
-110.693733   8.305889    -57.916264
-110.550903   8.667728    -57.979595
-110.405281   9.038997    -58.034054
-110.259392   9.411423    -58.087696
-110.105003   9.813237    -58.113159
-109.935532   10.267971    -58.088322
-109.777657   10.681885    -58.102940
-109.629135   11.063155    -58.149235
-109.476448   11.458415    -58.182205
-109.311996   11.895027    -58.175983
-109.153641   12.310409    -58.190464
-109.004539   12.693254    -58.236404
-108.853912   13.081015    -58.277866
-108.686447   13.527858    -58.263191
-108.513573   13.993357    -58.231049
-108.349930   14.426408    -58.230251
-108.199471   14.813568    -58.273582
-108.038780   15.236032    -58.283390
-107.863045   15.711060    -58.243740
-107.692413   16.168314    -58.221306
-107.537270   16.571115    -58.250973
-107.395485   16.927254    -58.325146
-107.229851   17.366541    -58.320755
-107.043282   17.878904    -58.247543
-106.869400   18.346773    -58.216812
-106.726166   18.707499    -58.287807
-106.587898   19.051081    -58.375408
-106.413475   19.520269    -58.344414
-106.239014   19.989775    -58.313663
-106.088051   20.377405    -58.360497
-105.952209   20.711750    -58.457699
-105.808052   21.075462    -58.527592
-105.638924   21.525738    -58.516258
-105.467010   21.985823    -58.495956
-105.312706   22.384338    -58.533798
-105.160294   22.776075    -58.578541
-104.999107   23.198561    -58.594593
-104.824669   23.666845    -58.567963
-104.654785   24.118969    -58.556839
-104.505898   24.498209    -58.614418
-104.350380   24.900383    -58.650768
-104.173012   25.378410    -58.616562
-103.991699   25.870005    -58.569939
-103.828461   26.298717    -58.582363
-103.675285   26.692217    -58.628220
-103.509239   27.130503    -58.632469
-103.326294   27.627283    -58.582531
-103.150383   28.099504    -58.556007
-102.984589   28.536259    -58.562599
-102.825958   28.948357    -58.592632
-102.647957   29.427410    -58.560844
-102.448715   29.980114    -58.460938
-102.276947   30.437010    -58.450390
-102.130310   30.807112    -58.520752
-101.967896   31.231752    -58.540932
-101.772438   31.770716    -58.455441
-101.586952   32.274990    -58.402527
-101.425797   32.694595    -58.428284
-101.266464   33.108147    -58.459991
-101.084549   33.599590    -58.420193
-100.887360   34.143829    -58.331982
-100.711113   34.615482    -58.311295
-100.550003   35.034363    -58.339306
-100.380089   35.483841    -58.339741
-100.191406   35.998066    -58.280857
-99.998436   36.527042    -58.208981
-99.832710   36.961723    -58.224159
-99.676285   37.363949    -58.269165
-99.505165   37.817089    -58.268059
-99.321594   38.312794    -58.228142
-99.158730   38.737240    -58.254040
-99.005791   39.127052    -58.311649
-98.833633   39.583233    -58.309128
-98.643585   40.101048    -58.250645
-98.470306   40.560886    -58.245411
-98.315147   40.958145    -58.297749
-98.151222   41.385281    -58.322956
-97.974312   41.857346    -58.307606
-97.778084   42.395649    -58.232441
-97.603676   42.858810    -58.225979
-97.445564   43.265709    -58.271126
-97.268456   43.737877    -58.257286
-97.072716   44.273853    -58.185753
-96.888046   44.771797    -58.149208
-96.735374   45.159618    -58.212986
-96.574524   45.575283    -58.251789
-96.384979   46.089539    -58.201569
-96.190002   46.622303    -58.135025
-96.017578   47.077526    -58.139133
-95.854057   47.502010    -58.171341
-95.671265   47.992603    -58.144215
-95.469795   48.547287    -58.059608
-95.280884   49.058453    -58.014629
-95.114365   49.492702    -58.039452
-94.939941   49.954082    -58.040207
-94.739426   50.504826    -57.960999
-94.546539   51.029259    -57.905899
-94.375893   51.477177    -57.919880
-94.221794   51.868252    -57.984901
-94.028549   52.393494    -57.930248
-93.821404   52.966316    -57.833439
-93.634758   53.468822    -57.800045
-93.475220   53.878117    -57.850368
-93.292877   54.365356    -57.831188
-93.085686   54.937637    -57.736645
-92.894211   55.455971    -57.690720
-92.728188   55.887066    -57.722973
-92.555260   56.341698    -57.734577
-92.342316   56.933266    -57.624672
-92.141632   57.482403    -57.552845
-91.969948   57.932457    -57.569698
-91.815788   58.322399    -57.640247
-91.625687   58.835190    -57.602062
-91.403351   59.457783    -57.466927
-91.209839   59.982178    -57.419392
-91.045769   60.405239    -57.461906
-90.875916   60.848370    -57.487026
-90.653671   61.470112    -57.354584
-90.450142   62.028027    -57.279095
-90.284645   62.455757    -57.318958
-90.117325   62.889698    -57.353649
-89.925438   63.407070    -57.315075
-89.719673   63.972050    -57.235069
-89.532486   64.473404    -57.211506
-89.363853   64.911247    -57.244179
-89.160332   65.468208    -57.172539
-88.946419   66.060036    -57.070843
-88.771347   66.519638    -57.085560
-88.605896   66.946198    -57.129417
-88.425110   67.424919    -57.128155
-88.203163   68.043533    -57.004684
-87.985191   68.648849    -56.893425
-87.823608   69.061737    -56.950966
-87.661041   69.478134    -57.005619
-87.455536   70.040237    -56.933380
-87.214775   70.721939    -56.757275
-87.028702   71.217995    -56.743645
-86.882683   71.577370    -56.849480
-86.706192   72.040596    -56.865089
-86.462273   72.732529    -56.682301
-86.279419   73.216835    -56.680397
-86.120613   73.619598    -56.749790
-85.943336   74.084549    -56.765194
-85.712677   74.730980    -56.623947
-85.504662   75.300278    -56.549953
-85.328445   75.761459    -56.570122
-85.145157   76.246490    -56.570004
-84.919930   76.873810    -56.447186
-84.713821   77.436020    -56.381256
-84.541451   77.883850    -56.414371
-84.374413   78.313072    -56.463772
-84.154823   78.920654    -56.360001
-83.927063   79.555595    -56.233189
-83.733513   80.074715    -56.206467
-83.579170   80.460869    -56.294556
-83.392776   80.955231    -56.289925
-83.142822   81.664841    -56.100945
-82.933960   82.235054    -56.032043
-82.775650   82.634079    -56.110432
-82.606178   83.070686    -56.156727
-82.369865   83.733337    -56.010071
-82.143753   84.361511    -55.893501
-81.968254   84.818275    -55.923916
-81.796722   85.261360    -55.966312
-81.575020   85.874046    -55.864353
-81.328033   86.571922    -55.690170
-81.145897   87.050644    -55.703434
-80.983772   87.461716    -55.774624
-80.782204   88.005608    -55.732929
-80.545403   88.668243    -55.591034
-80.338860   89.228935    -55.536213
-80.161476   89.690971    -55.565548
-79.974693   90.184563    -55.568455
-79.742538   90.831062    -55.442169
-79.535004   91.394363    -55.386890
-79.356133   91.860939    -55.413902
-79.161591   92.380211    -55.396698
-78.937119   93.000206    -55.294937
-78.721115   93.591629    -55.217705
-78.544991   94.048218    -55.254662
-78.374229   94.486732    -55.307011
-78.145020   95.122063    -55.194206
-77.900177   95.809822    -55.037704
-77.708214   96.319633    -55.031467
-77.539116   96.752083    -55.090702
-77.334732   97.303276    -55.050426
-77.087845   97.997314    -54.890869
-76.884186   98.545692    -54.853909
-76.700844   99.025696    -54.874786
-76.523880   99.484100    -54.913963
-76.278870   100.171120    -54.762363
-76.054359   100.789162    -54.668915
-75.888405   101.209923    -54.740822
-75.690338   101.738998    -54.722542
-75.439995   102.443245    -54.558689
-75.228355   103.017197    -54.503860
-75.057144   103.455353    -54.562592
-74.902885   103.836647    -54.669067
-74.671761   104.475777    -54.561405
-74.415672   105.198448    -54.384769
-74.219177   105.721031    -54.374989
-74.037987   106.192085    -54.408329
-73.839920   106.719704    -54.395130
-73.608185   107.360214    -54.288857
-73.396881   107.931931    -54.240032
-73.212273   108.413956    -54.265701
-73.009666   108.956261    -54.242043
-72.764351   109.641434    -54.100834
-72.540749   110.253700    -54.020374
-72.376251   110.668198    -54.103481
-72.191391   111.150414    -54.131142
-71.936752   111.866104    -53.966854
-71.725204   112.437454    -53.921921
-71.534805   112.938095    -53.935574
-71.362946   113.376343    -54.000801
-71.135223   114.001656    -53.912838
-70.894714   114.669258    -53.790680
-70.698120   115.189903    -53.789635
-70.511559   115.676933    -53.816376
-70.305244   116.229866    -53.789551
-70.044601   116.964325    -53.614895
-69.839127   117.514015    -53.591663
-69.656525   117.987228    -53.631283
-69.456413   118.519005    -53.623600
-69.196159   119.251236    -53.452816
-68.983063   119.826080    -53.410992
-68.816261   120.246071    -53.495472
-68.647072   120.674019    -53.573883
-68.376175   121.441132    -53.376980
-68.115623   122.173721    -53.208694
-67.937798   122.629913    -53.265373
-67.754814   123.103447    -53.308308
-67.481285   123.878578    -53.107143
-67.245399   124.528160    -53.008430
-67.064613   124.993996    -53.058861
-66.879662   125.473373    -53.098637
-66.663338   126.057404    -53.054256
-66.412994   126.754486    -52.918976
-66.214302   127.279327    -52.923298
-66.048447   127.694832    -53.016083
-65.826080   128.298447    -52.957699
-65.577171   128.990051    -52.828991
-65.371284   129.538162    -52.816315
-65.199486   129.973007    -52.894928
-65.022659   130.424515    -52.960442
-64.792953   131.051743    -52.885330
-64.570496   131.654877    -52.830219
-64.397964   132.091599    -52.908752
-64.238571   132.484726    -53.022331
-63.995403   133.156052    -52.913696
-63.758659   133.805878    -52.822918
-63.575146   134.278793    -52.873795
-63.410202   134.689987    -52.974205
-63.225475   135.166718    -53.022747
-62.967762   135.885605    -52.878616
-62.741737   136.499130    -52.819065
-62.564556   136.950455    -52.888985
-62.371567   137.454163    -52.917469
-62.139343   138.087769    -52.843258
-61.930172   138.645020    -52.830334
-61.753887   139.092865    -52.904377
-61.570908   139.562958    -52.960945
-61.299873   140.324860    -52.786991
-61.069389   140.952011    -52.720253
-60.879250   141.445404    -52.759739
-60.714283   141.855209    -52.865547
-60.500458   142.426788    -52.843956
-60.243271   143.142029    -52.709522
-60.036076   143.691422    -52.706535
-59.862595   144.129013    -52.791782
-59.648857   144.699768    -52.772659
-59.384087   145.439423    -52.621098
-116.076057   -4.777919    -56.820332
-115.929626   -4.399923    -56.858597
-115.796448   -4.069235    -56.943733
-115.635216   -3.639220    -56.931149
-115.479050   -3.226948    -56.936451
-115.333366   -2.852054    -56.978909
-115.184471   -2.466154    -57.010647
-115.041557   -2.101266    -57.063499
-114.903648   -1.754261    -57.134186
-114.745224   -1.334599    -57.133724
-114.593361   -0.938531    -57.156609
-114.448166   -0.565932    -57.202969
-114.297852   -0.175306    -57.231922
-114.127861   0.284551    -57.193310
-113.979935   0.666438    -57.231327
-113.849121   0.987841    -57.328922
-113.699844   1.374323    -57.363201
-113.548752   1.767277    -57.391338
-113.392853   2.176744    -57.403492
-113.246941   2.551144    -57.450321
-113.106110   2.907413    -57.515076
-112.952362   3.309339    -57.535622
-112.803230   3.694524    -57.572605
-112.651894   4.087654    -57.602295
-112.500290   4.481681    -57.631413
-112.350807   4.868026    -57.668270
-112.212578   5.214751    -57.743870
-112.069069   5.579822    -57.801769
-111.906586   6.011573    -57.795422
-111.747513   6.431492    -57.800915
-111.598267   6.816526    -57.840469
-111.449776   7.198664    -57.883076
-111.296211   7.598815    -57.908592
-111.142128   8.000474    -57.932930
-110.986031   8.409274    -57.950695
-110.836327   8.795362    -57.990532
-110.695816   9.149241    -58.061806
-110.550644   9.519398    -58.117661
-110.383224   9.967433    -58.098839
-110.210152   10.435290    -58.061348
-110.052345   10.849323    -58.075932
-109.905144   11.226242    -58.126469
-109.753716   11.617751    -58.163265
-109.580414   12.085727    -58.126938
-109.413338   12.531960    -58.111969
-109.266083   12.908614    -58.163933
-109.115410   13.297202    -58.204880
-108.937134   13.782187    -58.153748
-108.758804   14.267294    -58.103043
-108.595490   14.699688    -58.103046
-108.453964   15.055899    -58.176025
-108.297569   15.463874    -58.199913
-108.109741   15.981691    -58.119549
-107.927849   16.478571    -58.059563
-107.780441   16.854931    -58.114574
-107.637169   17.216652    -58.183731
-107.466614   17.673368    -58.162830
-107.282249   18.178612    -58.096569
-107.110809   18.638344    -58.073738
-106.973091   18.980326    -58.162785
-106.823479   19.363585    -58.212841
-106.643127   19.854095    -58.162022
-106.474609   20.303322    -58.150517
-106.328300   20.674994    -58.212593
-106.196144   20.996964    -58.321777
-106.050873   21.364534    -58.388142
-105.871368   21.851589    -58.342236
-105.701515   22.304932    -58.328480
-105.550835   22.691235    -58.378136
-105.403603   23.065168    -58.439644
-105.237679   23.504519    -58.440025
-105.059967   23.984711    -58.402409
-104.892799   24.428040    -58.399883
-104.743736   24.808247    -58.456734
-104.586365   25.217159    -58.486816
-104.407814   25.699665    -58.448601
-104.229660   26.180817    -58.411957
-104.065948   26.611618    -58.422745
-103.909981   27.015316    -58.459145
-103.740425   27.465927    -58.452065
-103.553741   27.976307    -58.389668
-103.382469   28.432920    -58.377907
-103.216721   28.870098    -58.384457
-103.056839   29.286682    -58.410477
-102.870514   29.795296    -58.351322
-102.670822   30.350037    -58.249763
-102.517372   30.743933    -58.298050
-102.366333   31.129646    -58.354107
-102.194778   31.586136    -58.344807
-101.998917   32.127098    -58.257706
-101.817345   32.618382    -58.217167
-101.654610   33.044006    -58.237587
-101.496223   33.454357    -58.272415
-101.309692   33.962471    -58.217342
-101.106758   34.527245    -58.110561
-100.937462   34.975239    -58.111786
-100.778625   35.386879    -58.146969
-100.603020   35.856377    -58.128925
-100.403816   36.407467    -58.036491
-100.218018   36.912151    -57.987080
-100.054108   37.340908    -58.007927
-99.901924   37.729012    -58.066277
-99.725761   38.199780    -58.049065
-99.541359   38.699196    -58.006020
-99.385651   39.098942    -58.054729
-99.235970   39.478191    -58.122509
-99.059219   39.950722    -58.105129
-98.868629   40.470547    -58.044872
-98.703224   40.903595    -58.064312
-98.548340   41.300289    -58.117363
-98.385025   41.725891    -58.144329
-98.197433   42.235191    -58.095264
-98.005646   42.758823    -58.033562
-97.839714   43.192936    -58.053833
-97.682953   43.595680    -58.102837
-97.498291   44.094391    -58.065102
-97.298920   44.643646    -57.981911
-97.118263   45.127987    -57.957882
-96.967094   45.510883    -58.026192
-96.796280   45.961395    -58.033665
-96.609047   46.468300    -57.990471
-96.418510   46.986328    -57.937630
-96.244263   47.448151    -57.935722
-96.081429   47.870636    -57.969948
-95.890472   48.389877    -57.917221
-95.679001   48.979347    -57.801624
-95.503647   49.444580    -57.798443
-95.346672   49.846569    -57.852421
-95.172615   50.306858    -57.854195
-94.973106   50.854809    -57.777733
-94.768051   51.421589    -57.684834
-94.602524   51.852383    -57.714417
-94.442802   52.263317    -57.762131
-94.242599   52.812813    -57.685837
-94.036964   53.381042    -57.593414
-93.865074   53.833313    -57.605083
-93.706093   54.241180    -57.656898
-93.514709   54.759968    -57.609917
-93.299942   55.358864    -57.491879
-93.116066   55.851559    -57.468925
-92.955811   56.263390    -57.518593
-92.773705   56.749943    -57.501999
-92.563026   57.334248    -57.398815
-92.369759   57.858719    -57.349331
-92.204910   58.285923    -57.386719
-92.042580   58.703922    -57.432507
-91.834465   59.278748    -57.339516
-91.621254   59.871101    -57.231514
-91.440842   60.350807    -57.223778
-91.279678   60.764774    -57.274624
-91.090828   61.273251    -57.242161
-90.870056   61.890541    -57.113777
-90.667542   62.445412    -57.041229
-90.513687   62.833851    -57.116138
-90.343086   63.279278    -57.140911
-90.140236   63.834888    -57.068939
-89.939980   64.381729    -57.005180
-89.771011   64.821144    -57.036343
-89.593307   65.290321    -57.041634
-89.377312   65.890198    -56.932510
-89.176651   66.437683    -56.869911
-89.004204   66.888733    -56.892349
-88.837181   67.320984    -56.931690
-88.659218   67.790733    -56.938412
-88.419518   68.470589    -56.761436
-88.219826   69.014091    -56.704617
-88.060349   69.420174    -56.768177
-87.884354   69.882408    -56.783104
-87.661720   70.503746    -56.659466
-87.436668   71.132996    -56.529469
-87.265205   71.579552    -56.559307
-87.117424   71.945221    -56.659576
-86.925949   72.459534    -56.631050
-86.689865   73.125900    -56.470680
-86.506233   73.613251    -56.466480
-86.354576   73.992012    -56.556801
-86.158356   74.521904    -56.516380
-85.934547   75.145859    -56.394794
-85.732185   75.696442    -56.337376
-85.555603   76.159286    -56.356060
-85.360817   76.683846    -56.321999
-85.140945   77.293663    -56.214714
-84.943909   77.825645    -56.175018
-84.770103   78.278717    -56.203953
-84.597214   78.728256    -56.236221
-84.373802   79.349586    -56.120766
-84.155136   79.954338    -56.020214
-83.974129   80.431236    -56.029995
-83.811371   80.846115    -56.093575
-83.601326   81.421265    -56.019676
-83.367607   82.076637    -55.877560
-83.174835   82.593117    -55.855129
-83.014687   82.998436    -55.928295
-82.837776   83.460899    -55.952835
-82.573570   84.219086    -55.724613
-82.361969   84.798431    -55.650063
-82.195290   85.225525    -55.705891
-82.021652   85.676231    -55.742027
-81.786224   86.336082    -55.600101
-81.553810   86.985527    -55.467644
-81.374397   87.455399    -55.488670
-81.208626   87.878937    -55.549458
-81.002594   88.438721    -55.494678
-80.765221   89.104301    -55.350483
-80.564453   89.646004    -55.312038
-80.392593   90.089737    -55.357140
-80.192032   90.630081    -55.320457
-79.966469   91.255074    -55.212807
-79.768600   91.786285    -55.184944
-79.587196   92.261894    -55.204540
-79.383759   92.811684    -55.161777
-79.157639   93.437889    -55.054920
-78.957687   93.975586    -55.023407
-78.781944   94.431480    -55.061172
-78.594673   94.926285    -55.066486
-78.361435   95.575829    -54.941994
-78.129570   96.220711    -54.821865
-77.946953   96.699280    -54.842113
-77.775314   97.140594    -54.893944
-77.554710   97.747002    -54.807549
-77.314728   98.418465    -54.667091
-77.116196   98.950188    -54.644470
-76.936256   99.419037    -54.674782
-76.743881   99.929764    -54.670509
-76.498459   100.618958    -54.517269
-76.290878   101.180634    -54.471317
-76.117012   101.628662    -54.520687
-75.910820   102.185326    -54.479607
-75.676804   102.835526    -54.361115
-75.464462   103.412651    -54.303944
-75.300842   103.825768    -54.383873
-75.122482   104.288185    -54.423035
-74.883232   104.955353    -54.292358
-74.647446   105.610725    -54.171940
-74.459503   106.104988    -54.185883
-74.278908   106.574532    -54.220703
-74.062019   107.165817    -54.154961
-73.830032   107.807808    -54.047573
-73.630234   108.341415    -54.030422
-73.458267   108.781372    -54.091209
-73.242821   109.367348    -54.031689
-72.991776   110.072708    -53.874104
-72.792236   110.604843    -53.859993
-72.621384   111.040741    -53.925613
-72.419373   111.580956    -53.905605
-72.178940   112.250084    -53.780060
-71.958946   112.850372    -53.711559
-71.778069   113.319290    -53.751484
-71.602844   113.769188    -53.807350
-71.347862   114.486465    -53.644169
-71.111801   115.139969    -53.533890
-70.927162   115.621124    -53.565472
-70.747482   116.085449    -53.611027
-70.528999   116.679695    -53.550652
-70.280525   117.374146    -53.408966
-70.076630   117.919189    -53.389786
-69.904678   118.357399    -53.458206
-69.707748   118.878860    -53.459129
-69.435707   119.651436    -53.255714
-69.235275   120.184380    -53.248219
-69.072136   120.592552    -53.342506
-68.865021   121.147606    -53.317760
-68.616257   121.841682    -53.180508
-68.365868   122.541016    -53.039467
-68.185852   123.005150    -53.089916
-67.978813   123.559425    -53.067616
-67.726196   124.265526    -52.922646
-67.496567   124.895004    -52.840443
-67.312218   125.373108    -52.881142
-67.121864   125.870842    -52.906277
-66.895180   126.490097    -52.833698
-66.656807   127.147980    -52.730434
-66.469597   127.635254    -52.765446
-66.306099   128.043137    -52.864540
-66.072510   128.684738    -52.775784
-65.843811   129.309921    -52.700756
-65.648819   129.822388    -52.716785
-65.471802   130.274948    -52.781307
-65.295929   130.723618    -52.849247
-65.054245   131.391327    -52.741837
-64.831436   131.996109    -52.685410
-64.677208   132.372360    -52.812534
-64.503273   132.814163    -52.887287
-64.267563   133.461548    -52.798016
-64.018532   134.152756    -52.674351
-63.839836   134.610031    -52.737877
-63.683788   134.991959    -52.861908
-63.492481   135.491043    -52.892673
-63.239975   136.193512    -52.762119
-63.006699   136.831818    -52.682919
-62.841671   137.243118    -52.784832
-62.647415   137.751663    -52.809746
-62.405746   138.417435    -52.710068
-62.205654   138.944855    -52.720791
-62.041931   139.351395    -52.827713
-61.825047   139.934387    -52.795109
-61.552414   140.702271    -52.616634
-61.325455   141.318420    -52.558823
-61.155407   141.745819    -52.650845
-60.996849   142.134750    -52.773285
-60.767750   142.757568    -52.711418
-60.498470   143.513565    -52.545048
-60.299782   144.035309    -52.563866
-60.127068   144.470749    -52.650970
-59.882389   145.144592    -52.550838
-117.032097   -6.479448    -56.993778
-116.889778   -6.115262    -57.044437
-116.758881   -5.791825    -57.135719
-116.601295   -5.373897    -57.133522
-116.433220   -4.918574    -57.094818
-116.276825   -4.504894    -57.097652
-116.151825   -4.202777    -57.211010
-115.980858   -3.737601    -57.163486
-115.820221   -3.309120    -57.152683
-115.685867   -2.974008    -57.234238
-115.539131   -2.595119    -57.272892
-115.382904   -2.182879    -57.278862
-115.244469   -1.833580    -57.347195
-115.095428   -1.446508    -57.378670
-114.939293   -1.034712    -57.386131
-114.798477   -0.677466    -57.447292
-114.644402   -0.273116    -57.462666
-114.472206   0.195194    -57.415684
-114.320190   0.592223    -57.438923
-114.181953   0.940058    -57.510410
-114.042488   1.292191    -57.578060
-113.893005   1.679894    -57.611351
-113.731453   2.109977    -57.603416
-113.572296   2.531390    -57.604156
-113.421211   2.924230    -57.633217
-113.266647   3.329641    -57.650360
-113.116211   3.719929    -57.682480
-112.965202   4.112376    -57.712822
-112.801445   4.549614    -57.699795
-112.639114   4.981639    -57.692310
-112.495995   5.345922    -57.750908
-112.353996   5.706203    -57.813641
-112.190727   6.141021    -57.804245
-112.022415   6.594030    -57.777767
-111.866341   7.003500    -57.793758
-111.720833   7.375495    -57.846390
-111.567993   7.773432    -57.874001
-111.410484   8.187615    -57.886349
-111.249199   8.614948    -57.886330
-111.101570   8.994324    -57.932888
-110.962303   9.343804    -58.008335
-110.812485   9.730771    -58.048111
-110.638763   10.201556    -58.007557
-110.464645   10.673623    -57.966293
-110.313629   11.064070    -58.003517
-110.167412   11.437881    -58.057152
-110.015297   11.832139    -58.091419
-109.830772   12.340265    -58.016907
-109.658791   12.804062    -57.985142
-109.514275   13.171333    -58.046223
-109.366699   13.549364    -58.097404
-109.186028   14.043547    -58.037800
-109.001389   14.551342    -57.965611
-108.839096   14.980698    -57.968567
-108.695900   15.342821    -58.036037
-108.537262   15.759159    -58.052143
-108.340500   16.308840    -57.941776
-108.165627   16.781698    -57.904728
-108.016594   17.163908    -57.954330
-107.865791   17.552362    -57.998291
-107.684822   18.046164    -57.942558
-107.505859   18.532883    -57.893967
-107.351700   18.932453    -57.928329
-107.213402   19.276785    -58.015324
-107.058372   19.679531    -58.047264
-106.870499   20.196865    -57.971294
-106.708138   20.624811    -57.979954
-106.567406   20.976973    -58.060589
-106.430588   21.315687    -58.154167
-106.274773   21.720737    -58.185555
-106.100021   22.191322    -58.155224
-105.941887   22.604200    -58.179756
-105.794327   22.980072    -58.239521
-105.645950   23.358438    -58.297047
-105.473030   23.822676    -58.274242
-105.290627   24.319584    -58.220997
-105.128197   24.746683    -58.233875
-104.980438   25.122778    -58.294765
-104.823555   25.530535    -58.326271
-104.641052   26.027208    -58.274857
-104.461258   26.514528    -58.232647
-104.296280   26.950163    -58.239124
-104.142265   27.347359    -58.281921
-103.965744   27.822979    -58.251751
-103.784187   28.315737    -58.205967
-103.613304   28.771452    -58.195126
-103.445488   29.216381    -58.194687
-103.285477   29.633837    -58.220242
-103.096031   30.153639    -58.150761
-102.912270   30.653597    -58.100422
-102.754753   31.062220    -58.135120
-102.596664   31.472778    -58.168331
-102.424583   31.931620    -58.157204
-102.225670   32.483608    -58.059975
-102.042442   32.981075    -58.013931
-101.879715   33.407265    -58.034069
-101.722946   33.812630    -58.073879
-101.522713   34.368515    -57.974918
-101.325584   34.913551    -57.886456
-101.162628   35.340042    -57.907745
-101.002869   35.755188    -57.939903
-100.820961   36.247269    -57.901478
-100.621338   36.800449    -57.807384
-100.436211   37.303055    -57.759972
-100.279488   37.707298    -57.803558
-100.120369   38.119728    -57.839802
-99.942291   38.597904    -57.816204
-99.767990   39.062595    -57.805325
-99.615738   39.450855    -57.864510
-99.464966   39.833893    -57.928989
-99.282867   40.325539    -57.894379
-99.099258   40.822033    -57.855831
-98.936691   41.245724    -57.884148
-98.780418   41.647308    -57.932648
-98.603622   42.119751    -57.917118
-98.417274   42.625298    -57.871845
-98.228851   43.138012    -57.820362
-98.067169   43.557915    -57.853786
-97.906174   43.975285    -57.889660
-97.723648   44.467232    -57.858189
-97.513992   45.052532    -57.742542
-97.344337   45.499550    -57.752762
-97.190224   45.892895    -57.811935
-97.018097   46.348175    -57.815044
-96.823578   46.880772    -57.748859
-96.635559   47.390736    -57.703583
-96.467857   47.830711    -57.721939
-96.311859   48.229862    -57.777306
-96.106041   48.800720    -57.678112
-95.898170   49.378597    -57.573250
-95.726578   49.831360    -57.581551
-95.570808   50.229294    -57.639488
-95.397400   50.688065    -57.643032
-95.187851   51.271271    -57.535038
-94.995934   51.793129    -57.482548
-94.837341   52.200527    -57.533344
-94.672752   52.628433    -57.566036
-94.467827   53.195011    -57.474846
-94.266640   53.748665    -57.395729
-94.090782   54.214741    -57.395222
-93.929672   54.630169    -57.440487
-93.736450   55.155891    -57.387562
-93.516823   55.772198    -57.254265
-93.333771   56.262661    -57.233711
-93.175652   56.667305    -57.289993
-92.998169   57.138409    -57.287251
-92.788742   57.719067    -57.187561
-92.599808   58.229286    -57.151001
-92.434341   58.658695    -57.186615
-92.256355   59.131126    -57.184368
-92.054855   59.683941    -57.111179
-91.845764   60.262627    -57.015388
-91.674454   60.711700    -57.035027
-91.511932   61.130524    -57.081760
-91.314552   61.668846    -57.023144
-91.083168   62.323395    -56.862396
-90.900711   62.810009    -56.850372
-90.744133   63.207825    -56.916912
-90.560768   63.697620    -56.902813
-90.364029   64.232910    -56.849010
-90.165184   64.775177    -56.789616
-89.994736   65.220329    -56.815994
-89.814545   65.698555    -56.813606
-89.602814   66.284584    -56.716919
-89.401932   66.832993    -56.653687
-89.236694   67.259933    -56.697506
-89.063728   67.713028    -56.718693
-88.872093   68.229713    -56.684639
-88.642509   68.876015    -56.537491
-88.456207   69.374321    -56.520321
-88.292130   69.796440    -56.570198
-88.110008   70.280045    -56.566414
-87.861565   70.990105    -56.365643
-87.660088   71.539604    -56.305599
-87.498734   71.951988    -56.365303
-87.342407   72.347183    -56.440365
-87.163498   72.819229    -56.448715
-86.915512   73.526939    -56.252785
-86.746475   73.964859    -56.291454
-86.586601   74.371864    -56.357571
-86.378792   74.941917    -56.282459
-86.156189   75.562355    -56.164299
-85.959511   76.094185    -56.123264
-85.789421   76.535545    -56.161057
-85.587456   77.085037    -56.105663
-85.362213   77.713646    -55.982117
-85.168381   78.235252    -55.951756
-84.999298   78.672569    -55.994503
-84.830086   79.110336    -56.037052
-84.588249   79.794762    -55.867607
-84.368683   80.403503    -55.763935
-84.199684   80.839943    -55.808792
-84.033966   81.265228    -55.863659
-83.819962   81.854576    -55.777973
-83.598495   82.468674    -55.671360
-83.411133   82.967224    -55.664520
-83.254135   83.362610    -55.746315
-83.049690   83.918671    -55.690922
-82.789673   84.663467    -55.474586
-82.600563   85.167358    -55.464825
-82.431206   85.603920    -55.512924
-82.237900   86.121758    -55.491993
-82.001785   86.784737    -55.347706
-81.784271   87.384132    -55.257996
-81.606056   87.850426    -55.282295
-81.440125   88.274826    -55.342560
-81.210152   88.916176    -55.218678
-80.981300   89.553658    -55.098660
-80.793701   90.051308    -55.097889
-80.623299   90.490494    -55.147068
-80.416580   91.052650    -55.092339
-80.192955   91.671722    -54.989845
-80.003036   92.176514    -54.984592
-79.828491   92.629105    -55.023972
-79.612923   93.220444    -54.946152
-79.384102   93.856522    -54.831226
-79.189713   94.376060    -54.815174
-79.009087   94.848839    -54.839050
-78.812675   95.374954    -54.818222
-78.578560   96.028236    -54.690750
-78.349899   96.662773    -54.579720
-78.184502   97.083679    -54.648689
-78.004211   97.554741    -54.675804
-77.757851   98.248863    -54.516186
-77.536964   98.856674    -54.429432
-77.341522   99.378494    -54.415371
-77.174225   99.805176    -54.481239
-76.968941   100.359863    -54.440403
-76.725800   101.042038    -54.293133
-76.525124   101.580940    -54.266453
-76.346481   102.045319    -54.302265
-76.144089   102.589981    -54.271587
-75.914558   103.225655    -54.165455
-75.710075   103.776939    -54.130035
-75.536415   104.224152    -54.181770
-75.336739   104.758812    -54.161079
-75.101532   105.413071    -54.041317
-74.878929   106.024727    -53.957600
-74.701920   106.482613    -54.001961
-74.514061   106.977058    -54.016338
-74.281677   107.621269    -53.907017
-74.051598   108.257545    -53.804688
