# .PCD v.5 - Point Cloud Data file format
VERSION .5
FIELDS x y z
SIZE 4 4 4
TYPE F F F
COUNT 1 1 1
WIDTH 1286
HEIGHT1
POINTS 1286
DATA ascii
-53.006424   70.477127    -46.594170
-52.884598   71.022995    -46.572926
-52.775539   71.496597    -46.612373
-52.653053   72.045586    -46.589134
-52.512390   72.698021    -46.480186
-52.373730   73.338821    -46.381363
-52.261433   73.830070    -46.407784
-52.142422   74.359116    -46.403080
-51.975521   75.159401    -46.173157
-51.821854   75.884476    -46.006485
-51.705067   76.400406    -46.013863
-51.586533   76.926117    -46.013775
-51.430035   77.666779    -45.835850
-51.261093   78.477516    -45.600510
-51.124214   79.106544    -45.516357
-50.995632   79.688484    -45.471684
-50.834919   80.452133    -45.277264
-50.663639   81.275192    -45.034447
-50.533901   81.863014    -44.986378
-50.385132   82.558334    -44.850292
-50.202576   83.444443    -44.557568
-50.027298   84.289406    -44.299583
-49.896118   84.884827    -44.247696
-49.752583   85.549728    -44.139149
-49.542080   86.592773    -43.720512
-49.375843   87.385544    -43.508354
-49.239948   88.006424    -43.437737
-49.034710   89.018715    -43.046974
-48.807034   90.157234    -42.553951
-48.660114   90.839973    -42.434956
-48.489735   91.654846    -42.208492
-48.235470   92.942352    -41.596577
-46.796524   100.169662    -38.357994
-81.762642   -37.959255    20.872652
-81.699715   -37.741966    20.637402
-81.640450   -37.547096    20.377176
-81.582428   -37.360046    20.108131
-81.532967   -37.226593    19.779484
-79.882645   -35.750896    -2.503578
-79.839409   -35.651981    -2.857677
-79.794312   -35.541378    -3.199240
-79.746666   -35.414913    -3.523561
-79.695122   -35.264618    -3.822307
-79.642006   -35.104305    -4.110260
-79.586739   -34.930656    -4.383916
-79.537605   -34.794914    -4.698027
-79.490524   -34.672009    -5.025422
-79.445648   -34.562210    -5.366747
-79.397743   -34.433891    -5.688344
-79.348961   -34.300076    -6.003841
-79.293480   -34.125309    -6.275631
-79.237808   -33.949074    -6.546065
-79.185944   -33.796017    -6.840872
-79.134621   -33.646439    -7.139265
-79.085579   -33.510845    -7.452363
-79.035683   -33.370228    -7.760040
-78.980751   -33.198357    -8.034577
-78.921280   -32.998493    -8.279492
-78.865395   -32.820721    -8.547697
-78.811981   -32.658199    -8.831820
-78.761551   -32.513863    -9.135123
-78.709175   -32.357555    -9.425722
-78.654869   -32.189442    -9.703944
-78.599281   -32.013592    -9.973724
-78.541412   -31.823372    -10.228495
-78.487556   -31.657898    -10.509176
-78.432823   -31.487030    -10.784139
-78.381073   -31.334654    -11.078293
-78.326164   -31.162636    -11.351909
-78.268654   -30.974543    -11.608651
-78.205750   -30.753521    -11.830936
-78.143600   -30.537367    -12.058198
-78.086235   -30.350128    -12.315778
-78.031158   -30.177057    -12.588091
-77.980988   -30.033955    -12.891571
-77.924980   -29.855192    -13.157700
-77.866196   -29.659372    -13.406152
-77.798683   -29.410183    -13.599078
-77.722778   -29.109760    -13.738830
-77.652130   -28.841722    -13.912239
-77.593544   -28.647001    -14.161908
-77.529785   -28.420839    -14.378965
-77.463997   -28.182283    -14.583207
-77.399124   -27.949467    -14.793315
-77.339798   -27.750378    -15.038459
-77.279968   -27.548063    -15.280255
-77.221344   -27.353359    -15.529888
-77.159439   -27.138634    -15.758728
-77.096001   -26.914351    -15.977838
-77.027908   -26.661798    -16.167704
-76.969315   -26.466883    -16.417126
-76.910782   -26.272736    -16.667179
-76.854156   -26.089920    -16.928978
-76.792931   -25.879229    -17.162098
-76.729683   -25.656395    -17.382633
-76.659325   -25.390202    -17.558828
-76.592934   -25.148151    -17.759855
-76.532890   -24.944513    -18.000153
-76.473328   -24.744089    -18.243732
-76.412529   -24.535923    -18.479500
-76.346855   -24.298260    -18.685118
-76.277908   -24.040800    -18.870562
-76.209602   -23.787321    -19.060024
-76.145309   -23.558052    -19.274227
-76.084007   -23.346743    -19.506891
-76.019363   -23.115540    -19.719286
-75.951553   -22.865009    -19.911951
-75.881538   -22.600931    -20.091030
-75.814903   -22.357410    -20.290936
-75.753609   -22.146460    -20.524065
-75.688271   -21.911112    -20.732344
-75.620354   -21.659971    -20.924772
-75.547432   -21.378668    -21.086718
-75.471565   -21.079615    -21.230566
-75.401680   -20.816639    -21.411276
-75.334656   -20.571163    -21.609743
-75.270538   -20.342934    -21.825680
-75.205765   -20.111340    -22.038118
-75.138000   -19.861217    -22.231915
-75.070778   -19.614445    -22.429270
-75.007927   -19.394249    -22.653423
-74.945572   -19.176853    -22.880304
-74.876755   -18.920290    -23.067822
-74.801582   -18.625792    -23.217432
-74.720131   -18.293306    -23.329052
-74.645180   -18.000446    -23.480461
-74.575424   -17.738525    -23.662994
-74.508301   -17.492451    -23.861607
-74.438660   -17.231741    -24.045490
-74.367264   -16.960066    -24.218624
-74.293251   -16.672636    -24.375978
-74.222260   -16.403498    -24.551838
-74.152504   -16.141788    -24.735079
-74.088425   -15.914304    -24.952620
-74.019241   -15.656104    -25.139471
-73.944313   -15.363387    -25.292171
-73.864037   -15.038848    -25.413223
-73.786369   -14.729790    -25.549957
-73.716301   -14.466388    -25.732040
-73.647659   -14.211636    -25.922913
-73.575554   -13.936346    -26.093363
-73.498985   -13.634062    -26.237293
-73.422607   -13.332658    -26.382114
-73.350822   -13.059411    -26.554913
-73.281517   -12.800702    -26.742304
-73.210876   -12.534204    -26.922070
-73.135468   -12.239010    -27.073467
-73.055069   -11.914303    -27.195889
-72.979073   -11.615761    -27.344393
-72.907768   -11.345408    -27.520777
-72.838562   -11.087458    -27.709335
-72.767303   -10.817668    -27.886314
-72.690300   -10.513032    -28.029285
-72.612480   -10.203790    -28.167866
-72.537636   -9.912431    -28.324129
-72.466614   -9.644041    -28.502775
-72.394119   -9.366825    -28.673111
-72.319122   -9.074531    -28.828796
-72.237320   -8.741953    -28.945070
-72.157516   -8.421165    -29.073044
-72.085358   -8.145973    -29.245838
-72.015793   -7.886469    -29.434021
-71.942093   -7.602072    -29.597895
-71.861702   -7.277961    -29.723177
-71.783806   -6.968706    -29.863213
-71.706268   -6.661770    -30.005648
-71.634171   -6.387579    -30.179916
-71.561554   -6.109931    -30.351057
-71.481178   -5.786163    -30.477402
-71.399658   -5.455687    -30.597530
-71.320290   -5.138160    -30.730255
-71.247459   -4.859477    -30.900881
-71.174332   -4.579131    -31.069994
-71.100410   -4.293784    -31.234255
-71.017303   -3.954087    -31.346102
-70.934952   -3.619168    -31.462870
-70.861366   -3.336159    -31.629904
-70.791946   -3.078211    -31.821066
-70.715378   -2.777553    -31.971283
-70.632622   -2.440239    -32.086224
-70.549644   -2.101448    -32.200066
-70.468445   -1.773759    -32.324612
-70.392502   -1.477180    -32.479336
-70.316940   -1.182345    -32.635880
-70.240059   -0.880247    -32.785553
-70.155167   -0.530759    -32.889828
-70.071976   -0.191168    -33.003784
-69.993256   0.121638    -33.143665
-69.915756   0.427311    -33.290520
-69.837067   0.739928    -33.430748
-69.753021   1.084141    -33.541088
-69.665184   1.450787    -33.630219
-69.583984   1.778116    -33.757053
-69.506744   2.082067    -33.906059
-69.429581   2.385548    -34.055904
-69.345177   2.731745    -34.165257
-69.258263   3.092529    -34.260941
-69.177689   3.415826    -34.392300
-69.102592   3.706564    -34.554829
-69.028671   3.990628    -34.723808
-68.949615   4.304485    -34.864521
-68.866798   4.640894    -34.984177
-68.783730   4.978866    -35.102535
-68.704948   5.291537    -35.244991
-68.628326   5.590934    -35.399975
-68.548332   5.910430    -35.536255
-68.464348   6.253366    -35.650459
-68.378677   6.606237    -35.755611
-68.297760   6.930893    -35.887398
-68.221825   7.226353    -36.046947
-68.142181   7.543498    -36.186226
-68.056862   7.894025    -36.294292
-67.968964   8.259519    -36.388371
-67.885307   8.600083    -36.506184
-67.807129   8.908661    -36.654167
-67.728134   9.221684    -36.798111
-67.646080   9.552557    -36.925362
-67.552055   9.953977    -36.986946
-67.465179   10.313210    -37.088211
-67.388199   10.614257    -37.244015
-67.309166   10.926972    -37.388912
-67.223320   11.280071    -37.496571
-67.131416   11.668590    -37.571308
-67.041504   12.045301    -37.657280
-66.959282   12.376673    -37.785515
-66.881554   12.681671    -37.938564
-66.799477   13.012547    -38.067722
-66.708336   13.396211    -38.148052
-66.617882   13.775662    -38.232384
-66.533363   14.120271    -38.349369
-66.455627   14.425166    -38.503315
-66.369881   14.776841    -38.614105
-66.278252   15.162906    -38.693157
-66.184265   15.562696    -38.760033
-66.099648   15.907679    -38.877644
-66.019615   16.225716    -39.020287
-65.932159   16.587082    -39.123138
-65.839439   16.979109    -39.197823
-65.746719   17.371574    -39.272503
-65.661621   17.718817    -39.389126
-65.583664   18.024420    -39.544071
-65.497208   18.379457    -39.653614
-65.401588   18.788284    -39.714149
-65.303307   19.212421    -39.760918
-65.214523   19.581053    -39.858829
-65.131622   19.914968    -39.988705
-65.046448   20.262232    -40.106556
-64.954033   20.651901    -40.185841
-64.859543   21.053593    -40.254387
-64.776009   21.390873    -40.381950
-64.694969   21.713869    -40.522728
-64.604378   22.092676    -40.612812
-64.510597   22.490026    -40.686237
-64.415901   22.892084    -40.755600
-64.326904   23.261223    -40.855175
-64.243279   23.599070    -40.983395
-64.155983   23.958111    -41.092659
-64.056900   24.385832    -41.139713
-63.961639   24.790922    -41.207420
-63.872757   25.158937    -41.309231
-63.790909   25.485950    -41.448235
-63.702251   25.852560    -41.551590
-63.607082   26.256754    -41.621166
-63.508022   26.683641    -41.670536
-63.415829   27.070740    -41.756100
-63.332951   27.403345    -41.891140
-63.251213   27.729319    -42.032188
-63.151947   28.157198    -42.081654
-63.053066   28.582874    -42.133411
-62.958328   28.984200    -42.207333
-62.874352   29.322859    -42.337906
-62.783485   29.701429    -42.432568
-62.687893   30.107590    -42.502983
-62.589333   30.530634    -42.558399
-62.496418   30.920910    -42.643562
-62.410656   31.269527    -42.765957
-62.321835   31.636015    -42.872837
-62.222122   32.065407    -42.923599
-62.120560   32.505657    -42.965092
-62.027752   32.895073    -43.052101
-61.941559   33.245625    -43.173950
-61.853714   33.606110    -43.287167
-61.756218   34.022255    -43.351170
-61.655273   34.458775    -43.397217
-61.564671   34.834816    -43.497406
-61.475555   35.202080    -43.605453
-61.380325   35.604801    -43.682274
-61.281319   36.029251    -43.740211
-61.183628   36.446156    -43.804989
-61.088642   36.847065    -43.884167
-61.000847   37.206493    -44.000427
-60.908367   37.592873    -44.092941
-60.803055   38.053459    -44.120277
-60.700943   38.495438    -44.164364
-60.616924   38.832409    -44.301052
-60.532604   39.171391    -44.436409
-60.430218   39.614681    -44.480106
-60.322777   40.087090    -44.498371
-60.220985   40.526718    -44.545914
-60.128296   40.913364    -44.640125
-60.034645   41.305809    -44.729633
-59.924480   41.793785    -44.735489
-59.794140   42.397705    -44.640221
-59.478340   43.626633    -45.300774
-59.350288   44.216766    -45.219326
-59.242420   44.690426    -45.239971
-59.150013   45.074554    -45.338825
-59.053997   45.479881    -45.419605
-58.950012   45.930874    -45.460892
-58.840794   46.411903    -45.476238
-58.740662   46.840500    -45.537624
-58.652378   47.200611    -45.658588
-58.555050   47.612904    -45.734627
-58.439518   48.129776    -45.720261
-58.330425   48.609493    -45.738476
-58.236267   49.003380    -45.831333
-58.144051   49.385666    -45.934292
-58.037922   49.848045    -45.968407
-57.910522   50.432625    -45.897312
-57.802746   50.904194    -45.924217
-57.722305   51.218708    -46.086884
-57.644859   51.515984    -46.264523
-57.532848   52.011520    -46.271420
-57.410355   52.567131    -46.227150
-57.305714   53.020477    -46.271244
-57.212738   53.406685    -46.373314
-57.114922   53.820503    -46.452023
-56.997791   54.344643    -46.436081
-56.887577   54.829224    -46.454605
-56.789833   55.242237    -46.534756
-56.681946   55.713409    -46.565403
-56.558159   56.275398    -46.518723
-56.437912   56.817036    -46.490005
-56.336044   57.253132    -46.551529
-56.240505   57.653141    -46.644279
-56.129333   58.142384    -46.661198
-56.007374   58.693241    -46.625984
-55.886517   59.237701    -46.596771
-55.777390   59.714638    -46.625118
-55.674866   60.154194    -46.685738
-55.564137   60.640385    -46.707161
-55.452003   61.134384    -46.722176
-55.341309   61.620167    -46.744518
-55.232899   62.092613    -46.778618
-55.130405   62.531109    -46.841499
-55.012859   63.055626    -46.832195
-54.884167   63.643696    -46.769444
-54.767361   64.163742    -46.764618
-54.671490   64.564171    -46.861244
-54.558697   65.061104    -46.876602
-54.427925   65.660660    -46.805977
-54.303532   66.222824    -46.767014
-54.196808   66.684975    -46.812939
-54.095444   67.116249    -46.885002
-53.969662   67.686501    -46.840717
-53.832516   68.321533    -46.742386
-53.713982   68.850197    -46.733921
-53.605263   69.322594    -46.772835
-53.484993   69.860924    -46.756901
-53.351006   70.477142    -46.676319
-53.227684   71.032486    -46.647148
-53.118450   71.507568    -46.685333
-52.992912   72.075386    -46.646553
-52.851261   72.734428    -46.532108
-52.711472   73.382767    -46.426861
-52.596275   73.891174    -46.439003
-52.478710   74.412918    -46.440407
-52.317310   75.183723    -46.235062
-52.155415   75.957016    -46.028221
-52.035404   76.492142    -46.019981
-51.916645   77.020149    -46.018044
-51.760513   77.759987    -45.840702
-51.592339   78.568031    -45.607681
-51.453049   79.211922    -45.511284
-51.323425   79.800781    -45.460945
-51.165871   80.548035    -45.280159
-50.990963   81.393486    -45.018940
-50.859188   81.994003    -44.960510
-50.707024   82.709877    -44.807686
-50.517319   83.638649    -44.479786
-50.342525   84.482010    -44.223244
-50.214638   85.059967    -44.185852
-50.067875   85.744530    -44.061264
-49.866657   86.737091    -43.684254
-49.699490   87.536842    -43.466484
-49.556629   88.198479    -43.362709
-49.355026   89.192482    -42.987103
-49.143341   90.243172    -42.566174
-48.986832   90.981079    -42.401917
-48.818630   91.785263    -42.184303
-48.573639   93.023346    -41.612919
-81.992027   -37.686069    20.123425
-81.932465   -37.489822    19.864937
-81.879425   -37.334167    19.561321
-81.820541   -37.141541    19.298769
-80.096008   -35.403015    -3.145172
-80.048973   -35.280518    -3.473768
-79.997093   -35.128082    -3.770261
-79.944061   -34.968796    -4.059375
-79.889648   -34.800495    -4.338786
-79.840874   -34.667393    -4.655587
-79.794250   -34.547253    -4.986216
-79.748436   -34.432468    -5.322144
-79.700172   -34.302185    -5.641562
-79.650528   -34.163425    -5.951979
-79.594559   -33.985439    -6.220521
-79.540527   -33.819492    -6.501672
-79.489708   -33.673359    -6.803977
-79.438271   -33.523323    -7.101913
-79.389343   -33.388557    -7.415923
-79.337677   -33.237316    -7.712369
-79.282280   -33.062542    -7.983776
-79.222870   -32.863537    -8.229776
-79.168221   -32.693520    -8.506202
-79.116035   -32.538544    -8.798429
-79.067459   -32.406128    -9.114195
-79.014862   -32.248711    -9.403645
-78.961685   -32.087662    -9.689197
-78.904976   -31.904755    -9.951838
-78.846214   -31.709538    -10.201251
-78.790985   -31.535778    -10.473280
-78.736298   -31.365204    -10.748589
-78.686111   -31.222431    -11.052941
-78.632828   -31.060724    -11.337272
-78.576569   -30.880564    -11.602321
-78.514214   -30.662762    -11.827998
-78.452415   -30.448561    -12.057433
-78.396088   -30.268053    -12.321931
-78.340950   -30.094751    -12.594009
-78.287613   -29.932020    -12.877048
-78.229614   -29.741121    -13.130680
-78.166885   -29.521748    -13.354511
-78.096741   -29.255886    -13.530184
-78.018333   -28.939896    -13.653852
-77.951073   -28.692123    -13.848500
-77.896851   -28.524479    -14.126204
-77.831619   -28.289314    -14.333967
-77.762970   -28.033033    -14.519900
-77.702675   -27.828106    -14.759053
-77.645576   -27.642870    -15.018448
-77.582909   -27.423382    -15.242517
-77.524094   -27.227367    -15.490845
-77.463676   -27.021500    -15.728860
-77.399490   -26.793015    -15.943549
-77.332092   -26.544409    -16.137671
-77.271408   -26.337090    -16.374334
-77.214005   -26.149670    -16.631475
-77.156761   -25.963604    -16.889847
-77.093941   -25.742998    -17.112831
-77.030098   -25.516411    -17.329685
-76.962418   -25.266541    -17.522566
-76.897263   -25.031788    -17.730993
-76.836945   -24.826595    -17.969858
-76.776680   -24.621895    -18.209211
-76.717789   -24.425606    -18.457039
-76.653374   -24.195030    -18.669956
-76.585342   -23.943039    -18.861015
-76.516068   -23.683403    -19.044212
-76.453270   -23.463398    -19.267895
-76.391930   -23.251844    -19.500330
-76.328049   -23.025038    -19.717236
-76.258385   -22.763027    -19.898357
-76.189262   -22.504730    -20.083076
-76.124763   -22.274164    -20.296289
-76.063461   -22.063080    -20.529303
-75.998657   -21.830698    -20.740725
-75.931114   -21.581949    -20.935467
-75.859665   -21.309267    -21.106031
-75.783722   -21.009192    -21.249113
-75.712601   -20.738680    -21.422092
-75.645706   -20.493593    -21.620972
-75.581680   -20.266073    -21.837631
-75.515671   -20.026653    -22.042179
-75.448196   -19.778364    -22.237846
-75.381027   -19.531822    -22.435446
-75.319855   -19.321669    -22.669718
-75.261383   -19.127817    -22.920261
-75.195190   -18.887489    -23.124077
-75.119865   -18.591681    -23.272358
-75.036469   -18.247059    -23.371794
-74.961426   -17.952854    -23.521858
-74.892464   -17.695614    -23.709080
-74.825836   -17.452444    -23.910585
-74.757042   -17.196312    -24.099159
-74.684601   -16.918415    -24.265800
-74.610619   -16.631023    -24.423311
-74.538643   -16.355644    -24.592934
-74.468231   -16.090010    -24.772360
-74.403328   -15.857494    -24.984758
-74.334450   -15.601014    -25.173313
-74.260452   -15.313691    -25.331379
-74.182007   -14.999497    -25.462847
-74.105400   -14.696474    -25.605452
-74.035416   -14.433478    -25.787914
-73.965775   -14.172477    -25.972569
-73.895027   -13.904943    -26.150820
-73.819000   -13.605878    -26.297663
-73.742485   -13.303562    -26.441687
-73.669930   -13.025290    -26.609619
-73.600136   -12.763948    -26.794250
-73.529213   -12.495283    -26.971870
-73.453934   -12.200686    -27.123844
-73.374123   -11.878930    -27.249294
-73.299545   -11.588502    -27.405663
-73.228981   -11.322449    -27.586256
-73.158798   -11.058350    -27.768740
-73.086235   -10.780353    -27.937752
-73.009621   -10.478144    -28.082962
-72.931267   -10.165442    -28.218132
-72.856323   -9.873071    -28.373268
-72.785583   -9.606203    -28.553638
-72.714851   -9.339462    -28.734095
-72.640724   -9.051745    -28.894251
-72.558334   -8.715045    -29.006477
-72.478951   -8.396730    -29.136845
-72.407219   -8.123799    -29.311821
-72.337677   -7.864172    -29.499863
-72.263054   -7.574259    -29.658449
-72.183296   -7.253711    -29.787052
-72.106438   -6.950390    -29.932848
-72.030930   -6.655205    -30.086685
-71.959763   -6.386017    -30.265913
-71.886246   -6.102716    -30.431273
-71.805573   -5.776775    -30.555609
-71.724014   -5.445573    -30.675013
-71.644753   -5.128334    -30.808113
-71.571869   -4.849345    -30.978271
-71.499672   -4.574096    -31.152159
-71.425026   -4.284561    -31.312443
-71.341476   -3.942007    -31.421499
-71.258308   -3.601404    -31.532772
-71.185249   -3.321490    -31.702753
-71.116066   -3.064203    -31.894665
-71.041054   -2.772894    -32.053593
-70.961060   -2.451448    -32.183907
-70.877136   -2.106798    -32.292065
-70.796432   -1.781423    -32.418930
-70.718765   -1.474254    -32.563316
-70.642693   -1.176566    -32.717064
-70.565536   -0.872435    -32.864635
-70.481995   -0.530352    -32.976105
-70.399849   -0.196762    -33.095768
-70.322212   0.110181    -33.241226
-70.246437   0.405995    -33.397461
-70.167267   0.721808    -33.534710
-70.082893   1.068277    -33.642715
-69.995720   1.431522    -33.735054
-69.912506   1.771357    -33.849800
-69.836006   2.071082    -34.003036
-69.757866   2.380244    -34.147285
-69.672325   2.733656    -34.249744
-69.583832   3.104571    -34.335781
-69.503159   3.429098    -34.466087
-69.430252   3.706954    -34.640671
-69.357399   3.984870    -34.815434
-69.277344   4.305445    -34.949890
-69.193459   4.648294    -35.063278
-69.108711   4.996400    -35.172016
-69.031059   5.302588    -35.320442
-68.955437   5.596537    -35.480675
-68.876488   5.910006    -35.622475
-68.791374   6.260190    -35.729942
-68.705246   6.616464    -35.831871
-68.625237   6.936309    -35.968292
-68.549606   7.229908    -36.129417
-68.469444   7.550544    -36.265385
-68.384300   7.900439    -36.374016
-68.297775   8.258576    -36.475113
-68.215439   8.591471    -36.599945
-68.137146   8.900805    -36.747166
-68.057549   9.217949    -36.887218
-67.973633   9.560245    -37.003872
-67.878685   9.967533    -37.059814
-67.793304   10.318789    -37.168526
-67.715981   10.622094    -37.322186
-67.636826   10.936041    -37.466038
-67.550865   11.289988    -37.572617
-67.460136   11.672180    -37.653229
-67.369476   12.053927    -37.734489
-67.288033   12.381023    -37.866928
-67.210968   12.682383    -38.023190
-67.128975   13.012857    -38.152676
-67.037445   13.399410    -38.230297
-66.944611   13.793538    -38.301140
-66.860458   14.136541    -38.419464
-66.782845   14.440929    -38.573849
-66.697838   14.788761    -38.688175
-66.606201   15.175558    -38.766674
-66.513481   15.568633    -38.839615
-66.428337   15.916783    -38.954247
-66.349152   16.230114    -39.101200
-66.261429   16.593737    -39.201950
-66.170937   16.973360    -39.288174
-66.079491   17.358334    -39.369560
-65.993271   17.712730    -39.479443
-65.911270   18.042646    -39.612148
-65.825310   18.395372    -39.723938
-65.731506   18.793993    -39.793682
-65.636971   19.196905    -39.859890
-65.547165   19.571924    -39.951904
-65.462845   19.914852    -40.073643
-65.376442   20.269438    -40.184616
-65.284241   20.658468    -40.264465
-65.191505   21.050512    -40.341805
-65.106285   21.398312    -40.459751
-65.024109   21.728079    -40.594307
-64.937645   22.083017    -40.706108
-64.845490   22.471239    -40.787804
-64.749886   22.879917    -40.851273
-64.659950   23.254944    -40.945454
-64.575546   23.597431    -41.069267
-64.488708   23.954330    -41.180328
-64.390503   24.377480    -41.231621
-64.294540   24.787407    -41.295059
-64.206421   25.151493    -41.400135
-64.125618   25.472641    -41.544525
-64.037033   25.839361    -41.647739
-63.939308   26.259403    -41.702995
-63.839397   26.691696    -41.747440
-63.748100   27.073877    -41.837410
-63.666477   27.399755    -41.978489
-63.582794   27.737347    -42.109035
-63.484898   28.158365    -42.164692
-63.386799   28.579611    -42.220375
-63.292530   28.978849    -42.296150
-63.207386   29.324625    -42.420292
-63.116337   29.704950    -42.513500
-63.021294   30.108166    -42.586380
-62.925312   30.517178    -42.654354
-62.833286   30.902878    -42.743580
-62.745625   31.263000    -42.855785
-62.655933   31.634981    -42.957592
-62.558002   32.054588    -43.017048
-62.455315   32.502022    -43.051979
-62.363598   32.885506    -43.144371
-62.277943   33.233776    -43.268372
-62.188953   33.601067    -43.375332
-62.091805   34.016163    -43.440258
-61.990356   34.455929    -43.483383
-61.899021   34.836777    -43.579273
-61.811344   35.196323    -43.694164
-61.716743   35.595749    -43.773853
-61.617096   36.024761    -43.827724
-61.517815   36.451450    -43.883812
-61.423706   36.847977    -43.966995
-61.335522   37.210194    -44.080639
-61.243683   37.593029    -44.176224
-61.141430   38.036682    -44.218498
-61.037773   38.488396    -44.253841
-60.951775   38.837318    -44.380230
-60.869164   39.166626    -44.523926
-60.764614   39.623226    -44.555767
-60.657478   40.094501    -44.575134
-60.557381   40.525047    -44.630642
-60.465591   40.907551    -44.728634
-60.376362   41.274681    -44.840046
-60.279789   41.684551    -44.914463
-60.154930   42.257992    -44.845825
-59.803719   43.692856    -45.325974
-59.690243   44.199734    -45.317230
-59.581421   44.679848    -45.332222
-59.487034   45.076218    -45.420532
-59.392159   45.475277    -45.506466
-59.290047   45.916180    -45.556511
-59.180477   46.399906    -45.569611
-59.077847   46.843601    -45.617844
-58.991264   47.194622    -45.746838
-58.893517   47.609745    -45.820232
-58.777691   48.129112    -45.803688
-58.667221   48.617725    -45.814186
-58.572311   49.016537    -45.902763
-58.484146   49.376251    -46.025383
-58.379868   49.828739    -46.068020
-58.250767   50.423870    -45.987640
-58.140495   50.910633    -46.001411
-58.062923   51.208977    -46.177986
-57.988831   51.487286    -46.371925
-57.889194   51.912552    -46.439438
-57.754696   52.538063    -46.334808
-57.644375   53.024563    -46.350365
-57.550167   53.418400    -46.445854
-57.451530   53.837353    -46.520012
-57.336712   54.349491    -46.514530
-57.224567   54.845730    -46.523010
-57.128616   55.249069    -46.611435
-57.024471   55.699528    -46.659794
-56.897030   56.283401    -46.594383
-56.775478   56.833565    -46.558258
-56.676178   57.255795    -46.631893
-56.581120   57.653282    -46.726601
-56.473671   58.122002    -46.760998
-56.352196   58.671482    -46.726952
-56.229919   59.224953    -46.690048
-56.119900   59.708160    -46.713207
-56.020618   60.129555    -46.789223
-55.913040   60.598354    -46.825092
-55.802555   61.083710    -46.847523
-55.688938   61.586922    -46.855038
-55.578423   62.072365    -46.878098
-55.475300   62.515388    -46.937279
-55.359512   63.030678    -46.935627
-55.233231   63.605770    -46.883778
-55.116619   64.125488    -46.879192
-55.016716   64.549583    -46.955799
-54.904694   65.043083    -46.974030
-54.776829   65.626747    -46.916775
-54.651215   66.197556    -46.870682
-54.542858   66.669289    -46.908337
-54.438911   67.115860    -46.967514
-54.315521   67.673477    -46.933826
-54.176750   68.318878    -46.826786
-54.057159   68.854507    -46.812462
-53.950047   69.318787    -46.858212
-53.828815   69.863785    -46.836823
-53.687950   70.520195    -46.722446
-53.566387   71.066673    -46.700584
-53.458599   71.534119    -46.745277
-53.333050   72.102890    -46.705708
-53.192070   72.759666    -46.593063
-53.047199   73.438271    -46.462898
-52.928268   73.968666    -46.456734
-52.810120   74.494537    -46.454575
-52.654911   75.231522    -46.277306
-52.488564   76.031853    -46.048180
-52.358753   76.623703    -45.992874
-52.239258   77.156792    -45.986794
-52.087467   77.873444    -45.828938
-51.926765   78.640617    -45.629864
-51.782055   79.316681    -45.506893
-51.645844   79.943893    -45.424606
-51.487091   80.699562    -45.236973
-51.308807   81.565804    -44.958706
-51.177277   82.165977    -44.900795
-51.027737   82.868477    -44.758987
-50.834057   83.821587    -44.411335
-50.665646   84.631111    -44.182812
-50.536575   85.216507    -44.139381
-50.383640   85.937271    -43.985096
-50.182262   86.932991    -43.605663
-50.022854   87.690010    -43.423100
-49.874554   88.384026    -43.292881
-49.683395   89.320885    -42.964260
-49.467274   90.399040    -42.520844
-49.320248   91.084915    -42.399574
-49.143337   91.940063    -42.140377
-47.356911   101.022240    -37.830791
-82.281860   -37.616333    19.625313
-82.221001   -37.411713    19.376369
-82.167961   -37.256565    19.072395
-80.399361   -35.274113    -3.101119
-80.350189   -35.138905    -3.416300
-80.302101   -35.010307    -3.738284
-80.248299   -34.846043    -4.022228
-80.195351   -34.687443    -4.311889
-80.144936   -34.544281    -4.618016
-80.097061   -34.416752    -4.940804
-80.050041   -34.294590    -5.269041
-80.003242   -34.174263    -5.598942
-79.950195   -34.014652    -5.887246
-79.897530   -33.857178    -6.177616
-79.844139   -33.695366    -6.463305
-79.792847   -33.546326    -6.762433
-79.740891   -33.393604    -7.057590
-79.692314   -33.261330    -7.374263
-79.640213   -33.107376    -7.667892
-79.584198   -32.929115    -7.935755
-79.524704   -32.729450    -8.180869
-79.470337   -32.561283    -8.459436
-79.419273   -32.413612    -8.759387
-79.371025   -32.283157    -9.077372
-79.320969   -32.141891    -9.383730
-79.269257   -31.990067    -9.679003
-79.210869   -31.796900    -9.930750
-79.150291   -31.590178    -10.168236
-79.093994   -31.410242    -10.433694
-79.040474   -31.247107    -10.716970
-78.990929   -31.108570    -11.025792
-78.938660   -30.953058    -11.316741
-78.884842   -30.788200    -11.597717
-78.822151   -30.568521    -11.821440
-78.761345   -30.360298    -12.057143
-78.706871   -30.191092    -12.333556
-78.650948   -30.013193    -12.600718
-78.594017   -29.828981    -12.861366
-78.530838   -29.606174    -13.081805
-78.460365   -29.338604    -13.255682
-78.385368   -29.043238    -13.400659
-78.315033   -28.776577    -13.575685
-78.253265   -28.562540    -13.805425
-78.198082   -28.388922    -14.077088
-78.134705   -28.165186    -14.296636
-78.065849   -27.907766    -14.481442
-78.007866   -27.716951    -14.735243
-77.947945   -27.514202    -14.976675
-77.884674   -27.291162    -15.196877
-77.825409   -27.092440    -15.442454
-77.766685   -26.897081    -15.691486
-77.702866   -26.670172    -15.907978
-77.635643   -26.422951    -16.103447
-77.574089   -26.210197    -16.334568
-77.517876   -26.030380    -16.599558
-77.459282   -25.835882    -16.849304
-77.396881   -25.618109    -17.075232
-77.333580   -25.394520    -17.295084
-77.267715   -25.155615    -17.499374
-77.202621   -24.921335    -17.708334
-77.140724   -24.706535    -17.937389
-77.080238   -24.500404    -18.175325
-77.021049   -24.302185    -18.421337
-76.955582   -24.065828    -18.628248
-76.887573   -23.813526    -18.818924
-76.822266   -23.577959    -19.026855
-76.761215   -23.368404    -19.261343
-76.698608   -23.149399    -19.486080
-76.634224   -22.919640    -19.700003
-76.564835   -22.659166    -19.882595
-76.496696   -22.406273    -20.073097
-76.433121   -22.181267    -20.291870
-76.371979   -21.971184    -20.525913
-76.306877   -21.736837    -20.735365
-76.240349   -21.493908    -20.936018
-76.171066   -21.234520    -21.120068
-76.096779   -20.944300    -21.273134
-76.025902   -20.675047    -21.447510
-75.956963   -20.417700    -21.633879
-75.891739   -20.182808    -21.842976
-75.824600   -19.936369    -22.040592
-75.757538   -19.690283    -22.238623
-75.690262   -19.443300    -22.435671
-75.628998   -19.232132    -22.668825
-75.572754   -19.051922    -22.933224
-75.508217   -18.821253    -23.146879
-75.434837   -18.537251    -23.306896
-75.353279   -18.203270    -23.417017
-75.277946   -17.907236    -23.565228
-75.209579   -17.653530    -23.756098
-75.142235   -17.406189    -23.953278
-75.073929   -17.152729    -24.144394
-75.001488   -16.874294    -24.310740
-74.926064   -16.578159    -24.459387
-74.854614   -16.305807    -24.632023
-74.785263   -16.046080    -24.817341
-74.719414   -15.807624    -25.023802
-74.650337   -15.549956    -25.211172
-74.576347   -15.262384    -25.368990
-74.498741   -14.953068    -25.505301
-74.424484   -14.663931    -25.661686
-74.354523   -14.401067    -25.844265
-74.284172   -14.135615    -26.024477
-74.212128   -13.859988    -26.194691
-74.136620   -13.563426    -26.344141
-74.061623   -13.270132    -26.496964
-73.988190   -12.986120    -26.659206
-73.918045   -12.722114    -26.841322
-73.846558   -12.450371    -27.015623
-73.771713   -12.158062    -27.169979
-73.692772   -11.840992    -27.300051
-73.620895   -11.566834    -27.472546
-73.549858   -11.297649    -27.649784
-73.478394   -11.026050    -27.824976
-73.405312   -10.744587    -27.990570
-73.326775   -10.430345    -28.124075
-73.248482   -10.117352    -28.258715
-73.177124   -9.846545    -28.435114
-73.105537   -9.574159    -28.610062
-73.034874   -9.307445    -28.790649
-72.961281   -9.023342    -28.954050
-72.878784   -8.685594    -29.065367
-72.801193   -8.377340    -29.205687
-72.731750   -8.118417    -29.394169
-72.658287   -7.834960    -29.558931
-72.582176   -7.535725    -29.708282
-72.503899   -7.223258    -29.845022
-72.425392   -6.910028    -29.981016
-72.349998   -6.615321    -30.135313
-72.280571   -6.356308    -30.324413
-72.207916   -6.077897    -30.494627
-72.127335   -5.752413    -30.619257
-72.046059   -5.422551    -30.739937
-71.967033   -5.106322    -30.873997
-71.893982   -4.825783    -31.042767
-71.822868   -4.556893    -31.222652
-71.749550   -4.274843    -31.390154
-71.667580   -3.941115    -31.507841
-71.584633   -3.601757    -31.620140
-71.508583   -3.303607    -31.772497
-71.438545   -3.041311    -31.959412
-71.366356   -2.766371    -32.134342
-71.288734   -2.459064    -32.278091
-71.203300   -2.104980    -32.377136
-71.121239   -1.771005    -32.495712
-71.044266   -1.467232    -32.643471
-70.967628   -1.166106    -32.793625
-70.890854   -0.863932    -32.943169
-70.808289   -0.527180    -33.059723
-70.726517   -0.195264    -33.181084
-70.648422   0.114298    -33.323856
-70.573105   0.407618    -33.482437
-70.495476   0.714669    -33.628021
-70.411507   1.059510    -33.737556
-70.323883   1.425658    -33.826954
-70.240738   1.765688    -33.941608
-70.165283   2.059404    -34.100517
-70.088120   2.363381    -34.249790
-70.003662   2.710687    -34.357880
-69.913368   3.092588    -34.433426
-69.831467   3.424608    -34.556564
-69.758987   3.700639    -34.732983
-69.685432   3.982493    -34.903824
-69.606613   4.296021    -35.044910
-69.521744   4.645888    -35.151653
-69.437271   4.992533    -35.261600
-69.358490   5.305666    -35.403545
-69.282181   5.604034    -35.559570
-69.203407   5.916961    -35.701984
-69.118889   6.263766    -35.812469
-69.032661   6.620882    -35.913570
-68.952385   6.942605    -36.048191
-68.878151   7.228492    -36.216675
-68.798164   7.548419    -36.353138
-68.713501   7.896141    -36.463783
-68.625832   8.261446    -36.558121
-68.545776   8.581559    -36.695042
-68.467209   8.892556    -36.840523
-68.385757   9.220817    -36.970116
-68.300545   9.571299    -37.079082
-68.207039   9.970932    -37.142307
-68.123009   10.314028    -37.258457
-68.044182   10.626647    -37.403389
-67.965775   10.936417    -37.551102
-67.880440   11.287526    -37.660439
-67.789635   11.670744    -37.739933
-67.698685   12.054650    -37.819157
-67.616447   12.387089    -37.946480
-67.540344   12.683098    -38.107811
-67.457611   13.018153    -38.232868
-67.366653   13.401742    -38.313339
-67.273994   13.795353    -38.384632
-67.188744   14.145258    -38.496666
-67.108246   14.466827    -38.634975
-67.025696   14.800825    -38.762093
-66.936234   15.175393    -38.851875
-66.841911   15.578526    -38.915504
-66.756302   15.930221    -39.026867
-66.676987   16.244417    -39.172974
-66.591942   16.592518    -39.287998
-66.502937   16.963984    -39.381706
-66.410782   17.353979    -39.458588
-66.324776   17.707373    -39.569214
-66.239426   18.056969    -39.683662
-66.152863   18.413696    -39.791882
-66.056496   18.828131    -39.847252
-65.965302   19.212053    -39.930729
-65.876404   19.582220    -40.027168
-65.792427   19.923651    -40.150127
-65.706787   20.274431    -40.264824
-65.617523   20.646584    -40.359932
-65.525330   21.035923    -40.439701
-65.438515   21.393572    -40.548622
-65.355263   21.730190    -40.677040
-65.271706   22.068243    -40.804039
-65.180725   22.450270    -40.891346
-65.082901   22.872309    -40.942490
-64.989716   23.266924    -41.018959
-64.905968   23.606163    -41.145847
-64.819939   23.958738    -41.260662
-64.726158   24.356766    -41.334721
-64.629677   24.770403    -41.394760
-64.539780   25.145372    -41.490082
-64.457726   25.474033    -41.627491
-64.371681   25.826307    -41.743736
-64.274033   26.246449    -41.798862
-64.173424   26.683956    -41.838730
-64.081764   27.068613    -41.926285
-64.000450   27.392860    -42.068668
-63.917648   27.725857    -42.203445
-63.820396   28.143223    -42.262333
-63.720970   28.573595    -42.309948
-63.626724   28.972982    -42.385406
-63.543129   29.310320    -42.517094
-63.451847   29.692572    -42.608540
-63.354233   30.111584    -42.667248
-63.257786   30.523563    -42.732513
-63.166016   30.908272    -42.822479
-63.079403   31.262865    -42.939732
-62.990276   31.631977    -43.044071
-62.893112   32.048012    -43.106846
-62.792343   32.484810    -43.151093
-62.700191   32.871269    -43.240788
-62.615513   33.214226    -43.369354
-62.523361   33.600819    -43.459373
-62.427399   34.009212    -43.529949
-62.326195   34.448242    -43.573830
-62.233303   34.838718    -43.661137
-62.145962   35.196697    -43.777393
-62.052258   35.591755    -43.861084
-61.951900   36.025280    -43.910648
-61.851772   36.457531    -43.961914
-61.759254   36.845402    -44.052738
-61.672939   37.197014    -44.175720
-61.582287   37.573875    -44.276699
-61.482147   38.005753    -44.329185
-61.376759   38.468182    -44.355034
-61.288906   38.828362    -44.471458
-61.204403   39.169300    -44.605030
-61.101212   39.618919    -44.642998
-60.994019   40.091148    -44.661354
-60.894451   40.519180    -44.719048
-60.802578   40.902630    -44.816051
-60.714764   41.262127    -44.934399
-60.624451   41.635948    -45.040234
-60.523674   42.070778    -45.092991
-60.404713   42.610889    -45.053745
-60.299904   43.068729    -45.087021
-60.213161   43.421852    -45.212147
-60.123482   43.791576    -45.322792
-60.020458   44.238758    -45.366199
-59.915592   44.696655    -45.400574
-59.823135   45.082478    -45.497940
-59.729671   45.474003    -45.590687
-59.629269   45.905613    -45.648788
-59.521271   46.381287    -45.668724
-59.421158   46.811024    -45.729050
-59.330208   47.187904    -45.835545
-59.232117   47.605740    -45.906715
-59.120941   48.099297    -45.912533
-59.005680   48.615986    -45.898518
-58.906731   49.038597    -45.966469
-58.818722   49.397774    -46.089535
-58.719761   49.820278    -46.158073
-58.592209   50.407841    -46.084381
-58.479912   50.906910    -46.087353
-58.402073   51.206982    -46.262394
-58.326962   51.491428    -46.451004
-58.226078   51.924431    -46.511833
-58.093884   52.538235    -46.417454
-57.981689   53.036144    -46.423023
-57.885494   53.441757    -46.508381
-57.787735   53.856705    -46.585979
-57.676590   54.348442    -46.597988
-57.560150   54.870567    -46.584312
-57.460808   55.294003    -46.655651
-57.359516   55.728394    -46.717598
-57.239433   56.271111    -46.687389
-57.119564   56.812477    -46.658760
-57.014507   57.268414    -46.703461
-56.921333   57.655807    -46.807049
-56.814655   58.120865    -46.844547
-56.694721   58.661995    -46.817432
-56.569309   59.234543    -46.764164
-56.461582   59.705235    -46.798073
-56.364418   60.115108    -46.883850
-56.258720   60.574078    -46.928207
-56.146099   61.072536    -46.939491
-56.031296   61.583241    -46.940472
-55.924397   62.048771    -46.980255
-55.822044   62.488041    -47.042706
-55.706776   63.001389    -47.042667
-55.582329   63.567253    -46.998756
-55.463657   64.099854    -46.983257
-55.359951   64.546104    -47.040848
-55.250103   65.027649    -47.069256
-55.121838   65.614883    -47.008858
-54.997490   66.179451    -46.968132
-54.886963   66.664536    -46.994568
-54.783504   67.108971    -47.055630
-54.657211   67.684074    -47.006966
-54.516987   68.339127    -46.891960
-54.397129   68.877220    -46.875572
-54.293598   69.321594    -46.937996
-54.174992   69.852264    -46.928581
-54.027462   70.548447    -46.781101
-53.900757   71.125061    -46.734058
-53.795326   71.579948    -46.789104
-53.669956   72.148445    -46.749779
-53.522480   72.843910    -46.604912
-53.377831   73.522423    -46.474876
-53.258514   74.056213    -46.465942
-53.139057   74.590569    -46.456814
-52.986549   75.313568    -46.291363
-52.822029   76.104874    -46.069633
-52.685703   76.734993    -45.982613
-52.562973   77.287338    -45.960613
-52.406620   78.031563    -45.780006
-52.248100   78.787971    -45.589840
-52.103939   79.462067    -45.468597
-51.968689   80.085236    -45.390045
-51.798813   80.905716    -45.148964
-51.625805   81.743584    -44.894112
-51.492832   82.353027    -44.828659
-51.348373   83.027901    -44.709759
-51.147518   84.024353    -44.326553
-50.986923   84.790543    -44.133835
-50.858231   85.375092    -44.091202
-50.699757   86.128769    -43.910023
-50.502579   87.102798    -43.548695
-50.347675   87.835571    -43.385979
-50.206322   88.491234    -43.287296
-50.022903   89.386162    -42.993137
-49.810318   90.446579    -42.564339
-49.667198   91.111572    -42.460056
-49.486813   91.988373    -42.183334
-47.647194   101.394363    -37.611267
-82.570244   -37.539246    19.135965
-82.514679   -37.368118    18.849833
-82.455345   -37.172943    18.590721
-82.397736   -36.988655    18.319309
-80.750404   -35.270538    -2.731543
-80.704765   -35.157608    -3.070565
-80.655510   -35.022354    -3.385480
-80.607971   -34.897575    -3.711698
-80.552773   -34.724804    -3.986468
-80.500214   -34.568924    -4.279293
-80.447945   -34.414577    -4.573422
-80.400314   -34.288845    -4.898029
-80.352486   -34.162045    -5.221486
-80.306145   -34.044376    -5.554382
-80.252693   -33.882660    -5.840245
-80.201233   -33.732815    -6.138884
-80.146774   -33.564541    -6.417752
-80.095894   -33.418514    -6.720103
-80.044113   -33.266663    -7.016203
-79.996117   -33.138649    -7.337435
-79.944519   -32.987999    -7.634586
-79.889473   -32.815784    -7.908874
-79.829529   -32.613136    -8.150988
-79.774323   -32.440285    -8.424386
-79.724304   -32.299377    -8.731499
-79.676094   -32.169380    -9.050125
-79.627197   -32.035309    -9.364190
-79.575073   -31.881300    -9.657072
-79.516136   -31.684961    -9.905512
-79.454178   -31.469713    -10.134077
-79.398430   -31.292963    -10.403032
-79.345093   -31.131365    -10.687700
-79.296021   -30.995888    -10.999757
-79.245003   -30.848534    -11.299395
-79.190666   -30.680408    -11.577088
-79.128510   -30.464039    -11.804194
-79.068977   -30.263868    -12.048324
-79.016106   -30.104774    -12.335296
-78.960495   -29.928707    -12.604503
-78.898415   -29.712923    -12.832152
-78.827202   -29.440504    -13.000978
-78.751358   -29.139488    -13.140169
-78.678879   -28.859329    -13.301168
-78.613457   -28.623018    -13.507702
-78.554123   -28.424032    -13.753128
-78.496590   -28.236118    -14.010015
-78.435921   -28.028860    -14.246823
-78.368866   -27.782423    -14.442808
-78.309029   -27.580309    -14.684953
-78.247002   -27.364594    -14.913036
-78.184776   -27.147779    -15.139984
-78.126205   -26.953682    -15.390272
-78.069214   -26.769096    -15.650461
-78.003647   -26.531706    -15.856190
-77.937119   -26.288307    -16.055771
-77.878357   -26.093018    -16.304798
-77.822105   -25.912962    -16.569576
-77.761810   -25.707874    -16.808599
-77.698334   -25.483730    -17.027781
-77.636665   -25.270243    -17.258179
-77.571556   -25.035738    -17.467024
-77.504883   -24.791687    -17.666130
-77.443733   -24.581623    -17.899967
-77.383018   -24.374136    -18.136551
-77.324409   -24.179035    -18.385683
-77.258644   -23.940617    -18.590656
-77.193550   -23.706551    -18.799988
-77.129333   -23.477449    -19.014553
-77.068375   -23.268484    -19.249660
-77.005859   -23.049845    -19.474915
-76.940720   -22.815527    -19.683977
-76.869537   -22.543980    -19.855471
-76.801460   -22.291235    -20.046173
-76.739525   -22.076353    -20.275368
-76.676559   -21.855255    -20.498144
-76.614944   -21.642305    -20.729185
-76.548424   -21.399406    -20.930021
-76.480263   -21.146610    -21.120775
-76.408287   -20.870010    -21.287653
-76.339653   -20.614159    -21.475588
-76.270401   -20.354610    -21.659723
-76.200699   -20.092524    -21.841379
-76.131966   -19.836136    -22.028986
-76.064774   -19.589207    -22.226192
-75.996727   -19.336975    -22.417992
-75.935173   -19.124710    -22.650061
-75.879829   -18.949997    -22.920012
-75.816391   -18.726261    -23.140650
-75.745056   -18.454029    -23.312641
-75.664932   -18.128740    -23.431246
-75.590187   -17.835798    -23.582710
-75.522659   -17.586996    -23.778500
-75.455635   -17.341234    -23.977278
-75.387482   -17.088600    -24.169222
-75.315712   -16.814074    -24.339474
-75.240364   -16.517954    -24.488260
-75.168060   -16.240337    -24.655525
-75.098862   -15.981650    -24.841745
-75.033203   -15.744228    -25.049368
-74.963715   -15.483860    -25.234169
-74.890739   -15.202497    -25.398039
-74.816483   -14.912893    -25.553833
-74.742447   -14.624922    -25.711489
-74.672394   -14.360825    -25.892965
-74.601730   -14.093624    -26.071302
-74.530815   -13.824482    -26.247807
-74.455528   -13.529038    -26.398478
-74.379997   -13.232471    -26.548033
-74.307434   -12.953467    -26.715216
-74.236717   -12.685850    -26.893618
-74.162888   -12.399448    -27.053686
-74.088478   -12.109794    -27.210527
-74.011421   -11.803502    -27.351233
-73.940308   -11.533639    -27.527815
-73.868134   -11.257253    -27.698202
-73.796265   -10.983170    -27.870808
-73.725166   -10.713523    -28.048006
-73.645325   -10.390871    -28.173115
-73.566391   -10.073976    -28.304159
-73.495529   -9.806114    -28.483307
-73.423912   -9.533364    -28.657883
-73.354042   -9.271152    -28.842739
-73.281097   -8.990540    -29.009678
-73.199844   -8.659720    -29.127758
-73.122818   -8.354650    -29.271168
-73.053719   -8.097288    -29.461277
-72.981331   -7.820298    -29.632059
-72.905243   -7.520990    -29.781437
-72.824562   -7.193932    -29.903933
-72.746391   -6.882097    -30.041403
-72.671516   -6.590476    -30.198547
-72.602928   -6.336345    -30.392239
-72.528923   -6.049402    -30.554276
-72.450256   -5.734738    -30.689518
-72.369438   -5.407606    -30.812689
-72.290764   -5.092867    -30.948179
-72.215370   -4.798138    -31.103046
-72.144073   -4.527993    -31.281946
-72.071587   -4.250978    -31.454157
-71.991966   -3.930938    -31.585045
-71.908775   -3.589600    -31.695539
-71.830841   -3.279822    -31.836401
-71.758423   -3.003009    -32.009430
-71.688591   -2.741766    -32.197540
-71.614075   -2.452751    -32.358997
-71.529587   -2.103914    -32.462929
-71.448540   -1.775678    -32.586983
-71.371124   -1.469247    -32.732010
-71.294495   -1.167593    -32.881878
-71.216621   -0.858778    -33.024879
-71.134720   -0.525657    -33.144882
-71.051201   -0.182637    -33.255592
-70.973267   0.126736    -33.398666
-70.898804   0.414740    -33.562145
-70.822243   0.715718    -33.713367
-70.740097   1.050120    -33.832958
-70.652748   1.415575    -33.923126
-70.569633   1.755146    -34.038017
-70.495018   2.044336    -34.201202
-70.418350   2.345776    -34.352840
-70.332108   2.704455    -34.450214
-70.241783   3.086988    -34.524994
-70.160088   3.418224    -34.648842
-70.087273   3.696320    -34.823120
-70.013359   3.980876    -34.991497
-69.935356   4.289555    -35.136997
-69.849869   4.643231    -35.240208
-69.765549   4.989805    -35.350338
-69.685081   5.313025    -35.482571
-69.608627   5.612620    -35.637409
-69.530731   5.920922    -35.784164
-69.447716   6.259490    -35.902523
-69.361259   6.618267    -36.001892
-69.280296   6.944496    -36.132236
-69.204704   7.238570    -36.292973
-69.125999   7.551263    -36.436337
-69.040962   7.901168    -36.544754
-68.954285   8.261169    -36.644043
-68.874657   8.579005    -36.783062
-68.793427   8.906715    -36.913002
-68.714096   9.222630    -37.053989
-68.628494   9.575899    -37.160324
-68.536850   9.965050    -37.233318
