# .PCD v0.7 - Point Cloud Data file format
VERSION 0.7
FIELDS x y z
SIZE 4 4 4
TYPE F F F
COUNT 1 1 1
WIDTH 1355
HEIGHT 1
VIEWPOINT 0 0 0 1 0 0 0
POINTS 1355
DATA ascii
0.038788028 0.18461275 0.075359158
0.038525924 0.18383609 0.075482942
0.038162116 0.18333879 0.075577743
0.037736923 0.18300961 0.075655036
0.03728506 0.18275353 0.075724676
0.036801793 0.18258375 0.075785391
0.036307789 0.18244323 0.075843148
0.035811841 0.18230836 0.075900242
0.035316903 0.18217048 0.075957596
0.034802631 0.18208581 0.076009519
0.03425853 0.18208268 0.076052912
0.033717655 0.18207107 0.076097295
0.033170372 0.18207681 0.076139726
0.032591999 0.18216789 0.076173417
0.032013632 0.18225881 0.076207042
0.031399693 0.18244749 0.076230593
0.033553801 0.1750433 0.077042751
0.033599555 0.17342228 0.077254251
0.033391781 0.17249683 0.077393427
0.033188764 0.17155831 0.077534027
0.03296224 0.17068416 0.077667914
0.032669283 0.16999245 0.07778284
0.032394096 0.16925189 0.077902868
0.032091051 0.1685876 0.07801497
0.031731624 0.16807798 0.078111053
0.031337731 0.16766314 0.078197241
0.030979579 0.16714998 0.078293607
0.030605543 0.16668077 0.078385457
0.030272605 0.16609836 0.07848905
0.029818913 0.16584754 0.078558214
0.029314505 0.16573568 0.078612901
0.028959468 0.16521414 0.078710236
0.028659156 0.16454235 0.078823112
0.028393973 0.16377446 0.078945972
0.028045418 0.16323519 0.079045102
0.027702989 0.16267891 0.079145908
0.027442118 0.16189919 0.079270065
0.029648196 0.15435241 0.080097035
0.029428085 0.15346073 0.080232702
0.029122157 0.15280436 0.080344006
0.028758109 0.15230742 0.080438748
0.028369511 0.15187816 0.080526449
0.027959283 0.15150782 0.080608018
0.027623897 0.15093251 0.080710888
0.02742202 0.14999086 0.080851801
0.027138386 0.14927328 0.080969423
0.026754992 0.14882956 0.081058629
0.026382765 0.14835522 0.081150919
0.025983922 0.14795378 0.081235714
0.039491564 0.10483631 0.085981384
0.039245971 0.10398164 0.086115249
0.038978286 0.10319234 0.086241975
0.038675927 0.1025059 0.086357541
0.038335934 0.10193098 0.086461112
0.037956797 0.10147208 0.086552061
0.037546664 0.10110494 0.086633138
0.037142083 0.10072155 0.086715922
0.036710553 0.10041792 0.0867901
0.036238063 0.10023566 0.086851135
0.035727128 0.10016724 0.086899742
0.035199292 0.10014905 0.08694306
0.034699313 0.1000483 0.086995244
0.034221992 0.099880144 0.087054744
0.041173443 0.076211356 0.08978501
0.040825427 0.075648464 0.089888215
0.040547967 0.074858554 0.090017557
0.040457755 0.073466524 0.090216152
0.040779553 0.070749573 0.090566978
0.04065387 0.069471799 0.090752423
0.040488705 0.068320766 0.090923272
0.040275417 0.06732437 0.091076277
0.040012486 0.066487893 0.091210939
0.039682649 0.065866478 0.091320954
0.039344013 0.065273218 0.091427639
0.038982615 0.06475348 0.09152595
0.038596306 0.064313509 0.091615066
0.038205355 0.063888676 0.091702431
0.037818573 0.063450508 0.091791309
0.037424553 0.063035399 0.091877565
0.03702157 0.062649302 0.091960452
0.036612615 0.06228219 0.092041194
0.036203332 0.061916485 0.092121758
0.035773616 0.061615959 0.092194796
0.035351135 0.061292544 0.092270523
0.034922108 0.060990289 0.092343867
0.034486808 0.060707815 0.092414804
0.034046635 0.060441144 0.092483982
0.033605441 0.060177758 0.092552833
0.033150464 0.059958979 0.092616513
0.032697931 0.059732005 0.092681125
0.032236509 0.05953373 0.092742465
0.031766444 0.05936338 0.092800543
0.031288989 0.059216626 0.09285599
0.030803345 0.059096225 0.0929083
0.030308912 0.059004046 0.092957497
0.029807763 0.058933839 0.093004078
0.029303335 0.058873534 0.093049496
0.028784374 0.058860213 0.093089595
0.028244222 0.058915228 0.093121752
0.027711553 0.058946021 0.093156755
0.027192488 0.058933318 0.09319675
0.026677515 0.058907241 0.093238339
0.026148552 0.058926098 0.093274668
0.025617689 0.058951236 0.093310349
0.025084859 0.058982596 0.09334527
0.02455117 0.059016652 0.093379855
0.024005765 0.059088483 0.093410149
0.023427872 0.05926495 0.093428411
0.022847237 0.059449837 0.093445688
0.022267545 0.059631936 0.093463279
0.021685418 0.059821643 0.093479946
0.021116953 0.059967808 0.093501695
0.020562353 0.060069151 0.093528554
0.020008687 0.060167454 0.09355589
0.019453447 0.060271025 0.093582429
0.018912915 0.060327075 0.093614489
0.018355239 0.060438417 0.093640283
0.017805036 0.060525537 0.093668804
0.017257195 0.060605101 0.093698159
0.016706746 0.06069313 0.09372662
0.016144354 0.060819671 0.093750566
0.01560217 0.060881257 0.09378209
-0.0043861456 0.079784743 0.092740037
-0.0050154328 0.080067076 0.092750758
-0.0055811265 0.08016105 0.092781976
-0.0061555533 0.080280833 0.092810243
-0.0067060534 0.080329746 0.092846297
-0.0072984863 0.080503084 0.09286873
-0.0079431292 0.080831036 0.092874631
-0.0086456649 0.081330515 0.092861786
-0.0092520434 0.081545129 0.092879906
-0.0098552238 0.081750013 0.09289895
-0.015663499 0.08630354 0.092736423
-0.016318643 0.086662412 0.092738926
-0.017016126 0.087147146 0.092727646
-0.017606296 0.087313592 0.092750989
-0.018173398 0.087411739 0.092781618
-0.018739251 0.08750625 0.092812732
-0.019286949 0.087546796 0.092849642
-0.019850934 0.087635852 0.092881262
-0.020452473 0.087835804 0.092900924
-0.021100476 0.088173993 0.092905596
-0.021718454 0.088422604 0.092919931
-0.02234509 0.088697262 0.092931516
-0.023010304 0.089086235 0.092930771
-0.023686504 0.089507803 0.092926428
-0.024280978 0.089686878 0.092948303
0.044197373 0.20100825 0.072016209
0.043791436 0.20062622 0.072099
0.043438695 0.20009843 0.072197072
0.043104507 0.19951966 0.072300397
0.042775355 0.19892715 0.072405182
0.042467773 0.19827551 0.072516114
0.04223612 0.19741556 0.07264895
0.042003401 0.19655852 0.072781354
0.041880392 0.19540042 0.072945394
0.041657642 0.19451609 0.073080696
0.041407973 0.19370563 0.07320828
0.041168734 0.19286647 0.073338836
0.040848643 0.19224904 0.073446296
0.040517777 0.19166115 0.073550619
0.040204555 0.19102493 0.073659964
0.039853513 0.19049224 0.073758475
0.039494053 0.18998292 0.073854506
0.039126389 0.1894961 0.073948242
0.038760968 0.18900308 0.074042656
0.038405441 0.18848282 0.074139833
0.038927339 0.18555599 0.074488893
0.038714625 0.18464403 0.074627154
0.038455613 0.18385905 0.074752092
0.038101785 0.18333432 0.074849792
0.037674431 0.18301114 0.074926376
0.03722959 0.18273598 0.074997976
0.03675282 0.18254815 0.07506036
0.036264926 0.18239105 0.075119615
0.035775471 0.18223798 0.0751784
0.035283078 0.18209316 0.075236358
0.034782257 0.18197173 0.07529185
0.034266829 0.18188988 0.075343147
0.033758819 0.18178804 0.07539656
0.033246785 0.18169712 0.075448841
0.03270328 0.18169254 0.075492099
0.032110915 0.18182187 0.075521342
0.03378728 0.17572846 0.076201819
0.03355886 0.17485985 0.076335475
0.033541203 0.17341283 0.076529682
0.033300545 0.17257765 0.076659918
0.033056527 0.17175162 0.076789111
0.032823984 0.170894 0.076921619
0.032526284 0.17021529 0.077035509
0.032195665 0.16962674 0.077139854
0.031881645 0.16899265 0.077248991
0.031498324 0.16854858 0.077338256
0.031080635 0.16819893 0.077417575
0.030650359 0.16788369 0.077493355
0.030246312 0.16749659 0.077576667
0.029870909 0.16703086 0.077668183
0.029433053 0.16673656 0.07774175
0.028997848 0.16643484 0.077816114
0.02862261 0.16596882 0.077907674
0.028355641 0.16520552 0.078030251
0.028207786 0.16411591 0.078187093
0.02794035 0.16335389 0.078309655
0.027566601 0.16288373 0.07840158
0.02990013 0.15498807 0.07927072
0.029594084 0.1543321 0.079382062
0.029420609 0.15331268 0.07953158
0.029169112 0.1525071 0.079658687
0.028812062 0.15199098 0.079755396
0.028409883 0.15159872 0.079839282
0.027967103 0.15131794 0.079911433
0.027542835 0.15098611 0.079988927
0.027216205 0.15038671 0.080094486
0.026974039 0.14955565 0.080224238
0.026618015 0.14903681 0.08032126
0.026232535 0.14859875 0.080409892
0.039940841 0.10492465 0.085228145
0.039662786 0.10416615 0.085351594
0.039462171 0.10317839 0.085500091
0.039187133 0.102411 0.085624501
0.038878337 0.10174366 0.085738093
0.038525157 0.10120791 0.085837431
0.038131811 0.10079101 0.08592391
0.037722629 0.10042109 0.086005211
0.037295043 0.10010575 0.086080559
0.036850609 0.099840395 0.086150557
0.036372751 0.099673979 0.086209841
0.035884216 0.099539191 0.086265564
0.035381638 0.099445999 0.086316943
0.034866191 0.099391006 0.086364038
0.034377955 0.099255368 0.08641994
0.041182764 0.07601843 0.089117013
0.040806442 0.075546429 0.08920984
0.040525049 0.074769251 0.089337878
0.040459447 0.07329841 0.089546204
0.040133476 0.072664201 0.089657679
0.040733315 0.069053501 0.090113297
0.040522382 0.068049945 0.090267539
0.040292583 0.067106813 0.090414867
0.040015839 0.066314653 0.090544723
0.039697796 0.065655112 0.090659171
0.039347731 0.065098964 0.090761714
0.038979441 0.064601146 0.090857588
0.038596198 0.064151339 0.090947859
0.038227879 0.063653924 0.091043554
0.037861634 0.063149415 0.091140188
0.037485555 0.062676631 0.091233075
0.037084453 0.062284537 0.091316693
0.036680445 0.061901867 0.091399156
0.036267161 0.061548635 0.091478266
0.03583343 0.061261147 0.091549769
0.035415504 0.060923211 0.091627106
0.03498067 0.060639061 0.09169817
0.03454214 0.060367554 0.09176784
0.034105096 0.060090676 0.091838129
0.033657521 0.059847854 0.091904417
0.033206161 0.059617467 0.091969371
0.032756381 0.059381753 0.092034824
0.032292381 0.059191599 0.092095129
0.031825297 0.059011467 0.092154235
0.031346262 0.058869973 0.09220881
0.030864468 0.058737054 0.092262462
0.030381987 0.058606461 0.092315875
0.029891785 0.058500692 0.092366323
0.029377738 0.058471762 0.092407957
0.028849317 0.058488823 0.092444241
0.02832537 0.058491707 0.092482179
0.027795061 0.058514774 0.092517838
0.027268125 0.058527306 0.092554681
0.026752209 0.058504097 0.092595622
0.026226455 0.058512777 0.092632882
0.025696535 0.058534779 0.092668526
0.025171181 0.058542028 0.092706069
0.024643855 0.058555581 0.092742704
0.024085933 0.058667637 0.092768058
0.023515835 0.058818802 0.09278886
0.022925114 0.059036441 0.092801966
0.02233897 0.059238978 0.09281683
0.021767506 0.059394702 0.092837065
0.021187332 0.059578426 0.092854127
0.02061991 0.059720688 0.092876017
0.020062299 0.059831753 0.092901453
0.019515479 0.059907988 0.09293092
0.01896723 0.059988961 0.092959791
0.018418038 0.060073003 0.092988297
0.017855166 0.060201056 0.093011849
0.017308028 0.060278252 0.093041129
0.016749324 0.060392804 0.093066201
0.016197462 0.060485378 0.093093812
0.015645912 0.060576819 0.093121432
-0.0051482674 0.080294825 0.092018545
-0.0057311803 0.08043965 0.092044026
-0.0063253324 0.080617845 0.092065856
-0.00690981 0.080767408 0.092090756
-0.0074874256 0.080896445 0.092117891
-0.0080970824 0.081120655 0.092134684
-0.0087234918 0.081394508 0.09214621
-0.0093151312 0.081565164 0.092168868
-0.0099203419 0.081776164 0.092187047
-0.01057932 0.082146361 0.092188016
-0.016652932 0.087484397 0.091937944
-0.017322196 0.08788503 0.091935612
-0.017902387 0.088021956 0.091961876
-0.018424755 0.087987274 0.092006788
-0.018938554 0.087927468 0.092054486
-0.019460928 0.087892905 0.092099361
-0.020001292 0.087911516 0.092138588
-0.020597538 0.088095903 0.092159644
-0.021247327 0.088439018 0.092163593
-0.021852301 0.0886494 0.092181891
-0.02247777 0.088920459 0.092193633
-0.023116257 0.089229837 0.092201203
-0.023742208 0.089502469 0.092212856
-0.024316458 0.089621633 0.092241034
0.044812426 0.20064612 0.071276985
0.044424511 0.20021473 0.071364976
0.044056676 0.19972819 0.07145866
0.043644257 0.19936401 0.071539499
0.043266147 0.19890577 0.071630307
0.042896703 0.19842391 0.07172361
0.042531677 0.1979297 0.071818143
0.042222939 0.19728109 0.071929008
0.041927189 0.19659702 0.072043598
0.041677527 0.19578648 0.072171405
0.041458115 0.19489294 0.072308138
0.041244946 0.19398244 0.072446518
0.041018561 0.19310802 0.072581179
0.040716328 0.19244157 0.072693989
0.040376969 0.19187714 0.07279592
0.040068075 0.19122896 0.072906718
0.039723143 0.19067974 0.073007099
0.039352842 0.19020019 0.07310009
0.038988359 0.18970437 0.073194817
0.038660441 0.18910854 0.073300116
0.038344286 0.18848032 0.07340879
0.03865201 0.18614101 0.073697902
0.038611293 0.18475741 0.073886171
0.038386613 0.18387856 0.074021362
0.038031247 0.18335773 0.074118651
0.037608836 0.18302101 0.074196659
0.037177071 0.18270999 0.074271843
0.036708407 0.18250015 0.074336447
0.036229707 0.18231767 0.074398138
0.035752013 0.18213247 0.074460119
0.035259388 0.18198824 0.074517764
0.034766607 0.18184456 0.074575409
0.034282789 0.18167619 0.074635655
0.033804931 0.18149154 0.074697539
0.033314012 0.18134269 0.074755639
0.032799654 0.18125799 0.074807063
0.033796534 0.17702869 0.075295486
0.0337607 0.17563173 0.075485148
0.0335344 0.17475738 0.075619772
0.033418991 0.17357846 0.07578662
0.033191778 0.17270644 0.075920925
0.032876801 0.17207493 0.076029986
0.032624625 0.17127126 0.076157227
0.032354802 0.17051591 0.076279238
0.03200328 0.16998494 0.076377727
0.031678587 0.16938004 0.076483935
0.031321086 0.16886523 0.076580711
0.030893639 0.16854252 0.076657191
0.030439505 0.16829276 0.07672593
0.030007191 0.16798311 0.076801084
0.029579684 0.16766019 0.076877601
0.029135754 0.16738251 0.076949261
0.028763758 0.16690743 0.077041812
0.028420618 0.16635326 0.07714276
0.028186081 0.16550115 0.07727503
0.027993562 0.16453391 0.07741943
0.027804485 0.16355729 0.077564865
0.027429681 0.1630899 0.077656575
0.029810401 0.15506558 0.078545071
0.029465426 0.15451628 0.07864549
0.02929295 0.15349422 0.078795604
0.029163186 0.15235478 0.07895828
0.028817618 0.15180725 0.079058468
0.028411569 0.1514256 0.079141162
0.027956454 0.15117839 0.079209633
0.027485995 0.15097353 0.079273708
0.027075347 0.15060453 0.079355031
0.026790282 0.149891 0.079472728
0.026481051 0.14924395 0.079583399
0.040375531 0.10505618 0.084470309
0.040063567 0.10439832 0.084582917
0.039902098 0.10329469 0.084744103
0.039678141 0.10237609 0.08488515
0.039373972 0.10169503 0.085000306
0.039042085 0.10109612 0.085106581
0.038679291 0.1005889 0.085202865
0.038292341 0.10015316 0.085291296
0.037882343 0.099785566 0.085372336
0.037452467 0.099476978 0.085447021
0.03700548 0.099219106 0.085516118
0.036503389 0.099124506 0.085567437
0.036015332 0.098988183 0.085623369
0.03552755 0.098851107 0.085679255
0.035019353 0.098774672 0.085728683
0.034524642 0.098658204 0.085782371
0.034050755 0.098479807 0.085842796
0.040761568 0.075527743 0.0885216
0.040436298 0.07489156 0.088633575
0.040432371 0.073222533 0.088865541
0.040118575 0.0725495 0.088981725
0.040772967 0.068763554 0.089459762
0.040500388 0.067958094 0.089591324
0.04027123 0.067012936 0.089739218
0.039989598 0.066236436 0.089867435
0.039672107 0.065575339 0.089982286
0.039320558 0.065023854 0.090084344
0.038960993 0.064497933 0.090183519
0.038603783 0.063964456 0.090283483
0.038267016 0.06336569 0.090391129
0.037904382 0.062849589 0.090489045
0.037535224 0.062354632 0.090584606
0.037138768 0.061947398 0.090669967
0.03672532 0.061595 0.090748921
0.036308497 0.061253272 0.090826601
0.03587845 0.060954124 0.090899356
0.03546124 0.060613587 0.090977013
0.035024669 0.06033545 0.091047332
0.034580395 0.060082003 0.091114812
0.034142651 0.05980739 0.091184661
0.033694677 0.059566021 0.09125077
0.033244506 0.059331484 0.091316029
0.032793622 0.059099242 0.091381021
0.032336056 0.058888711 0.091443546
0.031872518 0.058697015 0.091503829
0.031394333 0.058552898 0.091558583
0.030911447 0.058423437 0.091611572
0.030435711 0.05827117 0.091667362
0.029944008 0.058170184 0.091717109
0.029436894 0.05811888 0.091761038
0.028920801 0.058096334 0.091801651
0.028392773 0.058112159 0.091837868
0.02786536 0.058126301 0.091874197
0.027347079 0.05811058 0.09191402
0.026831781 0.058085524 0.091955021
0.026295323 0.058128491 0.09198802
0.025767757 0.058143064 0.092024364
0.025249086 0.058128662 0.09206406
0.024717664 0.058155447 0.092098922
0.024175463 0.058217026 0.092129722
0.023604492 0.058370739 0.092149951
0.023019429 0.058570288 0.092164747
0.02242549 0.058797814 0.092176311
0.021831073 0.059027165 0.092187725
0.021249942 0.059213571 0.09220399
0.020680845 0.059361853 0.092224821
0.020119937 0.059483171 0.092248723
0.019569328 0.059571788 0.092276469
0.019020367 0.059654877 0.092304841
0.018465593 0.059756652 0.092331007
0.017909471 0.059862964 0.092356622
0.017349429 0.059981734 0.092380896
0.016795041 0.060082331 0.092407197
0.016239157 0.060187891 0.092432946
0.015676048 0.060316339 0.092455998
-0.0058340952 0.080578357 0.091321073
-0.0064576939 0.080843642 0.091333173
-0.0070736511 0.081086181 0.091347866
-0.0076648388 0.08125554 0.091370441
-0.0082522016 0.081413522 0.091394261
-0.0088513978 0.08160641 0.091414332
-0.0094507691 0.081800148 0.09143424
-0.010038912 0.081960216 0.091457874
-0.010662824 0.082226649 0.091469981
-0.017484793 0.088197552 0.091189235
-0.018075513 0.088365518 0.091211982
-0.01861129 0.08837074 0.091252416
-0.019110743 0.088268034 0.091304645
-0.019618075 0.088189006 0.09135434
-0.020176221 0.088260487 0.091387562
-0.020840101 0.088644952 0.091386765
-0.021430735 0.088812575 0.091409571
-0.022013582 0.088957295 0.091434866
-0.022607259 0.089133903 0.0914566
-0.023205686 0.089324698 0.091476858
-0.023788469 0.08946909 0.091502227
-0.024341924 0.089526594 0.091536961
0.045250721 0.20076877 0.070487194
0.044926673 0.20016235 0.070593782
0.044578962 0.19962054 0.070693403
0.044221506 0.19910584 0.070790261
0.043811776 0.19873434 0.070871852
0.043427803 0.19829199 0.070960984
0.04300987 0.19794309 0.071040154
0.042609885 0.19754465 0.071124591
0.042249881 0.1970367 0.071220689
0.041913696 0.19646372 0.071323723
0.04159838 0.19583309 0.071432844
0.041307814 0.19513474 0.071549103
0.041058563 0.19432308 0.071677431
0.040821828 0.19347708 0.071809478
0.040542781 0.19274727 0.07192912
0.040229402 0.19211169 0.072038755
0.03990984 0.19149283 0.072146565
0.03958109 0.19089904 0.072251804
0.039215282 0.1904071 0.07234621
0.03887669 0.18984044 0.072448455
0.038553569 0.18923151 0.072555304
0.038333386 0.18834016 0.072692148
0.038489416 0.18641694 0.072938539
0.038484678 0.18493472 0.073138066
0.038289692 0.1839744 0.07328216
0.037942603 0.18343122 0.07338205
0.037542932 0.18303195 0.073466636
0.037122458 0.1826898 0.073545031
0.036665156 0.18244874 0.073612764
0.036196504 0.18223871 0.073677197
0.035725139 0.18203646 0.073740862
0.035242714 0.18186411 0.073801257
0.03476448 0.18168035 0.073862977
0.034302846 0.18145128 0.073929355
0.033850521 0.18119639 0.073998578
0.03339114 0.18096098 0.074065745
0.032910027 0.18078537 0.074126549
0.033842683 0.17673256 0.074599124
0.033720821 0.17557141 0.074764557
0.0334852 0.17472257 0.074896842
0.033277445 0.17379698 0.07503736
0.033044118 0.17294174 0.075170346
0.032704622 0.17237747 0.075272366
0.032377627 0.17177916 0.075378031
0.032089524 0.17107399 0.075495057
0.031754464 0.17049776 0.075598411
0.031380974 0.17002682 0.075690567
0.031027203 0.16950193 0.075788438
0.030611562 0.16914651 0.075868331
0.030145058 0.1689308 0.075933434
0.029703517 0.16864634 0.076005749
0.02921351 0.16849494 0.076063931
0.028805068 0.16811976 0.076145917
0.028568251 0.16727412 0.076277904
0.028299617 0.16651566 0.0764006
0.028102439 0.16556109 0.076544128
0.027875997 0.16468693 0.076679036
0.027647834 0.16381769 0.076813526
0.027280631 0.16332938 0.076907553
0.0297367 0.15509886 0.07782387
0.029353682 0.1546541 0.077913254
0.028988296 0.15416093 0.078007795
0.029100545 0.15235789 0.078241333
0.028764313 0.15178494 0.078344367
0.028355107 0.151412 0.078426138
0.027903194 0.15115602 0.078495443
0.027422564 0.15097886 0.078556351
0.026977152 0.15070516 0.078627564
0.026610468 0.15021566 0.07872171
0.02631445 0.14953232 0.078836456
0.040507175 0.10450368 0.083828077
0.04025466 0.10366967 0.083959974
0.040138051 0.10243331 0.084135935
0.039864324 0.10166226 0.084261052
0.039557256 0.10098977 0.084375285
0.039214678 0.10042264 0.084478214
0.038835935 0.099962696 0.08456926
0.038462386 0.099487163 0.084662132
0.038045354 0.099140659 0.084740922
0.037629724 0.098789662 0.084820054
0.037160676 0.098597176 0.084882021
0.036680192 0.098438427 0.08494024
0.036202762 0.098270707 0.084999472
0.035695903 0.098190263 0.085049219
0.035175636 0.09814918 0.085094616
0.034652956 0.098115399 0.085139126
0.034152485 0.098015845 0.085190997
0.040707968 0.07553716 0.087829992
0.040347211 0.075015336 0.08792869
0.040333405 0.073377736 0.088157855
0.040103614 0.072434872 0.088305734
0.039842919 0.071591146 0.08844208
0.04044386 0.067977354 0.088902019
0.040205896 0.067060456 0.089046933
0.039920658 0.066295587 0.089174062
0.039617486 0.065588474 0.089294463
0.039285123 0.064975344 0.089403786
0.038961813 0.064333118 0.089516602
0.038647011 0.063663125 0.089632615
0.038310096 0.063064493 0.089740343
0.03794156 0.062567607 0.089836158
0.037567828 0.062087595 0.08992999
0.037170112 0.0616844 0.090014793
0.036763519 0.061309606 0.090096377
0.036341727 0.060984135 0.090172179
0.035914838 0.060674652 0.090246089
0.035488959 0.06036213 0.090320259
0.03505303 0.060081735 0.090390801
0.034608603 0.059828669 0.090458125
0.034166839 0.059567258 0.090526395
0.033721067 0.059318751 0.090593264
0.033271201 0.059083067 0.090658501
0.032817636 0.058859728 0.090722322
0.032371629 0.058611721 0.090789102
0.031907689 0.058421597 0.090849079
0.031436674 0.058253959 0.090906441
0.030967785 0.058079816 0.090964541
0.030489687 0.057935044 0.091019206
0.029996797 0.057837844 0.091068223
0.029497463 0.057761461 0.091114968
0.02898665 0.057721905 0.091157377
0.028464109 0.057720102 0.091195315
0.027947389 0.057699591 0.091235422
0.027423281 0.057702795 0.091272809
0.026889104 0.057738386 0.091306396
0.026366403 0.057737134 0.091344304
0.025849296 0.057717949 0.091384292
0.025323775 0.057725765 0.091421098
0.024790304 0.05775892 0.091455057
0.024260841 0.057779573 0.091490351
0.0236989 0.0579044 0.091513582
0.023113754 0.058103807 0.091528021
0.022526328 0.058310665 0.091541536
0.0219301 0.058545448 0.091551922
0.021327097 0.058802545 0.091559604
0.020741798 0.059002519 0.091574021
0.020173088 0.059149101 0.091594562
0.019612411 0.059269883 0.09161827
0.019062508 0.059355982 0.091645971
0.018513218 0.05944027 0.091673926
0.017958669 0.059541516 0.091699794
0.017400581 0.059653983 0.091724433
0.016845258 0.059757315 0.091750115
0.016279139 0.059895888 0.09177167
0.015715534 0.060026221 0.091794163
-0.006581651 0.081044421 0.090603091
-0.007209844 0.081323273 0.090613559
-0.0078335181 0.08158844 0.09062551
-0.0084399711 0.08180289 0.090643033
-0.0090412851 0.082002237 0.090662204
-0.0096091647 0.082102232 0.090692163
-0.010183658 0.082221866 0.090720072
-0.010795889 0.082453474 0.090735681
-0.018216135 0.088612616 0.090472363
-0.018785106 0.088715971 0.090502001
-0.019324699 0.088732257 0.09054105
-0.019894766 0.08883898 0.090570353
-0.020526079 0.089127064 0.090579808
-0.021107439 0.089266926 0.090605401
-0.021621471 0.089207694 0.090652794
-0.022168478 0.089246117 0.090689503
-0.022726147 0.08931604 0.090722807
-0.023283733 0.089385465 0.090756111
-0.023851024 0.089483961 0.090786256
0.045691483 0.20088476 0.069698364
0.045358934 0.20030156 0.069802627
0.045054063 0.19964255 0.069914944
0.044714488 0.19907865 0.070017077
0.044322625 0.19865823 0.070103914
0.043925107 0.19825293 0.070189036
0.043505639 0.19790807 0.070267737
0.04308407 0.19756903 0.070345886
0.042678513 0.19718605 0.070428617
0.042304121 0.19671777 0.070520602
0.041948445 0.19619797 0.070618004
0.04160206 0.19565265 0.070718184
0.04127524 0.19505392 0.07082402
0.040972158 0.1943897 0.070936933
0.040678188 0.19370088 0.071052402
0.040374398 0.19303867 0.071165033
0.040083386 0.19234163 0.071281448
0.039776355 0.19168849 0.071393169
0.039448373 0.19109277 0.071498662
0.03911652 0.19050767 0.071603067
0.038806856 0.18986166 0.071714044
0.038518772 0.18915665 0.071831256
0.038372446 0.18806265 0.07199017
0.038395405 0.18650481 0.072198607
0.03833174 0.18518439 0.072381712
0.038176995 0.18411347 0.072538085
0.037857823 0.18349361 0.072646305
0.037473537 0.18305224 0.072735257
0.037058383 0.18269581 0.072815225
0.036617175 0.18241063 0.072887607
0.036156721 0.18217796 0.072954252
0.035693631 0.18195285 0.07302019
0.035223886 0.18174574 0.073084183
0.034757316 0.18153018 0.07314904
0.034324385 0.1812223 0.073223747
0.033903681 0.18088065 0.073302165
0.033542976 0.18037459 0.073398098
0.034056336 0.17747189 0.073750451
0.033826649 0.17660664 0.073884912
0.033639111 0.17562599 0.074031606
0.033406965 0.1747674 0.074165314
0.033124685 0.17404629 0.074284241
0.032872468 0.17324281 0.074412055
0.032546721 0.17264101 0.074518174
0.032182202 0.17214566 0.07461302
0.031823181 0.17163503 0.074709512
0.031433254 0.1712091 0.074796878
0.031031435 0.17081591 0.074880727
0.030641383 0.17039025 0.074968144
0.03023646 0.17000559 0.075051107
0.029800985 0.16970462 0.075125113
0.029306851 0.16956446 0.075181879
0.028862674 0.1692875 0.07525333
0.028460758 0.16889444 0.075337254
0.028287258 0.16787519 0.075488068
0.028185222 0.16665986 0.075659946
0.028020205 0.16561717 0.075813226
0.027805718 0.16471028 0.075952165
0.027554026 0.16390546 0.076080032
0.027176831 0.16344458 0.076171122
0.02670433 0.16324541 0.076234326
0.029258676 0.15474589 0.077185526
0.028858779 0.15434736 0.077269971
0.028542722 0.15371896 0.077378951
0.028607817 0.15204552 0.077599823
0.028216777 0.15162253 0.077686928
0.027775645 0.15133727 0.077759229
0.027306095 0.15112984 0.077823266
0.026881633 0.15079856 0.077900544
0.026477272 0.15041244 0.07798367
0.041045643 0.1043281 0.083104067
0.04065375 0.10390706 0.083190918
0.040530764 0.1026896 0.083365045
0.040327691 0.10170935 0.083513148
0.040049702 0.10095099 0.083636969
0.039723329 0.10033594 0.083745077
0.039353289 0.099850014 0.083839074
0.038987547 0.099351466 0.083934441
0.0386106 0.098886177 0.084026203
0.038206995 0.098499723 0.084109277
0.037776869 0.098191872 0.08418373
0.037325282 0.097947448 0.084251322
0.036845736 0.09778589 0.084309772
0.036356006 0.097654745 0.084364928
0.03584595 0.097583413 0.084413491
0.035316881 0.097568341 0.0844559
0.034788739 0.097550899 0.084498569
0.034284908 0.097461291 0.084549248
0.040666543 0.075507537 0.087142818
0.040301166 0.075000182 0.087239891
0.040205099 0.073627368 0.087438636
0.040051214 0.072440214 0.087615602
0.039903231 0.071234562 0.087794736
0.039711602 0.070168756 0.087957412
0.040137097 0.067118958 0.088353157
0.039849892 0.066360764 0.08847975
0.039570801 0.065576106 0.088609405
0.039268725 0.064865544 0.088730343
0.038978774 0.064116053 0.088855915
0.03868936 0.06336467 0.088981606
0.038335621 0.062820204 0.089083076
0.037961341 0.062341824 0.089176796
0.037585188 0.06186913 0.08926975
0.037191004 0.061454855 0.08935596
0.036783703 0.061082348 0.089437187
0.036358699 0.060766838 0.089511737
0.035939194 0.060433879 0.089588344
0.035498843 0.060167849 0.089657098
0.03506612 0.059877329 0.089728735
0.03462917 0.059600174 0.089798778
0.034187637 0.059337988 0.089867115
0.033743277 0.059084825 0.089934222
0.033300497 0.058826543 0.09000212
0.032847561 0.058601081 0.090066046
0.032399114 0.058361061 0.090131812
0.031939812 0.058155797 0.090193428
0.031477362 0.05796098 0.090253793
0.031015394 0.057764053 0.090314358
0.030538073 0.057617024 0.090369157
0.030052749 0.0574954 0.090420976
0.029561339 0.057393625 0.090470374
0.029053042 0.0573458 0.090513527
0.028533733 0.057333529 0.09055239
0.028016448 0.057314865 0.090592086
0.027489113 0.05732844 0.090628006
0.02695689 0.057357766 0.090662077
0.026432684 0.057361424 0.090699159
0.025915191 0.057343081 0.090738781
0.025387766 0.057357274 0.090774588
0.024857989 0.057378575 0.090809546
0.024324518 0.057411939 0.090843171
0.02378232 0.057473145 0.09087345
0.023203928 0.057650857 0.090890042
0.022634503 0.057799809 0.09091004
0.022046372 0.058008775 0.090923063
0.021441236 0.058272421 0.090929516
0.020832017 0.058549061 0.09093453
0.020247955 0.058745332 0.090949029
0.019672876 0.058912434 0.090966813
0.019106047 0.05905281 0.090987831
0.018555902 0.0591399 0.091015138
0.017998995 0.059248321 0.091039851
0.017444512 0.059349291 0.091065444
0.016880123 0.059482083 0.091087379
0.016319204 0.05960343 0.091110677
0.015749454 0.059753507 0.09113045
0.015193964 0.059857473 0.09115579
-0.0079740696 0.081838183 0.089889437
-0.0086251777 0.08218459 0.089892335
-0.009203339 0.082314983 0.089918815
-0.0097534489 0.082362339 0.089954451
-0.010325776 0.082475513 0.08998286
-0.010923738 0.08266484 0.090002894
-0.011554034 0.082949586 0.090012453
-0.012256335 0.083447523 0.089998707
-0.018950822 0.089037105 0.089753777
-0.019590795 0.08935076 0.089760236
-0.020176601 0.089503944 0.089784257
-0.02072297 0.089540243 0.089821041
-0.021245493 0.089505769 0.089865595
-0.021754073 0.089430317 0.08991465
-0.02227512 0.089391604 0.089959688
-0.022798663 0.08936055 0.090003908
0.045741715 0.20057671 0.06899704
0.045442507 0.19990189 0.069111213
0.045144603 0.19922367 0.069225825
0.04478135 0.19872467 0.069321059
0.044384763 0.1983173 0.069406457
0.043978669 0.1979358 0.069489114
0.043544255 0.19763191 0.069563389
0.043117054 0.19730811 0.069639765
0.042728283 0.19687931 0.069727443
0.042353749 0.19641116 0.069819406
0.042001233 0.1958828 0.069917828
0.041649051 0.19535317 0.070016369
0.041307606 0.1947946 0.07011801
0.040963069 0.19424425 0.070218831
0.040642746 0.19362758 0.070326842
0.040312745 0.19303733 0.07043191
0.040020414 0.19234391 0.070548169
0.039710373 0.19169924 0.070659101
0.039400563 0.19105367 0.070770212
0.039071728 0.19046013 0.0708756
0.038788136 0.18974277 0.070994414
0.038517304 0.18899031 0.071116999
0.038385302 0.18785727 0.071280599
0.038291723 0.18661909 0.071455553
0.038163044 0.18547675 0.071620181
0.038030647 0.18434475 0.071783684
0.037757806 0.18359801 0.071905605
0.037395313 0.18309693 0.072001114
0.036989614 0.18271427 0.07208389
0.036557294 0.18240483 0.072158694
0.036104258 0.18215191 0.072227433
0.035649829 0.18190305 0.07229571
0.035199344 0.18164295 0.072365277
0.034765631 0.18133743 0.072439656
0.034375392 0.1809122 0.072526984
0.034070373 0.18025379 0.072639503
0.034178112 0.17846338 0.072873935
0.034025535 0.17738655 0.073031425
0.033780709 0.17656291 0.073161706
0.033564903 0.17565979 0.073300548
0.033301998 0.17488568 0.073425472
0.032973018 0.17429256 0.073530883
0.032680377 0.17360009 0.073646948
0.032352693 0.17300346 0.073752813
0.03199875 0.17247903 0.073850796
0.031636178 0.17197804 0.07394629
0.031224016 0.17161319 0.074027136
0.030819885 0.17122629 0.074110299
0.030411232 0.17085171 0.074192181
0.029923644 0.17069373 0.074250676
0.029352644 0.17076422 0.074284576
0.028841125 0.17067191 0.074335992
0.028524585 0.17004484 0.074445054
0.028317729 0.16911715 0.074586488
0.028141541 0.16810519 0.074737057
0.028048461 0.16686544 0.074912198
0.027852966 0.16590646 0.075057067
0.027684836 0.16487242 0.07520996
0.027433774 0.1640657 0.075338401
0.027074816 0.16355516 0.075434864
0.026616512 0.16331677 0.07550209
0.029138509 0.15490676 0.076449975
0.028781237 0.15439136 0.076547056
0.028434139 0.15384822 0.076647028
0.02817465 0.15306461 0.076773018
0.027908439 0.1522996 0.076896951
0.027521888 0.15186435 0.076985374
0.027157102 0.15136951 0.077080101
0.026792662 0.15087399 0.077175073
0.026394725 0.15046991 0.077260055
0.041138753 0.10388999 0.082449816
0.040861987 0.103128 0.082574137
0.040714048 0.10198469 0.082740366
0.040509999 0.10100751 0.082888298
0.040193334 0.10036364 0.082999699
0.039853841 0.099787384 0.083103612
0.039498828 0.099257134 0.083202444
0.039149381 0.098710358 0.083303146
0.038755935 0.098293796 0.083389565
0.038364921 0.097870052 0.08347673
0.037941474 0.097542487 0.083553366
0.037490483 0.097296208 0.083620995
0.03698479 0.097212017 0.083670951
0.036480419 0.097123846 0.083721273
0.035966299 0.09706492 0.083768412
0.035432644 0.097063161 0.083809242
0.034906756 0.097039074 0.083852544
0.034383055 0.097008288 0.0838966
0.033873864 0.096934199 0.083945364
0.040256836 0.074979849 0.086551569
0.040185943 0.073526092 0.086760521
0.039998569 0.072446838 0.086925119
0.039906673 0.071060687 0.087126091
0.039698459 0.07004834 0.087282911
0.040079154 0.067142963 0.087663256
0.03980612 0.066338889 0.087795377
0.039544076 0.06549982 0.087931752
0.039277017 0.064676479 0.08806619
0.039000049 0.063885264 0.088196903
0.03869658 0.063178942 0.088317536
0.03833802 0.062650181 0.088417247
0.037965871 0.062164873 0.08851178
0.037587907 0.061698131 0.088604122
0.037186891 0.061305679 0.088687718
0.036774628 0.060949147 0.088767059
0.036354013 0.06061969 0.088843212
0.035936553 0.060280152 0.088920452
0.035499915 0.060002036 0.088990584
0.035083007 0.059660487 0.089068107
0.034654215 0.059357397 0.089141212
0.034217879 0.059078299 0.089211412
0.033779331 0.058806717 0.089280695
0.033340495 0.058535419 0.089349926
0.032885745 0.058315895 0.089413144
0.032435335 0.058082052 0.089477926
0.031987742 0.057839289 0.089543901
0.031527892 0.057635732 0.089605123
0.031064339 0.057444222 0.089664958
0.030591743 0.057281964 0.089721404
0.030119067 0.057119608 0.089777775
0.029628998 0.057013579 0.08982756
0.029114718 0.056985088 0.089868084
0.028593663 0.056978352 0.089906111
0.028075373 0.056962781 0.089945227
0.027542675 0.056993581 0.089978799
0.02701124 0.057020195 0.090012871
0.02649899 0.056985445 0.090054266
0.025981963 0.056965686 0.090093859
0.025450123 0.056993917 0.090127714
0.024924506 0.057001844 0.090163998
0.024392372 0.057030767 0.090197824
0.023851104 0.057088971 0.09022817
0.02329867 0.057183206 0.090254337
0.022740567 0.05729568 0.090278275
0.022184815 0.057400778 0.090303093
0.021594943 0.05761525 0.090314977
0.020967459 0.057950817 0.090312615
0.020341795 0.058280297 0.090310894
0.019730363 0.058564253 0.090314642
0.019160923 0.058713272 0.090334222
0.018592052 0.058860295 0.090354159
0.018042525 0.058945216 0.09038128
0.017481208 0.05906783 0.090404101
0.016923267 0.059179746 0.090428054
0.016356429 0.059320346 0.090448707
0.015786527 0.059470788 0.090468228
0.015241962 0.059539601 0.090497263
-0.0087353252 0.08234375 0.089165725
-0.0093293097 0.08252082 0.08918687
-0.0099114645 0.082663275 0.089211881
-0.010488456 0.082789943 0.089238644
-0.011054154 0.08288347 0.089269035
-0.011667699 0.083118424 0.089283943
-0.012341101 0.083531082 0.089279234
-0.013071761 0.084112734 0.089256078
-0.019749496 0.089650869 0.089013867
-0.020334914 0.089802809 0.089037806
-0.020857517 0.089768529 0.089082204
-0.021359319 0.089672901 0.089133419
-0.021867586 0.089596316 0.089182481
0.045780502 0.20029978 0.068292499
0.045479044 0.19963138 0.068406284
0.045158952 0.19901408 0.068514414
0.044794075 0.19851951 0.068609305
0.044385195 0.19814569 0.068691052
0.043959685 0.19781741 0.068767853
0.043525048 0.1975141 0.068841904
0.043101385 0.19718081 0.068919271
0.042731725 0.1966992 0.069012739
0.042378299 0.19617337 0.069110975
0.042054497 0.19556628 0.069218099
0.041721635 0.19498406 0.069322363
0.041372389 0.1944465 0.069421887
0.041022666 0.19391051 0.06952133
0.04067675 0.19336396 0.069621846
0.040346138 0.19277556 0.069726877
0.040053032 0.19208439 0.069842994
0.039745241 0.19143313 0.069954872
0.039416797 0.19083872 0.070060641
0.039083548 0.19025758 0.070164897
0.038797565 0.18954688 0.070283175
0.038520787 0.18881074 0.070404224
0.038347419 0.18779102 0.070556141
0.038198706 0.18670398 0.070715256
0.038022928 0.18569088 0.070866466
0.037824571 0.18474001 0.071010813
0.037621029 0.18380314 0.071153663
0.03729213 0.18320987 0.071259305
0.03688943 0.18281914 0.071342796
0.036471501 0.18246995 0.071421921
0.036031298 0.18218198 0.071494311
0.035596266 0.18187989 0.071568325
0.035176337 0.18153597 0.07164678
0.034794912 0.18108703 0.071736731
0.03448727 0.18043548 0.071848571
0.034351405 0.17931329 0.072011553
0.034246016 0.1781071 0.072183728
0.034004733 0.1772739 0.072315305
0.03370814 0.17659217 0.072430477
0.033415832 0.17589876 0.072546922
0.033158436 0.17510942 0.072673813
0.032811683 0.17456515 0.072774097
0.032471418 0.1740033 0.072876252
0.032098517 0.17353061 0.072968669
0.031732418 0.17303964 0.07306318
0.031320348 0.17267442 0.073143996
0.030902637 0.17232461 0.073223151
0.030431202 0.1721223 0.07328622
0.030052891 0.17166454 0.07337714
0.029586947 0.17144722 0.073441811
0.0290475 0.17143127 0.073484756
0.028594816 0.17117733 0.073553503
0.028311366 0.1704596 0.0736726
0.028200591 0.16926858 0.073843025
0.028066928 0.1681402 0.074006669
0.027935775 0.1670047 0.074171141
0.027701968 0.16615096 0.074304961
0.027485402 0.16524984 0.074443921
0.027228488 0.16445923 0.074570939
0.026919894 0.16381049 0.074682541
0.026511561 0.16343494 0.074764505
0.026047619 0.16321218 0.074829802
0.028729651 0.15436405 0.075831562
0.028374454 0.15384316 0.075929277
0.028013373 0.15333804 0.076025233
0.027680248 0.15275665 0.076129556
0.027370641 0.15211035 0.0762408
0.027036972 0.15153044 0.076344945
0.026709922 0.15093213 0.076451123
0.026295474 0.15057352 0.076531217
0.041390337 0.102983 0.081847407
0.041128941 0.10217559 0.081976824
0.040953234 0.10111456 0.082134269
0.040692993 0.10030372 0.082264043
0.040355064 0.09972287 0.082368515
0.04000362 0.099172562 0.082470655
0.039656393 0.098607123 0.08257474
0.039287031 0.098112881 0.082670458
0.038894221 0.09769395 0.082757123
0.038495511 0.097294062 0.08284162
0.038071256 0.096976131 0.082916304
0.037629373 0.096715108 0.082984306
0.037133671 0.096609168 0.083035588
0.03660186 0.096602365 0.083076857
0.036077388 0.096573763 0.083120495
0.035550177 0.09655337 0.083163321
0.035014726 0.096556947 0.083203435
0.034469984 0.096588388 0.083240442
0.033932731 0.096597634 0.083280012
0.040461384 0.074159622 0.085957997
0.040205427 0.073300563 0.08609695
0.039966755 0.072386406 0.08624243
0.039878339 0.070988946 0.086445332
0.039706789 0.069858789 0.086616501
0.039366581 0.069270849 0.086723335
0.039788678 0.066232547 0.087120965
0.039525233 0.065397829 0.087257035
0.039273679 0.064524844 0.087397702
0.038985148 0.063770704 0.087524235
0.038676947 0.063080005 0.087643169
0.038313065 0.06256786 0.087740928
0.037949875 0.062053852 0.087838978
0.037568539 0.061597914 0.087930083
0.037160121 0.061229192 0.088010825
0.036758155 0.060839795 0.088094048
0.036341153 0.060498871 0.088171452
0.035933375 0.060128041 0.088252477
0.035514433 0.059792921 0.088329293
0.035115212 0.059394799 0.088413455
0.034690835 0.059077315 0.088488162
0.034260243 0.058779716 0.088560447
0.033819266 0.058515735 0.088628799
0.033381909 0.058240019 0.088698447
0.03292983 0.058011539 0.088762552
0.032488547 0.057748549 0.088830814
0.032042533 0.057500578 0.088897169
0.0315881 0.057279781 0.088960394
0.031116916 0.057112716 0.089017153
0.030647144 0.056941211 0.089074537
0.030176267 0.056773484 0.089131415
0.029684477 0.056672409 0.089180365
0.029180959 0.056609645 0.089224815
0.028662106 0.056595914 0.089263469
0.028133657 0.056612842 0.089298338
0.027600171 0.056646101 0.089331374
0.027068732 0.056672692 0.089365236
0.026548455 0.056663826 0.089403272
0.026032984 0.056639135 0.089443155
0.02551445 0.056624286 0.089481927
0.024993086 0.056618348 0.089519605
0.02445275 0.056673847 0.089549936
0.023929808 0.056673221 0.089587018
0.023387507 0.056734785 0.089616627
0.022840338 0.056812137 0.089644454
0.022290956 0.056896456 0.089671396
0.021728057 0.0570243 0.089693226
0.021128016 0.057271555 0.089700848
0.020483159 0.057662591 0.089691341
0.01981318 0.058134913 0.08967229
0.019203709 0.058412284 0.089676335
0.018641207 0.058538929 0.08969821
0.018081829 0.05865553 0.089721382
0.017533243 0.058737345 0.089748673
0.016966868 0.058876358 0.08976914
0.016395638 0.059030838 0.089787781
0.015832182 0.059160396 0.089809299
0.015281544 0.05924876 0.089835756
-0.0094235763 0.082632869 0.088465065
-0.010036884 0.08286716 0.088479891
-0.010618642 0.083007976 0.088504903
-0.011200234 0.083148509 0.088529982
-0.011825319 0.083417751 0.08854083
-0.012482964 0.083783038 0.088541105
-0.01316415 0.084218115 0.088533714
-0.013805915 0.084536932 0.088539198
-0.021050669 0.090170309 0.088324182
0.045759335 0.20018744 0.067570217
0.045445971 0.19955172 0.067680597
0.045115367 0.1989632 0.067785747
0.044745937 0.19848111 0.067879319
0.044335425 0.19811167 0.067960523
0.043901332 0.19780689 0.068034753
0.043463446 0.19751264 0.068107709
0.043041803 0.19717348 0.068185665
0.042701907 0.19661063 0.06828811
0.042394981 0.19595711 0.06840042
0.042086795 0.19530734 0.068512306
0.041783869 0.19464293 0.068625748
0.041468427 0.19401285 0.068735458
0.041124359 0.19346128 0.068836607
0.040773869 0.19292739 0.068935849
0.040469401 0.1922673 0.069048882
0.040179238 0.19156809 0.069166124
0.039859384 0.19095007 0.069274597
0.039493121 0.19045942 0.069369055
0.039145116 0.18991855 0.069469124
0.038827728 0.18929382 0.069578223
0.038521804 0.18863758 0.069690838
0.038280666 0.18780403 0.069822796
0.03808859 0.18683574 0.069969513
0.037889302 0.18588731 0.070114031
0.037659548 0.18502244 0.070249423
0.037422147 0.18417844 0.070382632
0.037123799 0.18350126 0.070497446
0.036742065 0.18305302 0.070587397
0.036353432 0.18262382 0.070675157
0.035948664 0.18223861 0.070758134
0.035539854 0.18186441 0.07083983
0.035166077 0.18139447 0.070932016
0.034846455 0.18077584 0.071040601
0.034589723 0.17998469 0.071167909
0.034430429 0.17892656 0.07132443
0.034211148 0.17803313 0.071462967
0.033933394 0.17729959 0.071584024
0.033627041 0.17664471 0.07169649
0.033269167 0.1761311 0.071793422
0.032968491 0.1754605 0.071907632
0.032616176 0.1749316 0.072006345
0.032211803 0.1745452 0.072089419
0.031772349 0.17425528 0.072161958
0.031375073 0.17384937 0.0722472
0.030944766 0.17353432 0.072322451
0.030495746 0.17327063 0.072392188
0.030019054 0.17308253 0.072453596
0.029510453 0.17298204 0.072505347
0.028950114 0.17302322 0.072541721
0.028586781 0.17252462 0.072637066
0.028386934 0.17157756 0.072781526
0.028178988 0.17065299 0.072923385
0.028132297 0.16928616 0.073113702
0.028018756 0.16810265 0.073283948
0.027819466 0.1671541 0.073428497
0.027565505 0.16635558 0.073556691
0.027313145 0.16555241 0.073685355
0.02702963 0.16483505 0.073804587
0.026700253 0.16424306 0.073910192
0.026344636 0.16372328 0.074007906
0.025910348 0.16341908 0.074082002
0.025415787 0.16328001 0.074138075
0.024886003 0.16323754 0.074183464
0.027977644 0.1532674 0.07531444
0.027600134 0.15280737 0.07540559
0.027269267 0.1522198 0.075510755
0.026939305 0.15162945 0.075616166
0.026605459 0.15104984 0.075720333
0.041948155 0.10275083 0.081130616
0.041567989 0.10229491 0.081221305
0.041379549 0.10127176 0.081374727
0.041155778 0.10034934 0.081517331
0.040852077 0.099644125 0.081638269
0.040502496 0.09908624 0.081741549
0.040164031 0.098492749 0.081849098
0.039790384 0.098012127 0.081943162
0.039424658 0.097506188 0.08204028
0.039037257 0.097070016 0.082129076
0.038631812 0.096691623 0.082210936
0.038206309 0.09637773 0.082285061
0.037763 0.096120998 0.082352452
0.037280556 0.095990539 0.082404725
0.036749333 0.096003994 0.082441144
0.03622042 0.095988445 0.082483247
0.035692059 0.095971003 0.082525603
0.035154168 0.09598203 0.082564726
0.034586519 0.096081167 0.082594261
0.034042411 0.096110344 0.082631387
0.040227816 0.073065661 0.085434727
0.039930709 0.072339244 0.085558169
0.03985592 0.070898153 0.085766882
0.039695136 0.069733709 0.085942589
0.039378442 0.069070116 0.086058423
0.039774239 0.066116296 0.086447716
0.039494753 0.065333106 0.086577922
0.03923982 0.06447126 0.086717494
0.038948938 0.06372454 0.086843356
0.038628221 0.063074127 0.086957708
0.038261741 0.062570579 0.087054573
0.037890375 0.062082656 0.087149501
0.037510365 0.061622612 0.087241083
0.037125476 0.061178178 0.087330833
0.036752783 0.060694508 0.087425269
0.036354508 0.060293347 0.087509885
0.03596434 0.059866026 0.087597646
0.035558291 0.059489742 0.087679289
0.035147682 0.059127949 0.087759122
0.034728482 0.058793873 0.087835751
0.03430292 0.058480203 0.087909833
0.033867374 0.058198564 0.087980218
0.033426162 0.057935186 0.088048354
0.032982908 0.057678364 0.088115752
0.032542698 0.057412125 0.08818423
0.03209275 0.057176717 0.088249013
0.031632587 0.056974225 0.088309921
0.031160051 0.056811683 0.088366024
0.030688005 0.056647331 0.088422358
0.03021366 0.056490444 0.088477798
0.029722346 0.056388073 0.088526689
0.029220074 0.056321084 0.088571437
0.028718293 0.056252569 0.088616371
0.028202491 0.056229077 0.088655852
0.027668763 0.056263059 0.08868853
0.027135434 0.0562957 0.088721342
0.026616339 0.056282684 0.088759556
0.026092213 0.05628597 0.0887959
0.025567288 0.056291781 0.088831961
0.025045294 0.056287736 0.088869087
0.024515973 0.056307651 0.088903502
0.023993814 0.056304455 0.088940576
0.023462903 0.056329787 0.088974267
0.022920372 0.056391798 0.08900357
0.022370439 0.056477934 0.089029953
0.021821456 0.056561008 0.089056805
0.021232426 0.05677291 0.089068256
0.02063608 0.057008125 0.089076824
0.019956823 0.05750975 0.089053646
0.019273471 0.058024794 0.089028947
0.018689785 0.058219649 0.08904238
0.018127505 0.058345318 0.089064047
0.01756892 0.058459215 0.089087203
0.016996887 0.058616288 0.089105152
0.016430043 0.058756746 0.089125134
0.015866419 0.058886983 0.089146338
0.01531357 0.058982544 0.089171633
-0.010122659 0.082953803 0.087760545
-0.010746792 0.083219796 0.087771505
-0.011376167 0.083501637 0.087780818
-0.011995161 0.08375255 0.087793499
-0.0126292 0.084047921 0.0878013
-0.013267921 0.084357396 0.087807506
-0.013864243 0.084541254 0.087827675
0.04569611 0.20019017 0.066835225
0.045349322 0.19964612 0.066935681
0.045020737 0.19905204 0.067041658
0.044655554 0.1985586 0.067136452
0.044224255 0.198246 0.067211442
0.043799125 0.19791666 0.06728825
0.04337275 0.1975908 0.067364618
0.042942293 0.19727601 0.067439817
0.042608276 0.19669701 0.067544088
0.042357415 0.19588989 0.067673504
0.042073622 0.195173 0.067792952
0.041808292 0.1944057 0.067918018
0.041521296 0.19369783 0.068036482
0.041206554 0.19306573 0.068146586
0.040881678 0.19246164 0.068253651
0.040575281 0.19180667 0.068366334
0.040240422 0.19122997 0.068470284
0.039896585 0.19067781 0.06857162
0.039534964 0.19017433 0.068667598
0.039180614 0.18965089 0.068765782
0.038833767 0.18910705 0.068866186
0.038485676 0.18856667 0.068966255
0.038205653 0.18783954 0.069086798
0.037986118 0.18694642 0.069225706
0.037792504 0.18598238 0.069372341
0.037534818 0.18519425 0.069499709
0.037262391 0.18444619 0.069622569
0.036964118 0.18376914 0.069737673
0.036617566 0.18322442 0.069838151
0.036255091 0.18272339 0.069933854
0.035876069 0.18226768 0.070024595
0.035502769 0.18179619 0.070116974
0.035166435 0.18122347 0.070220567
0.034883864 0.18050325 0.07034044
0.034631073 0.17970149 0.070469245
0.034413621 0.17880303 0.070608743
0.034137242 0.1780659 0.070730358
0.033820886 0.1774382 0.070840046
0.033497367 0.17683035 0.070947513
0.033113562 0.17638788 0.071036771
0.032742806 0.17590937 0.071129963
0.032376893 0.17541757 0.071224645
0.031980265 0.17501022 0.071310043
0.031554103 0.17468363 0.071386531
0.031127114 0.17435944 0.071462683
0.030715145 0.17399409 0.07154344
0.030234465 0.17381682 0.071603529
0.029717425 0.17373966 0.071652517
0.029154705 0.17378725 0.07168787
0.028698634 0.17354283 0.071755216
0.028361462 0.17297226 0.071858622
0.028238295 0.17181526 0.072026521
0.028117837 0.17065069 0.072195351
0.028011449 0.1694476 0.072368369
0.027971117 0.16806361 0.072561286
0.027733093 0.16722134 0.07269448
0.027457224 0.16648281 0.072816379
0.02718349 0.16573842 0.072938859
0.026888764 0.16505173 0.073054954
0.026536804 0.16452183 0.073153876
0.026167646 0.16403882 0.073247597
0.025752177 0.16368306 0.073327348
0.025284125 0.16347137 0.073391169
0.024791488 0.16332701 0.073447518
0.024283674 0.16322438 0.073499359
0.027562754 0.1527413 0.074694321
0.027184809 0.15228266 0.074785322
0.026821204 0.15178445 0.074880682
0.026476927 0.15123352 0.074981906
0.042045146 0.10230154 0.080478378
0.041778661 0.10150945 0.080606341
0.041593336 0.10046013 0.080764793
0.041318029 0.09966366 0.080896787
0.040990569 0.099034622 0.08100874
0.04066173 0.098410085 0.081120148
0.040329687 0.097796075 0.081230246
0.039950021 0.097334966 0.081322044
0.039578907 0.096846275 0.081417106
0.039181013 0.096443765 0.081501886
