# .PCD v0.7 - Point Cloud Data file format
VERSION 0.7
FIELDS x y z
SIZE 4 4 4
TYPE F F F
COUNT 1 1 1
WIDTH 1298
HEIGHT 1
VIEWPOINT 0 0 0 1 0 0 0
POINTS 1298
DATA ascii
-0.0071031582 0.16601063 -0.015150648
-0.0065916646 0.16593756 -0.015079521
-0.0060775727 0.16587241 -0.014919117
-0.0055648424 0.16580297 -0.014806971
-0.0050520599 0.16573399 -0.014689773
-0.0045389365 0.16566558 -0.014566025
-0.0040280558 0.16559048 -0.014517535
-0.003517231 0.16551512 -0.014471741
-0.003006639 0.16543983 -0.014436487
-0.0024976414 0.1653585 -0.014457677
-0.0019908547 0.16527064 -0.014552312
-0.0014921706 0.1651572 -0.014933836
-0.084484108 0.17771725 -0.027480491
-0.083967485 0.17766011 -0.027230423
-0.083427325 0.17764173 -0.02654849
-0.082895495 0.1776095 -0.026017539
-0.082378007 0.17755374 -0.025751226
-0.081868447 0.17748477 -0.025628559
-0.081360169 0.17741433 -0.025534611
-0.080858201 0.17733337 -0.025552515
-0.080375962 0.17721976 -0.025930624
-0.079886861 0.17711759 -0.02618606
-0.079412952 0.1769907 -0.026720058
-0.078936592 0.17686777 -0.0272079
-0.077643476 0.17627773 -0.031175461
-0.077140428 0.17619845 -0.031173598
-0.076622695 0.17614311 -0.030902438
-0.076113142 0.17607412 -0.030779991
-0.075602978 0.17600673 -0.030650154
-0.075095288 0.17593476 -0.030562457
-0.074589282 0.17586015 -0.030505899
-0.074084468 0.17578448 -0.030473553
-0.07358443 0.17569965 -0.03052558
-0.073080458 0.17562248 -0.030510463
-0.072565831 0.17556144 -0.030294608
-0.072052576 0.17549911 -0.03010565
-0.0715551 0.175411 -0.030207645
-0.071060121 0.17531823 -0.030352641
-0.070575692 0.17520866 -0.030694801
-0.07010594 0.17507522 -0.031305864
-0.069618061 0.17496167 -0.031684965
-0.069117002 0.17485628 -0.031987306
-0.068615131 0.17475285 -0.032256648
-0.068113759 0.17464826 -0.032549802
-0.067608066 0.17455691 -0.032683659
-0.067102209 0.17446636 -0.032819498
-0.059495747 0.17316319 -0.034128573
-0.05898276 0.17309481 -0.034004547
-0.058469094 0.17302842 -0.033858258
-0.057953775 0.17296696 -0.033656571
-0.057300106 0.17333768 -0.028550092
-0.056759045 0.17335664 -0.027434908
-0.056221589 0.17336504 -0.026449539
-0.05568821 0.17336002 -0.025603592
-0.055158652 0.17334333 -0.024899464
-0.054632217 0.17331661 -0.024297133
-0.054101557 0.17328753 -0.023734331
-0.053574674 0.17324735 -0.023296803
-0.053052083 0.17319979 -0.022934362
-0.052533627 0.1731455 -0.022650659
-0.05201675 0.17308876 -0.022395734
-0.051506341 0.17302194 -0.022259612
-0.050995871 0.17295435 -0.022120569
-0.050487038 0.17288487 -0.022015356
-0.049977995 0.17281516 -0.02190144
-0.049469505 0.17273396 -0.021922026
-0.048957586 0.17266275 -0.021840997
-0.048446141 0.17258914 -0.021775417
-0.047932889 0.17252161 -0.021642074
-0.047487669 0.17224132 -0.023918044
-0.046976015 0.17216906 -0.023848675
-0.046456993 0.17211907 -0.023507252
-0.04593702 0.17207243 -0.023139227
-0.045421336 0.17201227 -0.022923067
-0.044902656 0.17196167 -0.02259969
-0.044390835 0.17188974 -0.022526454
-0.043876708 0.17182498 -0.022361889
-0.043363757 0.17175628 -0.022241533
-0.042854253 0.17167671 -0.022242915
-0.042344753 0.17159732 -0.022242647
-0.041833203 0.17152408 -0.022173051
-0.041323088 0.17144696 -0.022158135
-0.040812835 0.17136998 -0.022130601
-0.040304214 0.17128763 -0.022163432
-0.039795853 0.17120446 -0.022205323
-0.039283495 0.17113462 -0.022109054
-0.038774371 0.17105375 -0.022125121
-0.038231898 0.17107753 -0.020955883
-0.037719868 0.17100577 -0.020869713
-0.037208408 0.17093256 -0.02079992
-0.036691442 0.1708765 -0.020537902
-0.036171202 0.17083052 -0.020162474
-0.035652574 0.17077963 -0.019842036
-0.035133358 0.17073089 -0.019497968
-0.034617275 0.17067198 -0.01926741
-0.034102157 0.17061014 -0.019070227
-0.033593692 0.17052718 -0.019109767
-0.033088453 0.17043492 -0.019264936
-0.032590285 0.17031975 -0.019666038
-0.032085735 0.17022546 -0.019843925
-0.031578861 0.1701377 -0.019937336
-0.031072836 0.17004737 -0.020059697
-0.030565459 0.16996159 -0.02014197
-0.030056426 0.16988049 -0.020160664
-0.029547684 0.16979857 -0.020188592
-0.029026056 0.16975726 -0.019760713
-0.028509792 0.16969901 -0.019523017
-0.027989924 0.16965219 -0.019157346
-0.027478158 0.16957965 -0.019080002
-0.026967976 0.16950224 -0.019057252
-0.026457177 0.16942731 -0.019017972
-0.025944753 0.16935706 -0.0189148
-0.025431402 0.16928962 -0.018780265
-0.024920167 0.16921574 -0.01871822
-0.024410501 0.16913646 -0.01871619
-0.023903349 0.16905028 -0.018803157
-0.023398763 0.16895528 -0.018977836
-0.022887686 0.16888064 -0.018924125
-0.022335565 0.16893457 -0.017416593
-0.021822419 0.16886657 -0.017288433
-0.021302205 0.16882066 -0.016912233
-0.020785088 0.16876511 -0.016644206
-0.02027107 0.1686997 -0.016486926
-0.019759562 0.16862649 -0.016417243
-0.019245619 0.16856107 -0.016260032
-0.018734246 0.16848773 -0.016202739
-0.018222626 0.16841488 -0.016128834
-0.017712515 0.16833726 -0.016108511
-0.0172021 0.16826089 -0.016074277
-0.016690515 0.16818787 -0.01600218
-0.016180327 0.16811083 -0.015986474
-0.015672132 0.16802728 -0.016032709
-0.015165622 0.1679384 -0.016138729
-0.014662585 0.16783912 -0.016372535
-0.014159915 0.16773836 -0.016611895
-0.013658268 0.16763465 -0.016895313
-0.0131593 0.16752189 -0.017269012
-0.0059640296 0.16660541 -0.015097391
-0.0054525696 0.16653204 -0.015029477
-0.0049390513 0.16646533 -0.014886623
-0.004426267 0.16639601 -0.014773188
-0.0039167069 0.16631685 -0.014770228
-0.0034064092 0.16624032 -0.014748663
-0.0028948933 0.16616701 -0.014679933
-0.0023876075 0.1660807 -0.014757328
-0.0018779188 0.16600175 -0.014751825
-0.084386662 0.17841882 -0.027858652
-0.083865874 0.17836823 -0.027531583
-0.083334297 0.17833559 -0.027005479
-0.082801796 0.17830439 -0.026462335
-0.082289949 0.17823893 -0.026298314
-0.081784718 0.17816374 -0.026260048
-0.081280559 0.17808631 -0.026236873
-0.08079116 0.17798468 -0.02648589
-0.08031439 0.17786317 -0.026968755
-0.079824783 0.17776176 -0.027214926
-0.079346672 0.17764218 -0.027674586
-0.077544384 0.17698424 -0.031530622
-0.07703653 0.17691334 -0.031442307
-0.076518074 0.17685898 -0.031159297
-0.0760049 0.17679644 -0.030972548
-0.075492419 0.17673208 -0.030795772
-0.074981689 0.17666578 -0.030653298
-0.074476652 0.17658959 -0.030615106
-0.073973641 0.17651014 -0.03061527
-0.073475748 0.17642282 -0.030708298
-0.072976127 0.17633805 -0.030770946
-0.072473116 0.17625871 -0.03076994
-0.07196416 0.17618938 -0.030662879
-0.071465336 0.17610349 -0.030738879
-0.07097216 0.17600793 -0.030917108
-0.070490129 0.17589457 -0.031303447
-0.070018433 0.17575753 -0.031960659
-0.069520168 0.17564297 -0.032365728
-0.069019943 0.17553475 -0.032699842
-0.068516992 0.17543538 -0.032934874
-0.068016164 0.17532901 -0.033248238
-0.06751664 0.1752186 -0.033606928
-0.058886252 0.17377326 -0.034761671
-0.058369912 0.1737151 -0.034522973
-0.057852827 0.17365955 -0.03425511
-0.057188749 0.17406155 -0.028764557
-0.056647658 0.17408083 -0.027645878
-0.05611065 0.17408717 -0.026672482
-0.055577464 0.17408153 -0.025833178
-0.055050559 0.17405622 -0.025214922
-0.054521792 0.17403664 -0.024532132
-0.053999163 0.17399846 -0.024069309
-0.053472612 0.17396006 -0.023602434
-0.052949943 0.17391327 -0.023242503
-0.052436613 0.17385101 -0.023052547
-0.051922746 0.17378874 -0.022851042
-0.051447369 0.17361525 -0.023934904
-0.050942957 0.17351988 -0.024113894
-0.050435446 0.17343457 -0.024191063
-0.049926661 0.17335266 -0.024218839
-0.049417682 0.17327218 -0.024241872
-0.048913937 0.17317471 -0.024444327
-0.048405357 0.17309259 -0.02448551
-0.047896374 0.17301163 -0.024502683
-0.047390155 0.17292209 -0.02462687
-0.046880022 0.17284456 -0.024605654
-0.046357371 0.17280659 -0.024140522
-0.045834489 0.17276902 -0.023670733
-0.04531651 0.17271565 -0.023367465
-0.044798676 0.1726622 -0.023075838
-0.044284694 0.17259738 -0.022922941
-0.043771263 0.17253014 -0.022786014
-0.043258652 0.17246045 -0.022676896
-0.042748049 0.17238449 -0.022637915
-0.042237371 0.17230889 -0.022605877
-0.041725561 0.17223687 -0.022522762
-0.041215867 0.17215797 -0.022516802
-0.040706612 0.17207816 -0.022532202
-0.040198576 0.171994 -0.022585146
-0.039691068 0.17190856 -0.022663713
-0.03918374 0.17182221 -0.022741202
-0.038677935 0.17173176 -0.022876233
-0.03816849 0.17165217 -0.022877961
-0.037621431 0.17168957 -0.021544814
-0.037103817 0.17163546 -0.02126072
-0.036584925 0.17158547 -0.020930286
-0.036062546 0.17154631 -0.020478424
-0.035540011 0.17150775 -0.02001987
-0.035018768 0.17146483 -0.019599158
-0.034497943 0.17142086 -0.019201264
-0.033978872 0.17137125 -0.018866517
-0.033463094 0.1713116 -0.018644691
-0.032946989 0.17125271 -0.018414173
-0.032437485 0.17117329 -0.018414147
-0.031959035 0.1709976 -0.019527335
-0.031462181 0.17087917 -0.019976325
-0.030957941 0.17078285 -0.020165518
-0.030453518 0.17068797 -0.020350169
-0.029945519 0.17060366 -0.020404905
-0.0294358 0.17052531 -0.020403691
-0.028923025 0.17045614 -0.020288829
-0.028409202 0.17039022 -0.020137243
-0.027894119 0.17032833 -0.019940447
-0.027377941 0.17026961 -0.01970797
-0.026861494 0.17021193 -0.019463867
-0.026346855 0.17014864 -0.019282799
-0.025832755 0.17008357 -0.019121699
-0.025319004 0.17001814 -0.018975824
-0.024805868 0.16994987 -0.018850461
-0.024294445 0.16987631 -0.01878459
-0.02378653 0.16979229 -0.018847123
-0.02328149 0.16969892 -0.019003522
-0.022774018 0.16961338 -0.019083191
-0.017611274 0.16903099 -0.016705332
-0.017101433 0.16895273 -0.016692176
-0.016585857 0.16889232 -0.016478838
-0.016069161 0.16883527 -0.01622775
-0.016022345 0.16731501 -0.032671727
-0.015513821 0.16723269 -0.032715142
-0.014551214 0.16856454 -0.016613781
-0.014045658 0.1684732 -0.016758371
-0.084284879 0.17912725 -0.028156199
-0.08377219 0.17906386 -0.027979404
-0.083251275 0.17901352 -0.027649522
-0.082723245 0.17897446 -0.02718699
-0.082208559 0.17891438 -0.026971512
-0.081712052 0.17882477 -0.027091134
-0.081208862 0.17874648 -0.027089592
-0.080734961 0.17861955 -0.027623817
-0.080255486 0.17850295 -0.028060563
-0.07977365 0.17838947 -0.028448828
-0.077947579 0.17777196 -0.031876355
-0.077447362 0.17768815 -0.03192782
-0.076934978 0.17762446 -0.031754844
-0.07641504 0.17757258 -0.031443082
-0.07589677 0.17751811 -0.031161562
-0.075383559 0.17745562 -0.030974381
-0.074871607 0.17739113 -0.030810583
-0.074366301 0.17731529 -0.030768264
-0.073866151 0.17723146 -0.030819841
-0.073367156 0.17714573 -0.030893829
-0.072871141 0.17705537 -0.031022497
-0.072373733 0.1769671 -0.031126212
-0.071877785 0.17687668 -0.031255431
-0.071377531 0.17679296 -0.031305827
-0.070884459 0.17669778 -0.031490881
-0.070409015 0.1765741 -0.031998821
-0.069923215 0.17643052 -0.032745782
-0.069421552 0.17632706 -0.033026431
-0.068921268 0.17621906 -0.033358101
-0.068426825 0.17609254 -0.033897482
-0.067924507 0.17599103 -0.03415627
-0.067423634 0.17588542 -0.034472294
-0.058778167 0.17448802 -0.03511139
-0.058258213 0.17444082 -0.034738645
-0.05774013 0.17438824 -0.034437235
-0.057226323 0.17432214 -0.034287713
-0.056548342 0.17476693 -0.028283916
-0.056012236 0.17477 -0.027336039
-0.055475891 0.17477435 -0.026384939
-0.054951087 0.17474234 -0.025841545
-0.054426126 0.17471132 -0.025298499
-0.053907242 0.17466134 -0.024968054
-0.053394787 0.17459112 -0.024864715
-0.052902475 0.17445865 -0.025481928
-0.052386701 0.17439872 -0.025263153
-0.051871538 0.17433706 -0.025063947
-0.05136051 0.17426234 -0.025010839
-0.050846972 0.17419538 -0.02487085
-0.050336454 0.17411953 -0.024841767
-0.04982654 0.17404141 -0.024827134
-0.049315207 0.17396827 -0.02476763
-0.048809543 0.17387713 -0.0249101
-0.048300467 0.17379616 -0.024927467
-0.047792759 0.17371158 -0.02499615
-0.04728692 0.173621 -0.025132649
-0.046777025 0.17354257 -0.025121249
-0.046254434 0.17350443 -0.024658121
-0.045731418 0.1734668 -0.024177808
-0.045211971 0.17341842 -0.023829326
-0.044694502 0.17336397 -0.023549143
-0.044180661 0.17329827 -0.023394998
-0.043666504 0.17323312 -0.023234721
-0.043153401 0.17316554 -0.023113057
-0.042641729 0.1730929 -0.023036901
-0.042131335 0.17301613 -0.023007095
-0.041618716 0.17294687 -0.022903863
-0.041109852 0.17286542 -0.022926647
-0.040601112 0.17278403 -0.022959743
-0.040092543 0.17270167 -0.022992685
-0.039585385 0.17261511 -0.023083422
-0.039080389 0.17252195 -0.023248635
-0.038575608 0.17242806 -0.023421865
-0.038071163 0.17233312 -0.023607038
-0.037555151 0.17227411 -0.023377948
-0.037007451 0.17231321 -0.022014722
-0.036479324 0.17229211 -0.02136014
-0.035955742 0.1722565 -0.020857565
-0.035432246 0.17222075 -0.020367265
-0.034907147 0.17218982 -0.019812301
-0.034384388 0.17215194 -0.019345999
-0.033862282 0.17211159 -0.01889639
-0.033343766 0.17206053 -0.01857806
-0.032825161 0.17200947 -0.018259697
-0.032310076 0.17194752 -0.018063614
-0.031792309 0.17189391 -0.017773733
-0.031279348 0.17182548 -0.017650338
-0.03083491 0.17154376 -0.019975353
-0.030334517 0.17143664 -0.020308185
-0.029827418 0.17134964 -0.02039317
-0.02931862 0.1712684 -0.020424504
-0.028808191 0.17119162 -0.020394761
-0.028298074 0.17111474 -0.020377491
-0.027783057 0.17105243 -0.020185273
-0.027269712 0.17098483 -0.020052366
-0.026752504 0.17092969 -0.019780073
-0.026236899 0.17086947 -0.019564446
-0.025720956 0.17081 -0.019340396
-0.025206218 0.17074686 -0.019157652
-0.024691485 0.17068401 -0.018971629
-0.024177369 0.17061941 -0.018816426
-0.023667704 0.17054047 -0.018810879
-0.023160398 0.17045452 -0.018895116
-0.022652959 0.17036852 -0.018968854
-0.022146659 0.17027949 -0.019087568
-0.021643613 0.17017995 -0.019324206
-0.015897326 0.16808631 -0.032486729
-0.015386412 0.16801132 -0.032436904
-0.014874873 0.16793863 -0.03237221
-0.01436678 0.16785468 -0.032422923
-0.013862787 0.16775818 -0.032625441
-0.013354981 0.16767399 -0.032690093
-0.084184363 0.17983361 -0.028477781
-0.083682477 0.17975332 -0.028499741
-0.083172403 0.17968498 -0.02836924
-0.082664147 0.17961477 -0.028272882
-0.082150243 0.1795534 -0.028072406
-0.081648432 0.1794721 -0.028094456
-0.081156977 0.17937441 -0.028308894
-0.080670238 0.1792694 -0.028609291
-0.08019843 0.17913997 -0.029185042
-0.079716526 0.17902721 -0.029576521
-0.077847295 0.17848103 -0.032212909
-0.077350542 0.1783918 -0.032328147
-0.076831825 0.17833804 -0.032038406
-0.076310292 0.17828865 -0.031697176
-0.075790815 0.17823608 -0.031393357
-0.075279966 0.17816989 -0.031249736
-0.074770249 0.1781019 -0.031127147
-0.074263863 0.17802782 -0.031064142
-0.073764466 0.1779435 -0.031133357
-0.073263764 0.17786048 -0.031175312
-0.07277137 0.17776446 -0.031370662
-0.07227724 0.17767106 -0.031534739
-0.071787439 0.17757075 -0.031779915
-0.071292982 0.17747785 -0.031938136
-0.070812501 0.17736287 -0.032355651
-0.07033065 0.17720395 -0.033273052
-0.06982962 0.17709874 -0.03358449
-0.069327943 0.17699525 -0.033865627
-0.068831995 0.17687388 -0.034358226
-0.068329833 0.17677191 -0.034622293
-0.067826517 0.17667393 -0.034852482
-0.058144093 0.17517458 -0.034875184
-0.057624154 0.17512794 -0.034507331
-0.057109989 0.17506306 -0.034344032
-0.056597382 0.17499337 -0.034234907
-0.056085989 0.17492029 -0.034174599
-0.055578671 0.17483369 -0.034254886
-0.054861799 0.17539737 -0.026839364
-0.05434493 0.17534117 -0.026578784
-0.053827278 0.17528716 -0.026293594
-0.053323999 0.17518857 -0.026519701
-0.052816927 0.17510198 -0.02661119
-0.052288473 0.17508157 -0.025937818
-0.05177461 0.1750156 -0.025786772
-0.051262863 0.17494373 -0.025712907
-0.05074846 0.17487966 -0.025540717
-0.050237849 0.174804 -0.025509492
-0.04972633 0.17473082 -0.025439128
-0.049213119 0.17466296 -0.025309466
-0.048706673 0.17457417 -0.025425434
-0.048198581 0.17449084 -0.025480375
-0.047850031 0.17391255 -0.031244092
-0.047329828 0.17386654 -0.030869052
-0.04667332 0.17424303 -0.025609259
-0.046148662 0.17421114 -0.025075898
-0.045629758 0.17416067 -0.024739854
-0.045109816 0.17411402 -0.024371997
-0.044592477 0.17405896 -0.024098575
-0.044077829 0.17399578 -0.023916356
-0.04356391 0.17393018 -0.023760986
-0.043050185 0.17386422 -0.023620915
-0.042536624 0.17379752 -0.023478143
-0.042026602 0.17372026 -0.023464911
-0.041517012 0.17364076 -0.023465537
-0.041007541 0.17356171 -0.02347248
-0.040500909 0.17347366 -0.023580398
-0.039992422 0.17339128 -0.023624439
-0.039483517 0.17330991 -0.023646142
-0.03898266 0.17320436 -0.023961429
-0.038474113 0.17312162 -0.023998566
-0.037968703 0.17302997 -0.024146602
-0.037462242 0.17294134 -0.024260972
-0.036958054 0.17284608 -0.024460841
-0.036567353 0.17239833 -0.028715357
-0.035845373 0.17297734 -0.021116629
-0.035327658 0.17292397 -0.020824533
-0.034799844 0.17290129 -0.020176552
-0.034275144 0.17286924 -0.019633874
-0.03375084 0.17283621 -0.019113142
-0.033231299 0.17278776 -0.018754516
-0.032709226 0.17274758 -0.018313989
-0.032189921 0.17269897 -0.017968236
-0.031670436 0.17265099 -0.017615367
-0.031153232 0.17259502 -0.017340954
-0.030639632 0.17252889 -0.017202735
-0.03012391 0.17246902 -0.016983366
-0.02970393 0.17211221 -0.02019529
-0.029197486 0.17202374 -0.020307977
-0.028689852 0.17193834 -0.020374838
-0.028181056 0.1718569 -0.020408511
-0.027667351 0.17179056 -0.020261597
-0.027155362 0.1717193 -0.020180963
-0.026639914 0.17165875 -0.019969232
-0.026124209 0.17159848 -0.019754052
-0.025609257 0.17153622 -0.019561447
-0.025093041 0.17147765 -0.01932741
-0.024577267 0.17141795 -0.019106038
-0.024062406 0.17135532 -0.018917464
-0.023550892 0.17128271 -0.018852253
-0.023041518 0.17120326 -0.018863685
-0.02253365 0.17111847 -0.018923778
-0.022028591 0.17102538 -0.019087963
-0.02152363 0.17093222 -0.019253105
-0.021015812 0.17084789 -0.019319199
-0.015770549 0.168863 -0.032229908
-0.015258351 0.16879234 -0.03214268
-0.014747975 0.16871561 -0.03211236
-0.014239461 0.16863343 -0.032154351
-0.013732098 0.16854751 -0.032238245
-0.013227077 0.16845445 -0.032402109
-0.012716299 0.16837899 -0.032357626
-0.012206894 0.16829945 -0.03236983
-0.011699171 0.16821481 -0.03243947
-0.083592802 0.18044263 -0.029021863
-0.083097845 0.18035045 -0.029171489
-0.082593516 0.18027388 -0.029149607
-0.082093179 0.18019031 -0.029198319
-0.081588045 0.1801151 -0.029160317
-0.081093743 0.18002193 -0.029321913
-0.080602087 0.17992544 -0.029533777
-0.080121778 0.17981014 -0.02995516
-0.079632618 0.17970893 -0.03021073
-0.077257089 0.17909017 -0.032790486
-0.076918542 0.17872247 -0.036123954
-0.076402389 0.17866372 -0.035891913
-0.075889856 0.17859426 -0.0357913
-0.075178757 0.17888127 -0.031571135
-0.074678138 0.17879815 -0.031614348
-0.074174464 0.17872049 -0.031605147
-0.073669396 0.17864449 -0.031565119
-0.073172271 0.17855656 -0.031676661
-0.07267867 0.17846233 -0.031850409
-0.072185062 0.17836814 -0.032023698
-0.071702302 0.17825677 -0.032398913
-0.071218811 0.17814596 -0.032766767
-0.070727572 0.17801046 -0.033429131
-0.070235945 0.17787604 -0.034079611
-0.069733217 0.17777628 -0.034329906
-0.069235928 0.17765938 -0.03477256
-0.068732984 0.17755957 -0.035012018
-0.068225197 0.17747504 -0.035080172
-0.058029197 0.17591037 -0.034977965
-0.057511397 0.17585671 -0.034688622
-0.056997404 0.1757915 -0.034529179
-0.056485415 0.17572026 -0.034448318
-0.055973671 0.17564815 -0.034377266
-0.055466786 0.17556083 -0.034476802
-0.054960772 0.17547092 -0.034605481
-0.054455042 0.17537986 -0.034747135
-0.053939678 0.17531872 -0.034542024
-0.053385213 0.17537877 -0.03293246
-0.052877102 0.17529552 -0.032986499
-0.0523615 0.17523514 -0.032772753
-0.051848613 0.17516616 -0.032655295
-0.051335193 0.17509934 -0.032524906
-0.050836287 0.17498745 -0.032911386
-0.050328642 0.1749026 -0.03298321
-0.049810357 0.17485073 -0.032674011
-0.049292482 0.17479697 -0.032374982
-0.048771843 0.17475246 -0.03198326
-0.0482562 0.17469226 -0.03176748
-0.047736481 0.17464472 -0.031409472
-0.04722219 0.17458044 -0.031239636
-0.046705604 0.17452325 -0.030989964
-0.046189729 0.17446356 -0.03076857
-0.045673013 0.17440677 -0.030514464
-0.045008481 0.17480728 -0.024951894
-0.044494823 0.17474061 -0.02480863
-0.04397767 0.17468536 -0.024537627
-0.043467872 0.17460704 -0.024536125
-0.042953275 0.17454347 -0.024357997
-0.042439364 0.17447789 -0.024202615
-0.041930765 0.1743962 -0.024239156
-0.041421294 0.17431693 -0.024248447
-0.040912375 0.17423609 -0.024275333
-0.040400773 0.17416303 -0.02420374
-0.039893165 0.174078 -0.024277594
-0.039386578 0.17399044 -0.024391286
-0.038882062 0.17389542 -0.024577077
-0.038374066 0.17381178 -0.02463533
-0.038007695 0.17328979 -0.029778451
-0.037493534 0.17322515 -0.029623359
-0.036975309 0.17317322 -0.029314969
-0.036457673 0.17311865 -0.029024821
-0.035946116 0.17304619 -0.028957818
-0.035431113 0.17298391 -0.028765317
-0.034922723 0.17290136 -0.028811272
-0.03441985 0.17280214 -0.029055759
-0.033646129 0.17353967 -0.019567616
-0.03312628 0.17349264 -0.019204028
-0.032597784 0.1734723 -0.01853003
-0.032074813 0.17343463 -0.018050341
-0.03155376 0.17339081 -0.017639555
-0.031034421 0.17334241 -0.017291525
-0.03051848 0.17328309 -0.017065816
-0.03000477 0.17321725 -0.016924314
-0.029493762 0.17314236 -0.01687328
-0.028981889 0.17307083 -0.01679592
-0.028564731 0.17270622 -0.020117547
-0.028057709 0.17261931 -0.020212449
-0.027547479 0.1725421 -0.020187683
-0.027037079 0.1724658 -0.020163525
-0.026524046 0.1723979 -0.020045441
-0.026009088 0.17233536 -0.019855667
-0.025494765 0.172271 -0.019686595
-0.024978876 0.17221171 -0.019460779
-0.024463611 0.17215022 -0.019259211
-0.023948548 0.1720883 -0.019062858
-0.023435736 0.17201941 -0.018955577
-0.022924891 0.17194404 -0.018910062
-0.022415526 0.17186485 -0.018918429
-0.0219092 0.17177565 -0.019039303
-0.021403097 0.1716864 -0.019171681
-0.02089693 0.17159681 -0.019296683
-0.015643055 0.16964163 -0.031951848
-0.015132576 0.16956554 -0.031925268
-0.014622348 0.16948828 -0.031900734
-0.014111409 0.16941383 -0.03185612
-0.01360192 0.16933458 -0.031864986
-0.013094976 0.16924751 -0.031961836
-0.012587476 0.16916241 -0.032036863
-0.012080069 0.16907677 -0.03211733
-0.011573976 0.16898705 -0.032244056
-0.011063724 0.16891016 -0.032226384
-0.010557922 0.1688194 -0.032364689
-0.010047842 0.16874222 -0.032350399
-0.083492719 0.18114921 -0.029352836
-0.08302024 0.18102157 -0.029918987
-0.082533643 0.18091685 -0.030227534
-0.082032852 0.18083407 -0.030266896
-0.081520423 0.18077041 -0.030093525
-0.08101289 0.18069881 -0.030013017
-0.080523625 0.1805978 -0.030266672
-0.080036737 0.18049374 -0.030567601
-0.079542831 0.18040001 -0.030735433
-0.07681118 0.17943327 -0.036474016
-0.07629171 0.17938514 -0.036122996
-0.075775228 0.17932767 -0.035876598
-0.075257443 0.17927401 -0.035587225
-0.074597023 0.17947774 -0.032308988
-0.074095979 0.17939524 -0.032345124
-0.073586844 0.17932631 -0.032233521
-0.073081776 0.17925096 -0.032197483
-0.072586723 0.17915978 -0.032347102
-0.072106354 0.17904459 -0.032766987
-0.071624614 0.17892501 -0.033242371
-0.071129352 0.17880195 -0.033764943
-0.070638247 0.17866586 -0.034433816
-0.070138916 0.17855532 -0.034805011
-0.069636352 0.17845511 -0.035060555
-0.069133803 0.17835446 -0.035320789
-0.068626627 0.17826805 -0.035410155
-0.057404578 0.17656808 -0.035087757
-0.056889124 0.17650732 -0.034878131
-0.056375995 0.17643921 -0.034751114
-0.055864915 0.17636487 -0.034704924
-0.05535648 0.17628255 -0.034748405
-0.054849602 0.17619535 -0.034846745
-0.054341771 0.17611149 -0.034918733
-0.053829081 0.17604204 -0.034806967
-0.053309143 0.17599517 -0.034441452
-0.052780244 0.17597577 -0.033745546
-0.052255105 0.17594482 -0.033190437
-0.051740639 0.17588109 -0.033014406
-0.051230326 0.17580436 -0.032994974
-0.050730646 0.17569494 -0.033353768
-0.050215967 0.17563209 -0.033178885
-0.049697544 0.17558013 -0.032859661
-0.049179528 0.17552738 -0.032560233
-0.048659436 0.17548113 -0.032187987
-0.048143931 0.17542052 -0.03197661
-0.047630392 0.17535384 -0.031833794
-0.047114775 0.17529348 -0.031619851
-0.046599001 0.17523372 -0.031398952
-0.046079904 0.17518431 -0.031062149
-0.045561966 0.17513131 -0.030765601
-0.045046672 0.17506987 -0.030563623
-0.044530727 0.17501055 -0.030337922
-0.0440198 0.17493607 -0.030293521
-0.043524977 0.17481175 -0.030830432
-0.043013103 0.17473966 -0.030747913
-0.042500682 0.17466985 -0.030651063
-0.041988216 0.17460015 -0.030552905
-0.041471299 0.17454335 -0.030287974
-0.040955663 0.1744837 -0.030077115
-0.040446136 0.17440458 -0.030084644
-0.039938249 0.17432036 -0.030149478
-0.039437942 0.17421307 -0.030484483
-0.038927782 0.17413604 -0.03046849
-0.038416822 0.17406084 -0.030420881
-0.037896458 0.17401569 -0.030036543
-0.037383541 0.17394671 -0.02991917
-0.036867216 0.17388861 -0.029679731
-0.036352418 0.17382641 -0.029497586
-0.035841189 0.17375207 -0.029440217
-0.035328276 0.17368387 -0.029325403
-0.03481894 0.17360425 -0.029338639
-0.034314334 0.1735097 -0.029519226
-0.033817869 0.17339069 -0.029996727
-0.033022076 0.17419469 -0.019685347
-0.03249092 0.17418234 -0.018910237
-0.031963799 0.17415789 -0.018282603
-0.031440474 0.17412138 -0.017789816
-0.030919412 0.17407772 -0.017377404
-0.030401228 0.17402554 -0.017071761
-0.029886607 0.17396188 -0.01689464
-0.029373616 0.173894 -0.016776247
-0.028861344 0.17382298 -0.016681667
-0.028355572 0.17373279 -0.016824599
-0.02792817 0.17340022 -0.019786891
-0.027423512 0.1733063 -0.019971572
-0.026917202 0.17321719 -0.020091243
-0.026404463 0.17314814 -0.019985694
-0.025892284 0.17307721 -0.01989045
-0.025379458 0.17300867 -0.019779447
-0.02486491 0.17294495 -0.019603107
-0.024350949 0.17287949 -0.019446418
-0.023835631 0.17281872 -0.019248016
-0.023321381 0.17275389 -0.019084182
-0.022809505 0.17268199 -0.018999796
-0.022298872 0.1726063 -0.018968612
-0.021791061 0.17252193 -0.019035157
-0.02128341 0.17243749 -0.019113798
-0.020780105 0.17233899 -0.019338787
-0.020275258 0.1722457 -0.019516367
-0.019770266 0.17215241 -0.019682754
-0.015007237 0.17033768 -0.031719834
-0.014495343 0.17026581 -0.031635009
-0.01398351 0.17019401 -0.031560384
-0.013473047 0.17011787 -0.031534471
-0.012966001 0.17003083 -0.031630829
-0.012459045 0.16994397 -0.031725362
-0.011950145 0.16986313 -0.031752214
-0.011442276 0.16977866 -0.031819813
-0.010934527 0.16969426 -0.031886697
-0.010428035 0.16960622 -0.032005589
-0.0099187056 0.16952658 -0.032019038
-0.0094103506 0.16944398 -0.032065619
-0.0089023178 0.16936027 -0.032124884
-0.008395697 0.16927204 -0.032234427
-0.0078864489 0.16919227 -0.032249346
-0.0073780734 0.16910958 -0.032296903
-0.082475148 0.18155771 -0.031330213
-0.081968427 0.18148501 -0.031262964
-0.081479274 0.1813844 -0.031523213
-0.080963284 0.18132631 -0.031284232
-0.080464251 0.18124151 -0.031359255
-0.077226408 0.18018351 -0.037294704
-0.076704159 0.18014367 -0.03683953
-0.076182522 0.18010166 -0.036408395
-0.07566303 0.1800538 -0.036054354
-0.075143784 0.1800044 -0.035706136
-0.074615516 0.17998338 -0.035039667
-0.074040085 0.18003576 -0.033510093
-0.073513463 0.17999443 -0.033074349
-0.073007904 0.17991973 -0.033030208
-0.0725189 0.17981838 -0.033288028
-0.072034992 0.17968941 -0.033881888
-0.071535766 0.17957911 -0.034261536
-0.071035177 0.17947231 -0.034590807
-0.070535898 0.17936218 -0.034968697
-0.070033893 0.17925985 -0.035247479
-0.069532044 0.17915712 -0.035531096
-0.069027022 0.17906456 -0.035700582
-0.053198002 0.17671989 -0.034690429
-0.052675843 0.17667988 -0.03423693
-0.052149083 0.17665352 -0.033619326
-0.051633168 0.17659418 -0.033393793
-0.050629221 0.17639016 -0.033956144
-0.050110199 0.1763401 -0.033615436
-0.049590163 0.1762937 -0.033244953
-0.049069516 0.17624879 -0.032846447
-0.048550345 0.17619953 -0.032507934
-0.048043959 0.17611079 -0.032623537
-0.047532685 0.17603707 -0.032570262
-0.047013476 0.17598806 -0.032228995
-0.046494666 0.175938 -0.031899564
-0.045975108 0.17588952 -0.031541217
-0.045456339 0.17583923 -0.031214282
-0.044938102 0.17578711 -0.030907799
-0.044428177 0.17570928 -0.03090094
-0.043922044 0.17561954 -0.031027272
-0.043420933 0.17551458 -0.031336073
-0.042910039 0.17543998 -0.03129299
-0.042391397 0.17538905 -0.030973069
-0.041877612 0.17532295 -0.030823506
-0.04136131 0.1752653 -0.030590355
-0.040849291 0.17519359 -0.030503456
-0.04033763 0.17512158 -0.030431509
-0.039832406 0.17502944 -0.030596502
-0.039328396 0.17493339 -0.030804917
-0.038819704 0.17485194 -0.030838851
-0.038310558 0.17477179 -0.030858014
-0.037792057 0.17472057 -0.03054129
-0.037275854 0.17466198 -0.030307457
-0.036763269 0.17459221 -0.030199002
-0.036253348 0.17451443 -0.030191418
-0.03573925 0.17444976 -0.030036882
-0.035231374 0.17436559 -0.030101229
-0.034720976 0.17428932 -0.030076817
-0.034213249 0.17420465 -0.030146696
-0.033713724 0.17409515 -0.030517358
-0.033226769 0.17394647 -0.031338628
-0.032384865 0.17489059 -0.019322276
-0.031861376 0.17485447 -0.018825147
-0.031331714 0.17483744 -0.018102955
-0.030807763 0.17480274 -0.017589912
-0.03028729 0.1747573 -0.017197365
-0.029769946 0.17470239 -0.016922308
-0.029256035 0.17463681 -0.01676691
-0.028744573 0.17456393 -0.016704405
-0.028235558 0.17448333 -0.016728684
-0.027725676 0.17440525 -0.016724531
-0.027222818 0.17430596 -0.016969461
-0.026791889 0.17398511 -0.019822389
-0.026283884 0.17390139 -0.019881591
-0.025773641 0.17382453 -0.019863673
-0.025262358 0.17375103 -0.019808292
-0.024749469 0.17368284 -0.019693431
-0.024236759 0.17361318 -0.01958359
-0.023723047 0.17354754 -0.019439977
-0.023208812 0.17348276 -0.019275412
-0.022695394 0.17341603 -0.019144077
-0.022184569 0.17334111 -0.019104622
-0.021674545 0.1732638 -0.019091859
-0.021166861 0.173179 -0.019163527
-0.020662043 0.17308556 -0.019342687
-0.020157631 0.17299041 -0.019529898
-0.019653562 0.17289469 -0.019734927
-0.014370311 0.17103685 -0.031441592
-0.013858132 0.17096628 -0.031353388
-0.013348198 0.17088845 -0.03134653
-0.012839815 0.17080563 -0.031395517
-0.012330817 0.17072499 -0.031420231
-0.01182265 0.1706419 -0.031472512
-0.011314091 0.17055954 -0.031516239
-0.010806542 0.17047487 -0.031597018
-0.010299512 0.17038828 -0.031688876
-0.0097906161 0.17030726 -0.031717602
-0.0092830863 0.17022221 -0.031802788
-0.0087743737 0.17014071 -0.031836987
-0.0082667582 0.17005569 -0.031910866
-0.0077576898 0.16997512 -0.031934552
-0.0072526038 0.16988291 -0.032100204
-0.0067410413 0.16981018 -0.032036267
-0.0062302221 0.16973512 -0.031998195
-0.0057195481 0.16966008 -0.031960309
-0.076597959 0.18085122 -0.037236862
-0.076073281 0.18081863 -0.036689222
-0.075553454 0.18077156 -0.036326062
-0.075033039 0.18072575 -0.035937376
-0.074506372 0.1807 -0.035324264
-0.073979408 0.18067454 -0.034696758
-0.073454708 0.18063934 -0.034187663
-0.072945371 0.18056253 -0.034170832
-0.072438478 0.18047515 -0.034271121
-0.071944773 0.18034787 -0.03485233
-0.071440011 0.18025441 -0.03503184
-0.070933431 0.18016633 -0.035150927
-0.070433147 0.18005924 -0.03549457
-0.069930486 0.17995907 -0.035749625
-0.05000522 0.17704621 -0.034095366
-0.049489111 0.17698757 -0.033862039
-0.047956657 0.17676261 -0.033745743
-0.047433175 0.17672673 -0.033246011
-0.046911456 0.17668505 -0.032811295
-0.046388671 0.17664695 -0.032336596
-0.045869138 0.1765985 -0.031977955
-0.04535272 0.17654075 -0.031734731
-0.044836458 0.17648283 -0.031504314
-0.044332955 0.1763853 -0.031729486
-0.043826811 0.17629565 -0.031855144
-0.043314941 0.17622389 -0.031780127
-0.042806476 0.17614217 -0.031827886
-0.042286992 0.17609355 -0.031471256
-0.041769512 0.17603905 -0.031191323
-0.039237183 0.17559785 -0.031785481
-0.03871794 0.17554823 -0.031439833
-0.038208149 0.1754701 -0.031436205
-0.037690509 0.1754161 -0.031150982
-0.037175648 0.17535351 -0.030961938
-0.03666126 0.17528977 -0.030797001
-0.036150172 0.17521557 -0.030749414
-0.035640262 0.17513797 -0.03074016
-0.035133284 0.17505136 -0.030842718
-0.03462518 0.17496775 -0.030900728
-0.034119695 0.17487654 -0.031055033
-0.033623718 0.1747559 -0.031550504
-0.031227492 0.17553985 -0.018580332
-0.030699298 0.17551802 -0.017911568
-0.030177807 0.17547566 -0.017484577
-0.029657906 0.17542908 -0.017116157
-0.029142162 0.17536919 -0.016896846
-0.028628584 0.17530224 -0.0167567
-0.028117683 0.17522758 -0.016714124
-0.027608743 0.17514719 -0.016747154
-0.027100805 0.1750631 -0.016810449
-0.026595326 0.17497191 -0.016964732
-0.026153801 0.17468397 -0.019437015
-0.025652077 0.17458127 -0.019731399
-0.025142899 0.17450131 -0.019748505
-0.024631716 0.17442742 -0.019697376
-0.024120823 0.17435275 -0.019655015
-0.023609556 0.174279 -0.01960218
-0.023095185 0.17421503 -0.019428756
-0.022582894 0.17414467 -0.019338209
-0.022070916 0.17407326 -0.019259196
-0.021560363 0.17399739 -0.019230194
-0.021051452 0.17391658 -0.01925683
-0.020544587 0.17382962 -0.019363604
-0.02003972 0.17373641 -0.019540288
-0.019535717 0.17364059 -0.019746348
-0.019030344 0.17354874 -0.019907676
-0.014248025 0.17179908 -0.031347472
-0.013734998 0.17173071 -0.031223286
-0.013225646 0.17165175 -0.031240307
-0.012715652 0.17157413 -0.031231001
-0.012205929 0.17149571 -0.031230733
-0.011697281 0.17141382 -0.031269256
-0.011188384 0.17133342 -0.031302433
-0.010679316 0.17125285 -0.031326123
-0.010170327 0.17117234 -0.031349413
-0.0096624773 0.17108826 -0.031423785
-0.0091555556 0.17100111 -0.031521525
-0.008644918 0.17092559 -0.031488709
-0.0081342505 0.17085016 -0.031454783
-0.00762509 0.17077067 -0.031477496
-0.007118633 0.17068189 -0.031593494
-0.0066077057 0.17060724 -0.031550974
-0.0060999058 0.1705233 -0.031623829
-0.0055908542 0.17044283 -0.031646539
-0.0050815046 0.1703631 -0.031660967
-0.0045726765 0.17028201 -0.031690717
-0.0040647965 0.17019822 -0.031761877
-0.075964272 0.18153518 -0.03698552
-0.075444423 0.18148766 -0.036616284
-0.074925438 0.18143806 -0.036281843
-0.074404731 0.18139324 -0.035882268
-0.073878035 0.18136683 -0.035265241
-0.073367782 0.1812907 -0.035250373
-0.07286156 0.18120159 -0.035381142
-0.072352938 0.1811198 -0.035418645
-0.071844414 0.18103811 -0.035466071
-0.071339183 0.18094602 -0.035630375
-0.030069256 0.17619154 -0.017810641
-0.02954974 0.17614317 -0.017451022
-0.029034249 0.17608248 -0.017240794
-0.028516255 0.17602947 -0.016944118
-0.028002841 0.17596295 -0.016810434
-0.027495207 0.17587793 -0.016884353
-0.026985612 0.17579961 -0.016894143
-0.026475873 0.17572121 -0.016893445
-0.025968576 0.1756355 -0.016986113
-0.025464512 0.17553982 -0.017190658
-0.025018509 0.1752664 -0.019511241
-0.024511289 0.17518032 -0.019607749
-0.024002766 0.17509864 -0.019655384
-0.023493078 0.17502034 -0.019653883
-0.022979472 0.17495361 -0.019511208
-0.02246828 0.17488024 -0.019465491
-0.021956787 0.17480694 -0.019396715
-0.021446729 0.1747302 -0.019388717
-0.020936439 0.17465355 -0.019368537
-0.020428162 0.17457093 -0.01942645
-0.019921787 0.17448193 -0.019544851
-0.019418063 0.17438561 -0.019767452
-0.018913735 0.1742906 -0.019964349
-0.018408235 0.17419936 -0.020119138
-0.013614561 0.17248718 -0.031193286
-0.013105255 0.17240793 -0.031213731
-0.012593979 0.17233464 -0.031155761
-0.012083966 0.1722571 -0.031146012
-0.011574028 0.17217927 -0.031138934
-0.011064477 0.17210084 -0.031149805
-0.010554333 0.17202374 -0.031134713
-0.010044242 0.17194645 -0.031121626
-0.0095353471 0.17186604 -0.031154804
-0.009025868 0.17178676 -0.031164117
-0.0085169654 0.17170577 -0.031192616
-0.008004982 0.17163451 -0.031112205
-0.007494973 0.17155738 -0.031108558
-0.0069858041 0.17147751 -0.031124726
-0.0064758938 0.17139959 -0.031118758
-0.005965326 0.17132366 -0.031090491
-0.0054568928 0.17124192 -0.031138405
-0.0049482267 0.17115995 -0.031177908
-0.0044431593 0.17106798 -0.031352192
-0.0039316732 0.17099512 -0.031289503
-0.0034240615 0.17090991 -0.031365246
-0.0029170346 0.17082341 -0.031466734
-0.0024092309 0.17073965 -0.031537488
-0.0019034203 0.17064935 -0.031681679
-0.074816465 0.18215442 -0.036580399
-0.074305236 0.18208075 -0.036526762
-0.073786184 0.18203071 -0.03618589
-0.073275216 0.18195677 -0.036146507
-0.028929228 0.17678729 -0.017691238
-0.028408755 0.17674226 -0.017305257
-0.027893787 0.17667983 -0.017114334
-0.027383408 0.17660348 -0.017090829
-0.026871942 0.17653064 -0.017027861
-0.026362166 0.17645271 -0.017033344
-0.025852753 0.17637338 -0.017043225
-0.025344083 0.17629215 -0.017085541
-0.024838151 0.17620216 -0.01722623
-0.024333403 0.17610903 -0.017413227
-0.023875723 0.17587188 -0.019315809
-0.023369167 0.17578377 -0.01943507
-0.022859545 0.17570543 -0.019445151
-0.022350783 0.1756241 -0.019477576
-0.021840313 0.17554854 -0.019456379
-0.021330388 0.17547068 -0.019449737
-0.020820029 0.17539443 -0.019425254
-0.020310886 0.17531447 -0.019453086
-0.019804087 0.17522736 -0.0195616
-0.019300172 0.17513172 -0.01977662
-0.018795827 0.17503667 -0.019974016
-0.018292308 0.17493972 -0.020203918
-0.013495317 0.17324057 -0.031209335
-0.012985665 0.17316207 -0.031210091
-0.01247441 0.1730884 -0.031156529
-0.011964245 0.17301182 -0.031146649
-0.011453295 0.17293741 -0.031101592
-0.010942962 0.17286097 -0.031079154
-0.010432671 0.17278424 -0.031059921
-0.0099220444 0.17270927 -0.031032011
-0.0094112186 0.17263426 -0.030993495
-0.0089009982 0.17255743 -0.030975286
-0.0083906855 0.17248118 -0.030961491
-0.0078793485 0.17240797 -0.030902937
-0.0073694829 0.1723299 -0.030898757
-0.0068578962 0.17225756 -0.030830413
-0.0063469056 0.17218295 -0.030787311
-0.0058367606 0.17210646 -0.030776456
-0.0053270478 0.17202784 -0.030778281
-0.0048179124 0.17194812 -0.030803759
-0.0043118354 0.17185861 -0.030939128
-0.0038007889 0.17178418 -0.030893803
-0.0032945778 0.17169547 -0.03102031
-0.0027879905 0.17160758 -0.031137291
-0.0022800844 0.17152402 -0.031205907
-0.0017723311 0.1714396 -0.031284064
-0.0012660939 0.17135079 -0.031411331
-0.00075861625 0.17126572 -0.031496651
-0.00025085919 0.1711818 -0.031569414
0.00025468133 0.17109054 -0.031724062
-0.02877841 0.17600125 -0.035185508
-0.028258018 0.17595546 -0.034796786
-0.027740194 0.17590223 -0.034503035
-0.026759688 0.17725815 -0.017223576
-0.026249722 0.17718039 -0.017215846
-0.025740251 0.17710161 -0.017230781
-0.025230229 0.1770241 -0.017220121
-0.024723448 0.17693734 -0.017335635
-0.024215933 0.17685248 -0.017418914
-0.02370958 0.17676386 -0.017544083
-0.023216879 0.17663418 -0.018174328
-0.022734975 0.17647135 -0.019198649
-0.022227468 0.17638634 -0.019283552
-0.021719528 0.1763026 -0.019353896
-0.021210164 0.17622332 -0.019363426
-0.02070065 0.17614459 -0.019377742
-0.020192247 0.17606248 -0.019429822
-0.019686149 0.17597295 -0.019565236
-0.01918225 0.17587724 -0.019781165
-0.018677326 0.17578463 -0.019962426
-0.018174103 0.17568667 -0.020203669
-0.012864621 0.17392056 -0.031157918
-0.012357414 0.1738347 -0.03125228
-0.011848054 0.17375575 -0.031268846
-0.011336111 0.17368402 -0.03119351
-0.010824576 0.17361131 -0.031128816
-0.010314168 0.17353578 -0.031107716
-0.0098029673 0.17346174 -0.031058028
-0.0092912158 0.17338982 -0.030984871
-0.0087795826 0.17331749 -0.030916393
-0.0082689309 0.17324185 -0.03088478
-0.0077576786 0.17316893 -0.030834027
-0.0072471928 0.17309271 -0.030808873
-0.0067338385 0.17302579 -0.030679747
-0.0062233228 0.17294982 -0.03065183
-0.0057132486 0.17287293 -0.030645519
-0.0052036438 0.17279427 -0.030648053
-0.0046946742 0.1727138 -0.03068186
-0.0041864198 0.17263147 -0.030736677
-0.0036747754 0.17255883 -0.030671269
-0.0031680074 0.17247176 -0.030779477
-0.0026594456 0.17239 -0.03082744
-0.002151845 0.17230536 -0.030908085
-0.0016426928 0.1722257 -0.030932892
-0.0011351872 0.17214073 -0.031017326
-0.00062670745 0.17205887 -0.031066753
-0.0001192186 0.17197366 -0.0311535
0.00038606673 0.17188244 -0.031319104
0.00089234672 0.17179348 -0.031448331
0.0014011897 0.17171289 -0.031483512
0.0019099917 0.17163199 -0.031522125
-0.028659135 0.17675342 -0.03518191
-0.028143529 0.17669334 -0.034964878
-0.027626235 0.17663805 -0.034693934
-0.027105503 0.17659347 -0.034291852
-0.026587946 0.17653912 -0.034010217
-0.026071988 0.17648011 -0.03378126
-0.025119675 0.17774674 -0.01748169
-0.024611302 0.17766467 -0.017533466
-0.024101472 0.17758693 -0.017536489
-0.023594055 0.17750181 -0.017622842
-0.0230886 0.17741065 -0.017787395
-0.022587992 0.17730491 -0.018126812
-0.022090428 0.17718948 -0.018575206
-0.021590231 0.17708233 -0.018930171
-0.021085674 0.17698863 -0.019123796
-0.020579208 0.17690071 -0.019252248
-0.020071369 0.17681694 -0.019323081
-0.019566989 0.17672242 -0.019525483
-0.019062504 0.1766284 -0.019722462
-0.018558893 0.1765317 -0.019949514
-0.018056165 0.17643276 -0.02021271
-0.017554788 0.17632946 -0.020524886
-0.012746437 0.17467007 -0.031205975
-0.012242261 0.17457557 -0.031419672
-0.01173378 0.1744937 -0.031469107
-0.011223016 0.17441861 -0.031431392
-0.010709608 0.17435189 -0.031300038
-0.010199045 0.17427576 -0.031273641
-0.0096868593 0.17420582 -0.031189665
-0.0091753043 0.17413321 -0.031124301
-0.0086622313 0.17406529 -0.03100609
-0.0081505906 0.17399281 -0.030939031
-0.0076391455 0.17391998 -0.030876253
-0.0071281958 0.17384568 -0.030840814
-0.0066151228 0.17377776 -0.030722596
-0.0061049033 0.17370109 -0.030702963
-0.0055940729 0.17362653 -0.030670334
-0.0050840322 0.17354906 -0.030659251
-0.0045739636 0.1734723 -0.03065151
-0.0040631462 0.17339709 -0.030615088
-0.0035524722 0.17332213 -0.03058704
-0.003043836 0.17324083 -0.030630462
-0.0025346279 0.17316137 -0.030653045
-0.0020258185 0.17308033 -0.03069308
-0.0015164334 0.17300087 -0.030704305
-0.0010081213 0.17291857 -0.030758768
-0.00049994141 0.17283611 -0.030826107
8.3949417e-06 0.17275372 -0.030881323
0.00051560625 0.17266788 -0.030975461
0.0010232572 0.1725834 -0.031054102
0.0015278719 0.17248982 -0.0312462
0.0020333659 0.17239901 -0.031407088
0.002543984 0.17232312 -0.031378463
0.0030510854 0.17223763 -0.031479634
0.0035593044 0.17215468 -0.031541176
0.0040638745 0.17206112 -0.031733189
-0.028028291 0.177433 -0.0351125
-0.027513536 0.17737038 -0.034935195
-0.026994379 0.17732088 -0.034587964
-0.02647445 0.17727363 -0.034215853
-0.025957882 0.17721647 -0.033966139
-0.02544133 0.17715922 -0.033717323
-0.024929443 0.17708807 -0.033646796
-0.02398904 0.17831483 -0.017727656
-0.023480851 0.17823194 -0.017788665
-0.022972343 0.17815013 -0.017837685
-0.022467792 0.17805648 -0.018030357
-0.021962779 0.17796455 -0.018214863
-0.021460537 0.1778633 -0.018492974
-0.020957699 0.17776453 -0.01875405
-0.020454772 0.17766605 -0.019012026
-0.019950962 0.17756984 -0.019233871
-0.019446928 0.17747493 -0.019451961
-0.018943615 0.17737713 -0.019691046
-0.018440701 0.17727858 -0.019949943
-0.017938264 0.1771785 -0.020225886
-0.017787393 0.17601307 -0.033496864
-0.012128201 0.17531262 -0.03161877
-0.011621876 0.17522442 -0.031750448
-0.011110195 0.17515254 -0.031687938
-0.010597678 0.17508283 -0.031589888
-0.010085979 0.17501073 -0.031518959
-0.009574038 0.17493929 -0.031440109
-0.0090613682 0.17487012 -0.03133605
-0.0085485652 0.17480126 -0.03122852
-0.0080364319 0.17473052 -0.031142093
-0.0075231176 0.17466344 -0.031014532
-0.0070119482 0.1745899 -0.03097041
-0.0064999424 0.17451888 -0.030887235
-0.0059881005 0.17444699 -0.030814037
-0.0054764617 0.17437494 -0.030753307
-0.0049662683 0.17429844 -0.030742314
-0.004454989 0.17422502 -0.030685991
-0.0039438661 0.17415103 -0.030635901
-0.0034336653 0.17407443 -0.030626334
-0.0029242299 0.1739956 -0.030641884
-0.0024133828 0.17392126 -0.030606933
-0.0019039065 0.17384259 -0.030620702
-0.0013947226 0.17376271 -0.030647688
-0.00088513084 0.17368442 -0.030657001
-0.00037592277 0.17360419 -0.030676998
0.00013345294 0.17352515 -0.030694768
0.00064263307 0.17344558 -0.030718464
0.0011505391 0.17336246 -0.03079319
0.0016571488 0.17327434 -0.030912798
0.0021624062 0.17318347 -0.031085618
0.0026688445 0.17309488 -0.031210259
0.0031769667 0.17301254 -0.031276524
0.0036861133 0.17293252 -0.031305075
0.0041931067 0.17284591 -0.031407669
0.0047010537 0.17276248 -0.031474736
0.0052109193 0.1726847 -0.031478304
-0.027399946 0.17810522 -0.035137042
-0.026884856 0.17804375 -0.034946382
-0.026365243 0.17799571 -0.034583215
-0.025846716 0.17794463 -0.034265377
-0.025329186 0.17788959 -0.033980399
-0.024816556 0.17782043 -0.033876255
-0.024304369 0.17775016 -0.03379558
-0.02379163 0.17768122 -0.033688851
-0.023278834 0.17761235 -0.03358154
-0.022352461 0.17879403 -0.018124431
-0.021845639 0.17870696 -0.01823229
-0.02133978 0.17861757 -0.018388316
-0.020834811 0.178525 -0.018568974
-0.020332651 0.17842408 -0.018854421
-0.019830506 0.17832321 -0.019139364
-0.019327663 0.17822443 -0.01940069
-0.018823845 0.17812876 -0.019627009
-0.018322753 0.17802468 -0.019959003
-0.017820679 0.17792353 -0.020247079
-0.017669335 0.17676231 -0.033548169
-0.017158974 0.17668611 -0.033534236
-0.012015929 0.17604478 -0.031895258
-0.011512093 0.17594922 -0.032120444
-0.011000324 0.1758772 -0.03204827
-0.010486897 0.17581053 -0.031916253
-0.0099757202 0.17573659 -0.031865805
-0.0094626555 0.17566909 -0.031754136
-0.0089479042 0.17560616 -0.031569082
-0.0084363883 0.17553382 -0.031511381
-0.0079242885 0.17546281 -0.031427942
-0.0074098706 0.17539914 -0.031262126
-0.0068978239 0.17532793 -0.031180907
-0.0063862503 0.17525522 -0.031116527
-0.0058733765 0.17518678 -0.031004455
-0.0053613652 0.17511605 -0.030929033
-0.0048507545 0.17504087 -0.030903436
-0.0043395665 0.17496714 -0.030850671
-0.00382814 0.1748945 -0.030796535
-0.0033168085 0.17482109 -0.030739851
-0.0028070286 0.17474334 -0.030743469
-0.0022961292 0.17466918 -0.030706517
-0.0017851703 0.17459463 -0.030662883
-0.0012744237 0.17451976 -0.030633591
-0.00076391734 0.17444406 -0.030613873
-0.00025389716 0.17436711 -0.030608132
0.00025588088 0.17428933 -0.030611746
0.00076602958 0.17421271 -0.030602537
0.0012743007 0.17413026 -0.030658558
0.0017827209 0.17404786 -0.030713961
0.0022898745 0.1739624 -0.030814778
0.0027974024 0.17387779 -0.030906066
0.0033042841 0.17379123 -0.031019442
0.0038118418 0.17370644 -0.031101648
0.0043215901 0.17362872 -0.031104729
0.0048303902 0.1735484 -0.031147793
0.0053390395 0.17346682 -0.031194061
0.0058472902 0.17338414 -0.031252623
0.0063561704 0.17330413 -0.031292573
0.006861344 0.17321216 -0.031466365
-0.026775053 0.17876746 -0.035295531
-0.02625672 0.17871553 -0.034986917
-0.025738817 0.17866209 -0.034684166
-0.025220158 0.17861132 -0.03436264
-0.02470495 0.17854981 -0.034161422
-0.024191471 0.17848335 -0.034027174
-0.023677617 0.17841768 -0.033883624
-0.023165021 0.17834841 -0.033780813
-0.022654841 0.17827173 -0.033772137
-0.022144349 0.1781963 -0.033749569
-0.021635693 0.17811474 -0.033795394
-0.021129295 0.17802721 -0.033930503
-0.020621937 0.1779419 -0.034018852
-0.020117868 0.17784683 -0.034238428
-0.019209737 0.17897008 -0.019403838
-0.018705495 0.1788757 -0.019615799
-0.018205296 0.17876895 -0.019977804
-0.017703522 0.17866728 -0.020282615
-0.017553745 0.17750397 -0.033695839
-0.017044121 0.17742625 -0.033709917
-0.011906723 0.17676739 -0.032278344
-0.011402402 0.17667323 -0.032487907
-0.010890197 0.1766032 -0.032404914
-0.010377801 0.17653324 -0.032309897
-0.0098665906 0.17645985 -0.032264218
-0.0093509676 0.17639965 -0.032048393
-0.0088376533 0.17633243 -0.031922475
-0.0083249938 0.17626305 -0.031820513
-0.0078121498 0.17619465 -0.031707905
-0.0072987694 0.17612766 -0.031579312
-0.006786311 0.17605835 -0.031488173
-0.0062742028 0.17598735 -0.03140451
-0.0057621971 0.17591676 -0.031327441
-0.0052489135 0.17584944 -0.031202853
-0.0047391579 0.17577142 -0.031209007
-0.0042274836 0.17569922 -0.031138968
-0.0037159566 0.17562693 -0.03108082
-0.0032034125 0.17555715 -0.030983534
-0.0026926864 0.17548223 -0.030955128
-0.0021805149 0.17541164 -0.030867152
-0.0016690474 0.17533931 -0.030809581
-0.0011583213 0.17526439 -0.03078118
-0.00064674765 0.17519166 -0.030716792
-0.00013548695 0.17511861 -0.030667469
0.00037441216 0.17504109 -0.030668054
0.00088463537 0.17496473 -0.030655943
0.0013947617 0.17488801 -0.030647628
0.001904292 0.17480919 -0.030662909
0.0024140123 0.17473166 -0.030674852
0.0029213279 0.17464615 -0.030764978
0.0034308378 0.17456788 -0.030785158
0.0039387848 0.1744843 -0.030854091
0.0044479836 0.17440508 -0.030884869
0.0049579442 0.17432795 -0.03088136
0.0054641869 0.17423946 -0.03101638
0.0059734937 0.17416002 -0.031038471
0.0064810999 0.17407584 -0.031124994
0.006987188 0.17398685 -0.031265363
0.0074925665 0.17389604 -0.031437248
0.0079982076 0.17380567 -0.031593334
-0.026664911 0.17949204 -0.035634845
-0.026148621 0.1794343 -0.035402372
