# .PCD v0.7 - Point Cloud Data file format
VERSION 0.7
FIELDS x y z
SIZE 4 4 4
TYPE F F F
COUNT 1 1 1
WIDTH 1303
HEIGHT 1
VIEWPOINT 0 0 0 1 0 0 0
POINTS 1303
DATA ascii
0.031596214 0.16227351 -0.0063006184
0.032123633 0.16227558 -0.0060582692
0.032656744 0.16227919 -0.0056941034
0.033192936 0.16228406 -0.0052652583
0.033726871 0.16228776 -0.0048840716
0.034246452 0.16228814 -0.0048087467
0.034763522 0.16228731 -0.0047881017
0.035278287 0.16228627 -0.0048174458
0.035790395 0.16228396 -0.0049028485
0.036301997 0.16228162 -0.0049988832
0.03681846 0.16228071 -0.0049930727
0.03954244 0.16231503 -0.0019235956
0.040069118 0.16231705 -0.0016962541
0.040598556 0.16232033 -0.0014133528
0.041127987 0.16232261 -0.0011277162
0.041650787 0.16232328 -0.00098457932
0.042161472 0.16232087 -0.0011006296
0.042675085 0.16231972 -0.0011543659
0.043188576 0.16231757 -0.0012100143
0.043700531 0.16231626 -0.0012977878
-0.08301653 0.16279779 -0.040187266
-0.082489632 0.16279982 -0.039955296
-0.081973501 0.16279891 -0.03995534
-0.080299027 0.16308464 -0.020027258
-0.079791762 0.16308153 -0.020067502
-0.079272225 0.16308215 -0.019937646
-0.07874991 0.16308293 -0.019768447
-0.07823316 0.16308239 -0.019676745
-0.077714458 0.16308296 -0.019558765
-0.077198341 0.16308238 -0.019475903
-0.07667923 0.16308196 -0.019351274
-0.076164186 0.16308129 -0.019283671
-0.075645253 0.1630819 -0.019161317
-0.076251663 0.16280173 -0.039001793
-0.075734966 0.16280085 -0.038989361
-0.075220615 0.16279975 -0.03902635
-0.074704595 0.16279884 -0.03902838
-0.074191771 0.16279759 -0.039099425
-0.072384261 0.16311714 -0.016383763
-0.071865924 0.16311765 -0.016270112
-0.071355335 0.16311574 -0.016263641
-0.070841938 0.163114 -0.016219776
-0.070322171 0.16311464 -0.016086314
-0.069802418 0.16311528 -0.015952311
-0.069283657 0.16311483 -0.015833214
-0.06876798 0.16311421 -0.015756018
-0.068253025 0.16311355 -0.015689436
-0.067740887 0.16311172 -0.015662894
-0.067225479 0.16311109 -0.015589754
-0.066711731 0.16311038 -0.015539373
-0.066196136 0.16310976 -0.015463962
-0.065678954 0.16310924 -0.01536682
-0.065160431 0.16310878 -0.015250674
-0.064644724 0.16310816 -0.015173028
-0.064131074 0.16310745 -0.015124657
-0.063617513 0.16310669 -0.015077005
-0.063101135 0.16310613 -0.014990837
-0.062588356 0.16310434 -0.014954689
-0.062071964 0.16310376 -0.014868301
-0.06155324 0.16310436 -0.014748673
-0.061043814 0.16310236 -0.014758931
-0.060529627 0.16310066 -0.014703644
-0.060016938 0.16309986 -0.014668531
-0.059507735 0.16309787 -0.014680753
-0.058998741 0.16309485 -0.014696454
-0.05848489 0.16309413 -0.014646036
-0.05797594 0.16309212 -0.014662855
-0.057464704 0.16309024 -0.01464728
-0.056950018 0.16308957 -0.014585027
-0.056442603 0.16308647 -0.014622183
-0.055929922 0.16308568 -0.014588255
-0.055422939 0.16308254 -0.014631552
-0.054910503 0.16308072 -0.014599766
-0.054399453 0.16307884 -0.014587953
-0.053889774 0.16307689 -0.014593909
-0.053381413 0.16307484 -0.014618932
-0.052868977 0.163073 -0.014587419
-0.052358836 0.16307108 -0.014586824
-0.0518502 0.16306907 -0.014608332
-0.05134283 0.16306695 -0.014647084
-0.050831877 0.16306505 -0.014635791
-0.050319336 0.16306324 -0.014602763
-0.049807027 0.16306145 -0.014573416
-0.049294628 0.16306062 -0.014541106
-0.048784472 0.16305868 -0.014542229
-0.04827252 0.16305661 -0.014579481
-0.0477551 0.16305681 -0.014550564
-0.047239304 0.16305582 -0.014558191
-0.046720602 0.16305514 -0.014503191
-0.04620415 0.16305424 -0.01449466
-0.045689493 0.16305318 -0.014526203
-0.045174018 0.16305219 -0.014540473
-0.044656739 0.16305238 -0.014514894
-0.044139646 0.16305152 -0.014493573
-0.043622285 0.16305071 -0.014467933
-0.043107361 0.16304965 -0.014493949
-0.042592429 0.16304864 -0.014518294
-0.042071953 0.16304909 -0.014425849
-0.041555136 0.16304824 -0.014409777
-0.041039888 0.16304724 -0.014427698
-0.040523198 0.16304736 -0.014416985
-0.040006947 0.16304645 -0.014412168
-0.03949137 0.16304542 -0.014425433
-0.038977221 0.16304435 -0.014465906
-0.038457908 0.16304371 -0.014397314
-0.037932333 0.16304563 -0.014196194
-0.037409071 0.16304635 -0.014042115
-0.036874313 0.1630511 -0.013642901
-0.036339544 0.16305487 -0.013243972
-0.035818521 0.16305538 -0.013138551
-0.035293814 0.16305624 -0.012956073
-0.034775201 0.16305652 -0.012902595
-0.03425524 0.16305697 -0.012820045
-0.033740494 0.16305593 -0.012849101
-0.033224888 0.16305493 -0.012859736
-0.03271376 0.16305253 -0.012966719
-0.03220835 0.16304862 -0.013195962
-0.031703059 0.16304572 -0.01342666
-0.031196225 0.16304198 -0.013625746
-0.030680414 0.16304101 -0.013631693
-0.030161217 0.16304137 -0.013565326
-0.029640272 0.16304184 -0.01346315
-0.029121235 0.1630422 -0.013400099
-0.028600927 0.16304167 -0.013310718
-0.028076604 0.16304345 -0.013135461
-0.027553767 0.16304415 -0.012990711
-0.027031139 0.1630448 -0.012852106
-0.026508987 0.16304643 -0.0127225
-0.025987498 0.16304699 -0.012606837
-0.025465641 0.16304758 -0.012484897
-0.024945516 0.16304801 -0.012398532
-0.024426173 0.16304736 -0.012330276
-0.023910422 0.16304637 -0.012337802
-0.023396559 0.16304529 -0.012385716
-0.022884607 0.16304398 -0.012474216
-0.02237384 0.16304155 -0.01258947
-0.021864124 0.16303904 -0.012726131
-0.02135057 0.1630379 -0.012781206
-0.020834912 0.16303693 -0.01279048
-0.020318031 0.16303605 -0.01277383
-0.019800626 0.16303524 -0.012745837
-0.019282743 0.16303547 -0.012708132
-0.018758807 0.16303626 -0.012540347
-0.018240046 0.16303656 -0.012484523
-0.017719176 0.16303706 -0.012382433
-0.017197613 0.16303763 -0.012265953
-0.016677033 0.16303807 -0.012170324
-0.016160011 0.16303724 -0.012151536
-0.015639145 0.16303776 -0.012049672
-0.01511924 0.16303818 -0.011966986
-0.014601603 0.16303737 -0.011935833
-0.014080763 0.1630379 -0.01183344
-0.013559159 0.16303846 -0.01171558
-0.013036996 0.16303906 -0.011587461
-0.012515169 0.16303964 -0.011465198
-0.01199615 0.16303997 -0.011403825
-0.011474408 0.16304056 -0.011282355
-0.010956466 0.1630398 -0.011243564
-0.010434918 0.16304037 -0.011126813
-0.009916462 0.16304065 -0.011077403
-0.0093987193 0.16303985 -0.011042327
-0.0088775642 0.16304038 -0.010934745
-0.0083581526 0.16304077 -0.010863703
-0.0078387205 0.16304113 -0.010792464
-0.0073239785 0.16304006 -0.010821997
-0.006810762 0.16303788 -0.010883879
-0.0062988047 0.1630366 -0.010972589
-0.005786173 0.16303433 -0.011047027
-0.0052804444 0.16303146 -0.011269652
-0.0047821719 0.16302593 -0.011651383
0.027371891 0.16301733 -0.0083336746
0.027896948 0.16301821 -0.0081416694
0.02840968 0.16301697 -0.0082157329
0.028920062 0.16301452 -0.0083379447
0.029427415 0.16301182 -0.0085254675
0.02993346 0.16300797 -0.008740956
0.033182159 0.16304314 -0.0054863077
0.033715382 0.16304678 -0.0051214271
0.034238681 0.16304749 -0.0049666739
0.034758266 0.16304785 -0.0048933243
0.035277963 0.16304725 -0.0048153158
0.0357875 0.16304474 -0.0049567409
0.036298696 0.16304338 -0.0050631468
-0.083493255 0.16380744 -0.021869067
-0.083015978 0.16354993 -0.040159337
-0.082490735 0.16355181 -0.039965302
-0.081972547 0.16355208 -0.039921187
-0.080300756 0.1638266 -0.020041898
-0.079785086 0.16382597 -0.019964922
-0.079263352 0.16382673 -0.019804962
-0.078743838 0.16382737 -0.019674573
-0.078222178 0.16382809 -0.019514427
-0.077703446 0.16382763 -0.019395556
-0.077185534 0.16382819 -0.019288551
-0.076666467 0.16382778 -0.019164279
-0.076146282 0.16382843 -0.019024607
-0.07562203 0.16383033 -0.018829126
-0.074976005 0.16385944 -0.016943917
-0.074453279 0.16386025 -0.016769487
-0.07392922 0.16386212 -0.016575515
-0.073409609 0.16386175 -0.016443875
-0.072890736 0.16386232 -0.01632385
-0.072369799 0.16386305 -0.0161741
-0.071859255 0.16386111 -0.016168296
-0.071342155 0.16386059 -0.01607218
-0.070825391 0.16386104 -0.015980266
-0.070306905 0.1638606 -0.015864242
-0.069790192 0.16386002 -0.015773438
-0.069272913 0.1638605 -0.015674826
-0.068757504 0.16385989 -0.015601913
-0.068243302 0.16385819 -0.015545196
-0.067725919 0.16385868 -0.015444352
-0.06720975 0.1638581 -0.015360906
-0.066693105 0.16385752 -0.015271884
-0.066180304 0.16385674 -0.015235073
-0.065652244 0.16385886 -0.014986305
-0.065138236 0.16385818 -0.014932089
-0.064610817 0.16386023 -0.0146927
-0.064091824 0.16385984 -0.014569982
-0.063572876 0.16386041 -0.01444763
-0.063064091 0.16385837 -0.014467268
-0.062546276 0.16385789 -0.014360302
-0.062026478 0.16385853 -0.014226397
-0.061514392 0.1638567 -0.014199977
-0.060998686 0.16385607 -0.014123091
-0.060491428 0.16385397 -0.014162582
-0.059979737 0.16385213 -0.014141162
-0.05947151 0.16385007 -0.014167623
-0.058958746 0.16384929 -0.0141317
-0.058450006 0.16384727 -0.014151246
-0.057942726 0.16384412 -0.014192256
-0.057433516 0.16384214 -0.014205239
-0.056922749 0.16384026 -0.014195728
-0.056414247 0.16383821 -0.014218404
-0.055906415 0.16383612 -0.014251077
-0.055398822 0.16383304 -0.014286443
-0.054886222 0.16383222 -0.014252097
-0.054378852 0.16383012 -0.014290866
-0.053870313 0.16382709 -0.014314094
-0.053366654 0.16382377 -0.014403879
-0.052859649 0.16382164 -0.014447217
-0.052351393 0.1638196 -0.014473247
-0.051841661 0.16381761 -0.014479081
-0.051333554 0.16381556 -0.014508451
-0.050823256 0.16381364 -0.01450598
-0.050313793 0.16381162 -0.014515366
-0.049804419 0.16380963 -0.01452578
-0.049292423 0.16380782 -0.014500861
-0.048781969 0.16380589 -0.01449628
-0.048272729 0.16380365 -0.014565453
-0.047755912 0.1638038 -0.014549662
-0.047241449 0.16380271 -0.014585178
-0.046723418 0.16380194 -0.014543903
-0.046207137 0.16380104 -0.014540357
-0.045690984 0.16380112 -0.014539728
-0.045174979 0.16380018 -0.014543648
-0.044657715 0.16379936 -0.014517316
-0.044140503 0.16379952 -0.014495511
-0.043624416 0.16379859 -0.014494731
-0.043109246 0.16379757 -0.014516163
-0.042594105 0.16379656 -0.014537496
-0.042074956 0.16379692 -0.014470786
-0.0415572 0.16379716 -0.014436977
-0.041039772 0.16379632 -0.014407577
-0.040518794 0.16379683 -0.014303993
-0.039995994 0.1637975 -0.014160888
-0.03947695 0.16379784 -0.014099312
-0.038952626 0.16379966 -0.013922604
-0.038418721 0.16380334 -0.013541597
-0.037891123 0.16380545 -0.013295966
-0.037367411 0.16380619 -0.013133079
-0.036848232 0.16380654 -0.013068375
-0.03632902 0.1638069 -0.013002042
-0.035812903 0.16380599 -0.013001568
-0.035293896 0.16380632 -0.01293966
-0.034777485 0.16380541 -0.012933703
-0.034262899 0.16380434 -0.012967068
-0.03375287 0.16380185 -0.013096357
-0.033246681 0.16379903 -0.013309703
-0.032750417 0.16379331 -0.013735144
-0.03224577 0.16379033 -0.013980342
-0.031734757 0.16378792 -0.014089009
-0.031216718 0.16378817 -0.014049456
-0.030696493 0.16378865 -0.013959418
-0.030173589 0.16378932 -0.013815805
-0.029650435 0.16379003 -0.013663663
-0.029127184 0.16379176 -0.013511267
-0.028604209 0.16379245 -0.013364607
-0.02807942 0.16379431 -0.013178647
-0.027553421 0.16379526 -0.012968663
-0.027032368 0.16379578 -0.012861592
-0.026511785 0.16379625 -0.012766208
-0.025990859 0.16379674 -0.012662997
-0.025471482 0.1637971 -0.012594083
-0.024953131 0.16379738 -0.012546907
-0.024436638 0.16379647 -0.012538448
-0.023926079 0.16379507 -0.012657163
-0.023414429 0.16379273 -0.012752081
-0.022903323 0.16379133 -0.01286074
-0.022387944 0.16379036 -0.012875766
-0.021873783 0.16378924 -0.012917736
-0.021357983 0.16378827 -0.012925379
-0.020840105 0.16378751 -0.012886193
-0.020317543 0.16378918 -0.012748187
-0.019795675 0.16378975 -0.012626017
-0.019274086 0.16379033 -0.012509106
-0.018751226 0.163791 -0.012364398
-0.018232487 0.16379131 -0.01230878
-0.017710533 0.16379191 -0.012183613
-0.017189346 0.16379245 -0.012073902
-0.016668726 0.16379292 -0.011978105
-0.016149256 0.1637933 -0.011906706
-0.015628308 0.1637938 -0.011802093
-0.015109908 0.16379406 -0.011754528
-0.014591817 0.16379334 -0.01171141
-0.01407247 0.16379371 -0.011643417
-0.013554029 0.16379398 -0.011592996
-0.013032809 0.16379452 -0.011484082
-0.012511939 0.16379504 -0.011381499
-0.011994619 0.16379419 -0.011356755
-0.011474334 0.16379462 -0.011266838
-0.010957427 0.16379377 -0.011249496
-0.010437898 0.16379414 -0.011177482
-0.009919446 0.16379444 -0.011127348
-0.0094017107 0.16379367 -0.011092496
-0.0088813398 0.16379412 -0.011001782
-0.0083626658 0.16379443 -0.010947484
-0.0078454521 0.16379359 -0.010922253
-0.007329667 0.16379362 -0.010930841
-0.0068140384 0.16379265 -0.010940946
-0.0063047204 0.16379011 -0.011086632
-0.0057957768 0.16378753 -0.011240225
-0.0052877702 0.16378489 -0.011413783
-0.0047816392 0.16378203 -0.01162739
-0.083980672 0.16455679 -0.021543249
-0.083476447 0.16455349 -0.021625709
-0.082953587 0.1645543 -0.021448918
-0.082427964 0.16455628 -0.02123487
-0.081891634 0.16455987 -0.020871788
-0.082491234 0.16430382 -0.0399605
-0.081971504 0.16430421 -0.039883777
-0.080305144 0.1645674 -0.020093001
-0.079781547 0.16456924 -0.019906797
-0.079256199 0.16457023 -0.019695371
-0.078734979 0.16457093 -0.019542102
-0.078210123 0.16457285 -0.019338138
-0.077689581 0.16457355 -0.019194141
-0.077167757 0.16457428 -0.019031405
-0.076642491 0.16457622 -0.018821999
-0.076005578 0.16460283 -0.017061993
-0.075474985 0.1646051 -0.016779445
-0.074950829 0.16460697 -0.016584452
-0.074433282 0.1646065 -0.016481549
-0.073910825 0.16460727 -0.016310204
-0.073395215 0.16460766 -0.016234346
-0.072876684 0.16460721 -0.016118642
-0.072361946 0.16460654 -0.016054787
-0.071848728 0.16460577 -0.016012534
-0.071326122 0.16460659 -0.015839584
-0.070810072 0.16460599 -0.015758052
-0.070285209 0.16460794 -0.015553863
-0.069765233 0.16460855 -0.015417906
-0.06924729 0.16460809 -0.015309022
-0.068728171 0.16460869 -0.015184619
-0.068208992 0.16460927 -0.015059859
-0.067681395 0.16461135 -0.014817209
-0.067159727 0.1646121 -0.014656837
-0.066636257 0.16461293 -0.014472549
-0.066119112 0.16461341 -0.014374872
-0.065599665 0.16461305 -0.014246804
-0.065085828 0.16461232 -0.014195626
-0.064563788 0.1646131 -0.014029722
-0.064047508 0.1646135 -0.013944807
-0.063534774 0.16461171 -0.013908791
-0.06302283 0.16461088 -0.013884527
-0.062511139 0.16460906 -0.013862877
-0.06199614 0.16460837 -0.013796167
-0.061485484 0.16460748 -0.01378836
-0.060972109 0.16460574 -0.013743292
-0.060463063 0.16460368 -0.013759312
-0.059953317 0.16460274 -0.013763952
-0.05944287 0.16460082 -0.013760828
-0.058931716 0.16459896 -0.013746767
-0.058421671 0.16459699 -0.013747879
-0.057909623 0.16459617 -0.013722139
-0.057404429 0.16459294 -0.013789597
-0.056893453 0.16459203 -0.013779338
-0.056383505 0.16459006 -0.01378269
-0.055873618 0.16458812 -0.013785182
-0.055364713 0.16458611 -0.013803133
-0.054854013 0.1645852 -0.013794932
-0.05434417 0.16458324 -0.013799525
-0.053834558 0.16458127 -0.013807531
-0.053329058 0.16457807 -0.013871764
-0.052821547 0.16457596 -0.013908156
-0.052317843 0.16457264 -0.013997531
-0.051808283 0.16457064 -0.01400541
-0.051296793 0.16456978 -0.013986983
-0.050789081 0.16456771 -0.014021621
-0.050283499 0.16456449 -0.01408431
-0.049777187 0.16456233 -0.014137861
-0.049267896 0.16456033 -0.014150058
-0.04876145 0.16455716 -0.014201727
-0.048255913 0.16455495 -0.014265046
-0.047743306 0.16455401 -0.014261631
-0.047229774 0.16455288 -0.014317138
-0.046714574 0.16455185 -0.014336897
-0.046200037 0.1645508 -0.014370403
-0.045683675 0.16454989 -0.01436556
-0.045166604 0.16455001 -0.014345895
-0.044647805 0.16455033 -0.014287471
-0.044130199 0.16454956 -0.01425551
-0.043614715 0.16454957 -0.014270065
-0.043098561 0.16454865 -0.014268932
-0.042578407 0.16454908 -0.014182148
-0.042055927 0.16454972 -0.014047614
-0.04153166 0.16455153 -0.013872495
-0.041010056 0.16455211 -0.013755382
-0.040485624 0.1645539 -0.013576951
-0.039966293 0.16455428 -0.013508668
-0.039446767 0.16455366 -0.013436161
-0.038920406 0.16455567 -0.013215216
-0.038401641 0.16455597 -0.013158902
-0.037881192 0.16455643 -0.013065924
-0.037362743 0.1645567 -0.013016999
-0.036845949 0.16455585 -0.013002855
-0.036331289 0.16455477 -0.013034651
-0.03582048 0.16455337 -0.013148047
-0.035308335 0.16455208 -0.013233288
-0.034796141 0.1645508 -0.0133157
-0.034289714 0.16454796 -0.013524923
-0.03378642 0.1645439 -0.01379968
-0.03328659 0.1645395 -0.014147558
-0.032778636 0.1645368 -0.01432342
-0.032262791 0.16453685 -0.014329467
-0.031746931 0.16453592 -0.014334533
-0.031227425 0.16453631 -0.014261758
-0.030704353 0.16453701 -0.014112144
-0.030178625 0.16453895 -0.013907177
-0.0296533 0.16454087 -0.013709423
-0.029129267 0.16454163 -0.013540883
-0.028605904 0.16454336 -0.013385785
-0.028082754 0.16454405 -0.013234629
-0.027557641 0.16454594 -0.013042523
-0.027038682 0.16454625 -0.012982222
-0.026520375 0.16454554 -0.012934454
-0.026001431 0.16454586 -0.01287437
-0.025487635 0.16454473 -0.012924089
-0.024974044 0.16454358 -0.012977782
-0.024457879 0.16454364 -0.012977664
-0.023946855 0.16454127 -0.013086628
-0.023432635 0.16454016 -0.01312798
-0.022916153 0.16454025 -0.013120494
-0.022397947 0.16454053 -0.013074448
-0.021879144 0.16453981 -0.013017234
-0.02135887 0.16454028 -0.012929744
-0.02083857 0.16454074 -0.012838394
-0.020315181 0.16454245 -0.012684584
-0.019793797 0.164543 -0.012570401
-0.019268554 0.16454491 -0.012374906
-0.018747311 0.16454543 -0.01226507
-0.018226366 0.16454595 -0.012161918
-0.017705057 0.16454649 -0.012051003
-0.017184459 0.16454695 -0.011956628
-0.016663145 0.1645475 -0.011845489
-0.016143356 0.16454788 -0.011766461
-0.01562462 0.1645482 -0.011710574
-0.015105423 0.16454856 -0.011643478
-0.014587637 0.16454779 -0.011607762
-0.014067434 0.16454823 -0.011520601
-0.013549495 0.16454846 -0.011482046
-0.013028376 0.16454898 -0.011375851
-0.012510035 0.16454926 -0.011326928
-0.011992671 0.16454843 -0.011300564
-0.011475872 0.16454855 -0.011287399
-0.010959044 0.16454768 -0.011272336
-0.010441352 0.16454792 -0.01123815
-0.0099224932 0.16454822 -0.011180082
-0.0094053708 0.1645474 -0.011157835
-0.0088859517 0.16454777 -0.011087797
-0.0083700623 0.16454679 -0.011092686
-0.0078542624 0.16454685 -0.011098616
-0.0073402766 0.16454573 -0.011145346
-0.0068248753 0.16454475 -0.011159195
-0.0063152499 0.16454321 -0.011299054
-0.0058069881 0.16454059 -0.011467308
-0.0052976776 0.16453804 -0.011613262
-0.083983213 0.16529766 -0.021569096
-0.083467253 0.1652981 -0.021488599
-0.082940467 0.16529915 -0.021256827
-0.082412325 0.16530226 -0.021007802
-0.081883401 0.16530444 -0.020747259
-0.08135511 0.16530657 -0.020495098
-0.080838785 0.16530602 -0.020410269
-0.080302648 0.16531061 -0.020049464
-0.079774275 0.16531275 -0.019795518
-0.079246409 0.16531485 -0.019550014
-0.078718163 0.16531698 -0.019298747
-0.078188844 0.16532016 -0.019033205
-0.077641115 0.16532645 -0.018511802
-0.077026501 0.16534774 -0.017061196
-0.076499984 0.16534875 -0.016834471
-0.075974777 0.16535071 -0.016625423
-0.075454302 0.16535136 -0.016482234
-0.074937284 0.16535184 -0.016386468
-0.074419044 0.16535138 -0.016274828
-0.073897287 0.16535211 -0.016113654
-0.073381484 0.16535252 -0.01603432
-0.07286039 0.16535324 -0.015882958
-0.072335832 0.16535416 -0.015682742
-0.071814314 0.16535488 -0.015525722
-0.071277864 0.1653595 -0.015159731
-0.070756257 0.16536026 -0.015000922
-0.070233069 0.16536108 -0.014820698
-0.069714047 0.16536164 -0.014697322
-0.069195561 0.16536221 -0.014581305
-0.068674728 0.16536289 -0.014432582
-0.068158448 0.16536233 -0.014347888
-0.06764102 0.16536181 -0.01424691
-0.067124993 0.16536224 -0.014165609
-0.066607818 0.1653617 -0.014068688
-0.066094913 0.16536094 -0.014029424
-0.06558042 0.16536023 -0.013970166
-0.065065309 0.16535957 -0.013901
-0.064549856 0.16535896 -0.013825989
-0.064036474 0.16535822 -0.013781902
-0.063527733 0.16535619 -0.013801672
-0.063015856 0.16535535 -0.01377798
-0.062504195 0.16535451 -0.013756025
-0.061989859 0.16535379 -0.013698596
-0.061478674 0.16535193 -0.013684404
-0.060968824 0.16534998 -0.013688019
-0.060459621 0.16534899 -0.013701004
-0.05995141 0.16534692 -0.01372769
-0.059440531 0.16534501 -0.01371814
-0.058928885 0.16534418 -0.013697614
-0.05841957 0.16534215 -0.013709127
-0.057907134 0.16534138 -0.013676637
-0.057400882 0.1653382 -0.013731034
-0.056891628 0.1653372 -0.013744111
-0.056379817 0.16533536 -0.01372077
-0.05586677 0.16533458 -0.013680567
-0.055356301 0.16533267 -0.01367652
-0.054845281 0.16533178 -0.013663405
-0.054334141 0.16532989 -0.013649828
-0.053824306 0.16532893 -0.013654151
-0.053314365 0.16532697 -0.013657254
-0.052801408 0.16532619 -0.013618848
-0.052291341 0.16532423 -0.013619988
-0.051780939 0.16532333 -0.013616047
-0.051268704 0.16532151 -0.013586788
-0.050757669 0.16532062 -0.01357518
-0.05024951 0.16531855 -0.013602962
-0.049737826 0.16531672 -0.013581772
-0.049227953 0.16531575 -0.013584715
-0.048724443 0.16531242 -0.013676879
-0.048213266 0.16531055 -0.013662894
-0.047700696 0.16530973 -0.013628968
-0.04719431 0.16530758 -0.013680971
-0.046683542 0.16530567 -0.013673406
-0.046166211 0.16530594 -0.013628119
-0.04565198 0.16530484 -0.013667791
-0.045132734 0.16530517 -0.013601531
-0.04461477 0.16530542 -0.013562781
-0.044097044 0.16530563 -0.01352891
-0.043581732 0.16530465 -0.013544541
-0.043062508 0.165305 -0.013478237
-0.042544752 0.1653052 -0.013444402
-0.042023577 0.16530573 -0.013335388
-0.041503973 0.16530611 -0.013261094
-0.040987466 0.1653052 -0.013254152
-0.040469896 0.16530541 -0.013222858
-0.039953411 0.16530553 -0.013214391
-0.03943399 0.1653059 -0.013143138
-0.038915802 0.16530517 -0.01309901
-0.038400818 0.16530512 -0.013124432
-0.037883874 0.16530427 -0.013106687
-0.037368309 0.1653043 -0.013118469
-0.036858264 0.16530281 -0.013249016
-0.036348257 0.16530032 -0.01337997
-0.035842363 0.16529746 -0.013600241
-0.035333477 0.16529588 -0.013754445
-0.034824364 0.16529332 -0.013904712
-0.034314968 0.16529179 -0.014048277
-0.033804893 0.1652903 -0.01417841
-0.033295389 0.16528778 -0.014319506
-0.032782651 0.16528656 -0.014392358
-0.032267418 0.16528654 -0.014411971
-0.03174898 0.16528682 -0.014361793
-0.031227991 0.16528733 -0.014258493
-0.030703828 0.16528812 -0.014086568
-0.03017921 0.16528995 -0.01390414
-0.029655579 0.16529071 -0.013742775
-0.029132403 0.16529241 -0.013591677
-0.028610449 0.16529302 -0.013466523
-0.028093822 0.16529313 -0.013456653
-0.027573679 0.16529357 -0.013369847
-0.027056612 0.16529372 -0.013349437
-0.026541039 0.16529277 -0.013362459
-0.026025627 0.16529176 -0.01337683
-0.025512327 0.16529056 -0.013437943
-0.024997078 0.16529055 -0.013457591
-0.024477333 0.16529095 -0.013378962
-0.023960479 0.16529009 -0.013363967
-0.023442429 0.16529034 -0.013321989
-0.022922724 0.16529073 -0.013245712
-0.022402566 0.16529115 -0.013159921
-0.021879721 0.16529283 -0.013015924
-0.02135817 0.16529341 -0.012899917
-0.020835795 0.16529404 -0.012766379
-0.020312674 0.16529576 -0.012616153
-0.019791424 0.16529629 -0.012506087
-0.019267906 0.16529703 -0.012347666
-0.018746756 0.16529857 -0.012240562
-0.01822469 0.16529918 -0.012113447
-0.017703947 0.16529965 -0.012014504
-0.017182693 0.16530019 -0.01190322
-0.016663287 0.16530056 -0.011833384
-0.01614565 0.16530076 -0.011800541
-0.015627116 0.16530104 -0.011749594
-0.015107296 0.16530144 -0.011669661
-0.014587395 0.16530186 -0.011589419
-0.014068156 0.1653022 -0.011523384
-0.013549764 0.16530252 -0.011473602
-0.013031214 0.1653018 -0.01142219
-0.012513719 0.16530199 -0.01139221
-0.011996187 0.16530217 -0.011361572
-0.011481024 0.16530114 -0.011383465
-0.01096366 0.16530134 -0.011355891
-0.01044995 0.16530019 -0.011408851
-0.0099301785 0.16530059 -0.011330768
-0.0094147772 0.16529961 -0.011345851
-0.0088955872 0.16529997 -0.011279465
-0.0083799101 0.16529998 -0.01128905
-0.0078642983 0.165299 -0.011301652
-0.0073517971 0.16529775 -0.011378141
-0.0068407636 0.16529636 -0.011487622
-0.0063296519 0.16529498 -0.011595049
-0.086099289 0.16581193 -0.039827589
-0.08560095 0.16580836 -0.040208947
-0.083978757 0.166041 -0.021497086
-0.083459146 0.16604161 -0.021366436
-0.082933024 0.16604362 -0.021144714
-0.082404464 0.16604578 -0.020889256
-0.081877448 0.16604784 -0.0206553
-0.081351288 0.16604987 -0.020432461
-0.080827221 0.16605072 -0.020239469
-0.080293082 0.16605422 -0.019907042
-0.079752043 0.16605909 -0.019477997
-0.079117276 0.16608356 -0.017748196
-0.078580581 0.16608821 -0.017379574
-0.078055494 0.16609015 -0.017173205
-0.077531986 0.166091 -0.016987577
-0.077008322 0.16609286 -0.016799811
-0.076486602 0.16609362 -0.016639307
-0.075960852 0.1660956 -0.01642289
-0.075437784 0.1660964 -0.016243376
-0.074917324 0.16609707 -0.016100634
-0.074392676 0.16609898 -0.015899617
-0.073865727 0.16610105 -0.015666783
-0.073341168 0.16610195 -0.015465355
-0.072811931 0.16610415 -0.01520061
-0.072279125 0.16610757 -0.014885983
-0.071761787 0.16610804 -0.014786794
-0.071235709 0.16611005 -0.014564977
-0.070716493 0.16611063 -0.014438882
-0.070201203 0.16611001 -0.014367661
-0.069685489 0.1661094 -0.014290781
-0.069172576 0.16610862 -0.014252498
-0.06865716 0.166108 -0.014179359
-0.068141907 0.16610736 -0.014108813
-0.06762895 0.16610658 -0.014069633
-0.067116752 0.16610578 -0.014041525
-0.066603787 0.16610499 -0.014002123
-0.066094138 0.16610301 -0.014010205
-0.065581955 0.16610219 -0.013981332
-0.065068461 0.16610146 -0.013935016
-0.064557046 0.16610058 -0.013916672
-0.064043388 0.16609985 -0.01386853
-0.063537501 0.16609766 -0.01392725
-0.06303183 0.16609548 -0.01398847
-0.062520474 0.16609359 -0.013971918
-0.062004402 0.16609398 -0.013890707
-0.061492361 0.16609217 -0.013864423
-0.060985588 0.16609003 -0.013910695
-0.060478501 0.1660879 -0.013953983
-0.059974216 0.16608562 -0.014035103
-0.059466131 0.16608356 -0.014063482
-0.05895187 0.16608284 -0.014006634
-0.058444284 0.16608076 -0.014041704
-0.057934336 0.1660798 -0.014044833
-0.057427391 0.16607766 -0.01408928
-0.05691649 0.16607578 -0.014078834
-0.056404255 0.16607496 -0.014049067
-0.05588486 0.16607557 -0.013921126
-0.055371813 0.16607481 -0.013881431
-0.05486238 0.1660728 -0.013890986
-0.054348297 0.16607209 -0.013836934
-0.053835385 0.16607134 -0.013798398
-0.053326063 0.16607036 -0.013809678
-0.052809589 0.16606976 -0.013721262
-0.052295864 0.16606905 -0.013672055
-0.051782198 0.16606832 -0.013623937
-0.05126866 0.16606756 -0.01357698
-0.050753608 0.16606693 -0.01350773
-0.050243199 0.16606599 -0.01350451
-0.049728036 0.16606537 -0.013434996
-0.049218208 0.16606338 -0.013439293
-0.048710562 0.16606128 -0.013473774
-0.048194841 0.16606167 -0.01339645
-0.047682934 0.16605985 -0.013371839
-0.047170646 0.16605903 -0.013342447
-0.046660885 0.16605806 -0.013348329
-0.046147451 0.16605733 -0.013301908
-0.045637019 0.16605525 -0.01333011
-0.045117848 0.16605562 -0.01326516
-0.044599898 0.16605586 -0.013224932
-0.044083796 0.16605593 -0.013225154
-0.043567918 0.16605496 -0.013231752
-0.043051325 0.16605505 -0.013222299
-0.042536028 0.16605507 -0.013239604
-0.042017147 0.1660554 -0.013179621
-0.04150074 0.16605449 -0.01317465
-0.040984984 0.16605453 -0.013181956
-0.04047019 0.1660535 -0.013211604
-0.039956685 0.16605334 -0.013267066
-0.039440326 0.16605239 -0.013261482
-0.03892656 0.16605225 -0.0133136
-0.038412206 0.16605118 -0.013349884
-0.037901808 0.16604972 -0.013473132
-0.037394039 0.16604702 -0.013652024
-0.036891069 0.16604391 -0.013935125
-0.036380265 0.16604249 -0.014049974
-0.035864782 0.16604252 -0.014062067
-0.035348807 0.16604258 -0.014066177
-0.034832697 0.16604163 -0.014066664
-0.034316178 0.16604175 -0.014058037
-0.033801943 0.16604064 -0.01409795
-0.033284053 0.16604087 -0.014062241
-0.032768603 0.1660409 -0.014076454
-0.032253481 0.16603987 -0.014096797
-0.031738043 0.16603985 -0.014112448
-0.031215589 0.16604051 -0.01397689
-0.030695152 0.16604097 -0.01388461
-0.03017633 0.1660413 -0.013826237
-0.029654898 0.16604283 -0.013712659
-0.029134959 0.16604325 -0.013631763
-0.028618712 0.16604234 -0.013628879
-0.028105743 0.16604213 -0.013696138
-0.027593661 0.16604085 -0.013782714
-0.027079072 0.16603976 -0.013817048
-0.026567809 0.16603838 -0.013921166
-0.026048832 0.16603874 -0.013858959
-0.025531717 0.1660389 -0.013838166
-0.025012735 0.16603921 -0.013778172
-0.024491638 0.16603975 -0.013670218
-0.023971178 0.1660402 -0.013578721
-0.023449365 0.16604181 -0.013455466
-0.02292686 0.16604242 -0.013320515
-0.022406694 0.16604285 -0.013233274
-0.021882884 0.16604462 -0.013067663
-0.0213602 0.16604528 -0.012927465
-0.020838797 0.16604584 -0.012814308
-0.020316336 0.16604751 -0.012680008
-0.019794472 0.16604808 -0.012556836
-0.019274265 0.16604851 -0.012470176
-0.018754479 0.16604891 -0.012391159
-0.018231917 0.16605057 -0.012253639
-0.017713044 0.1660509 -0.012193397
-0.017192233 0.16605142 -0.012092892
-0.0166726 0.16605178 -0.012017936
-0.016158588 0.16605167 -0.0120635
-0.01563875 0.16605206 -0.01198434
-0.01511566 0.16605276 -0.011835489
-0.014594804 0.16605324 -0.011733606
-0.014080077 0.16605322 -0.011763621
-0.013559051 0.16605373 -0.011658683
-0.013045177 0.16605259 -0.011707606
-0.012527823 0.16605277 -0.011680975
-0.012007311 0.16605324 -0.011588139
-0.011491083 0.16605331 -0.011585964
-0.010980289 0.16605189 -0.011700053
-0.010467712 0.16605064 -0.011775973
-0.0099451244 0.16605233 -0.011637292
-0.0094323866 0.16605109 -0.011710631
-0.008907659 0.16605192 -0.011525242
-0.086104363 0.16656253 -0.03992014
-0.085595414 0.16656095 -0.040075205
-0.083973177 0.16678441 -0.021410663
-0.083452463 0.16678506 -0.02126364
-0.082927182 0.16678703 -0.021054007
-0.082396574 0.16678931 -0.020770252
-0.081871599 0.16679123 -0.020564374
-0.081342548 0.16679341 -0.020302128
-0.080808125 0.16679691 -0.01996519
-0.080124803 0.16683026 -0.017562218
-0.079602204 0.16683204 -0.017388731
-0.079081625 0.16683275 -0.017244831
-0.078559816 0.16683346 -0.017083298
-0.078037433 0.16683426 -0.016912527
-0.07751748 0.16683491 -0.016777016
-0.07699278 0.16683684 -0.016574655
-0.076467834 0.16683877 -0.01636944
-0.075938314 0.16684097 -0.01610041
-0.07540381 0.16684449 -0.015762895
-0.07487911 0.16684638 -0.015560315
-0.074347585 0.16684872 -0.015263672
-0.073820837 0.16685078 -0.01503235
-0.073302649 0.16685133 -0.014922273
-0.072778307 0.16685323 -0.014725761
-0.072260387 0.16685273 -0.014617772
-0.071742952 0.16685322 -0.014516572
-0.071224257 0.16685377 -0.014397615
-0.070707612 0.16685325 -0.014306399
-0.07019496 0.16685246 -0.014271957
-0.06968049 0.16685174 -0.014212382
-0.069170929 0.16685076 -0.014220509
-0.068661332 0.16684881 -0.014227512
-0.068146944 0.16684911 -0.014169737
-0.067636251 0.16684721 -0.014161029
-0.067125618 0.16684628 -0.01415564
-0.066617049 0.16684426 -0.014176245
-0.066107839 0.16684327 -0.014189231
-0.06560155 0.16684109 -0.01424251
-0.065096714 0.16683884 -0.014316046
-0.064594336 0.16683543 -0.014424526
-0.064089224 0.16683318 -0.014494765
-0.0635847 0.16683091 -0.014572273
-0.063087367 0.1668272 -0.014750584
-0.062582336 0.16682495 -0.014821623
-0.062084474 0.1668213 -0.01499181
-0.061576605 0.1668192 -0.015023581
-0.061065421 0.16681831 -0.015009617
-0.060550995 0.16681765 -0.014949732
-0.060048707 0.16681427 -0.015059232
-0.059534594 0.16681354 -0.015002781
-0.059042081 0.16680954 -0.015247541
-0.058544405 0.16680487 -0.015420972
-0.058024012 0.16680552 -0.015278584
-0.057501309 0.16680734 -0.015104153
-0.056982361 0.16680792 -0.014982563
-0.056471109 0.16680606 -0.014967254
-0.055951774 0.16680664 -0.014839183
-0.055432454 0.16680725 -0.014712037
-0.054917343 0.16680759 -0.014643409
-0.05439622 0.16680831 -0.014491123
-0.053874709 0.16680904 -0.014333093
-0.053360626 0.16680834 -0.014278573
-0.052839778 0.16680904 -0.01412963
-0.052324481 0.1668084 -0.014058669
-0.051808178 0.16680881 -0.013973565
-0.051291309 0.16680826 -0.013880878
-0.050771855 0.16680887 -0.01375161
-0.050262369 0.1668079 -0.013760309
-0.049742699 0.16680853 -0.013628093
-0.049227796 0.16680788 -0.013562136
-0.048714943 0.1668071 -0.013523965
-0.048201188 0.16680636 -0.013474823
-0.047689065 0.16680554 -0.013447505
-0.047173589 0.16680489 -0.013373512
-0.046662338 0.16680403 -0.013357754
-0.04614833 0.16680333 -0.013303555
-0.045638107 0.16680226 -0.013335223
-0.045120716 0.16680245 -0.013307218
-0.04460334 0.16680261 -0.013280387
-0.044086404 0.16680278 -0.0132641
-0.043569267 0.16680293 -0.013242376
-0.043054596 0.16680188 -0.013273734
-0.042540476 0.16680175 -0.013317575
-0.042023733 0.16680188 -0.01330357
-0.041511469 0.1668006 -0.013386129
-0.040998548 0.16679941 -0.013455474
-0.040486965 0.16679806 -0.013551959
-0.039972793 0.16679795 -0.01359445
-0.039461136 0.16679659 -0.013691854
-0.038954455 0.16679479 -0.013894751
-0.038454022 0.16679147 -0.014230285
-0.037948877 0.16678856 -0.014465814
-0.037436716 0.16678825 -0.014550363
-0.036916338 0.1667887 -0.014460427
-0.036394116 0.16678932 -0.014329737
-0.035872359 0.1667909 -0.014208792
-0.035351414 0.16679142 -0.014106134
-0.034831423 0.16679183 -0.014023646
-0.034310602 0.16679333 -0.013922921
-0.033791475 0.16679367 -0.013858338
-0.033271201 0.16679414 -0.013769153
-0.032749362 0.16679472 -0.013647395
-0.032231148 0.16679499 -0.013601871
-0.031713516 0.16679519 -0.013569983
-0.031190779 0.16679683 -0.013428924
-0.030676443 0.16679575 -0.013467127
-0.030159846 0.16679586 -0.013457932
-0.029642601 0.16679603 -0.013433268
-0.029127512 0.16679603 -0.013456474
-0.028615795 0.16679469 -0.013550332
-0.028105322 0.16679326 -0.013672043
-0.027597107 0.16679159 -0.013842617
-0.027086966 0.16679013 -0.013969221
-0.02657624 0.16678871 -0.014087085
-0.026059266 0.16678886 -0.014068925
-0.025541265 0.16678908 -0.014028308
-0.025022104 0.16678943 -0.013963074
-0.024502765 0.16678979 -0.013895548
-0.023979541 0.1667915 -0.013742113
-0.023458604 0.16679202 -0.013638943
-0.022936728 0.16679262 -0.013515824
-0.022415996 0.16679411 -0.013418576
-0.021895997 0.16679452 -0.013335124
-0.021373738 0.16679515 -0.013202799
-0.020850919 0.16679682 -0.013059974
-0.020331167 0.16679722 -0.012983562
-0.019814171 0.16679738 -0.01296472
-0.019295663 0.16679765 -0.012914445
-0.018780563 0.16679662 -0.012935237
-0.018262904 0.16679683 -0.0129034
-0.017747447 0.16679683 -0.012918133
-0.017236941 0.16679542 -0.013037713
-0.016728789 0.16679378 -0.013209136
-0.01622301 0.16679089 -0.013430873
-0.015721347 0.16678864 -0.013740468
-0.015216667 0.16678569 -0.013987448
-0.014719319 0.16678205 -0.014388866
-0.014105599 0.16680096 -0.01229767
-0.013588883 0.16680108 -0.012284581
-0.013082083 0.16679929 -0.012484834
-0.086640425 0.16751021 -0.023017548
-0.086123094 0.16750969 -0.022918038
-0.085592747 0.16751294 -0.0226367
-0.086106785 0.1673134 -0.03995806
-0.084514141 0.16752152 -0.021828465
-0.083970308 0.16752659 -0.02136061
-0.083446473 0.16752848 -0.021170564
-0.082922801 0.16752934 -0.020982571
-0.082391441 0.16753264 -0.020688515
-0.081674449 0.16757098 -0.017819688
-0.081150249 0.16757287 -0.017624568
-0.080626845 0.16757372 -0.017439645
-0.080107585 0.16757432 -0.01731408
-0.079590127 0.16757482 -0.017212208
-0.079068601 0.16757554 -0.017053984
-0.078549653 0.16757613 -0.016931631
-0.07802403 0.1675781 -0.016717672
-0.077501811 0.16757889 -0.016548954
-0.076965749 0.16758348 -0.016189933
-0.076439194 0.16758551 -0.015962098
-0.075898163 0.16758941 -0.015534035
-0.075373106 0.16759136 -0.015326369
-0.074850529 0.16759314 -0.015154089
-0.074324414 0.16759415 -0.014932579
-0.073808722 0.16759454 -0.014855386
-0.073287569 0.16759524 -0.014703232
-0.072768606 0.16759582 -0.014581417
-0.072256841 0.16759498 -0.014557992
-0.071741104 0.16759437 -0.014481102
-0.07122837 0.1675936 -0.014445632
-0.070712246 0.167594 -0.014362329
-0.07019899 0.16759323 -0.01431819
-0.069688156 0.16759235 -0.014309318
-0.069178149 0.16759139 -0.014311102
-0.068673775 0.16758911 -0.014390976
-0.068165012 0.16758709 -0.014411057
-0.06765984 0.16758485 -0.014478973
-0.067160465 0.16758129 -0.014628767
-0.066669449 0.16757721 -0.014894673
-0.066190243 0.16756943 -0.015322371
-0.065696426 0.16756551 -0.015549458
-0.065193951 0.16756311 -0.015655704
-0.064680271 0.16756235 -0.01560711
-0.064174093 0.16756019 -0.015662085
-0.063661002 0.16755944 -0.015621525
-0.063146651 0.16755874 -0.015562669
-0.062641993 0.16755648 -0.015638258
-0.062135309 0.16755533 -0.015686769
-0.061625279 0.16755338 -0.01568931
-0.061118267 0.16755225 -0.015731968
-0.060613014 0.16755001 -0.01580029
-0.060119331 0.16754511 -0.016028062
-0.059625655 0.16754121 -0.016256507
-0.059114866 0.16754028 -0.016248066
-0.058613494 0.16753682 -0.016369719
-0.058102161 0.16753593 -0.016353864
-0.057577409 0.16753787 -0.01615018
-0.057060309 0.16753733 -0.016053364
-0.05653172 0.16754049 -0.015797958
-0.056003578 0.16754261 -0.015548167
-0.055478588 0.16754356 -0.015342309
-0.054962233 0.16754399 -0.015256573
-0.054441191 0.16754472 -0.015104373
-0.053923413 0.16754521 -0.014998787
-0.053407632 0.1675446 -0.01492061
-0.052885242 0.16754641 -0.014750582
-0.052369788 0.16754574 -0.014677047
-0.051853642 0.16754617 -0.014594537
-0.051337719 0.16754556 -0.014513225
-0.050816372 0.1675463 -0.014357557
-0.050305314 0.16754544 -0.014345502
-0.049785905 0.16754603 -0.014217359
-0.049276933 0.16754499 -0.014233717
-0.048756935 0.16754565 -0.014096591
-0.048235409 0.16754638 -0.013938368
-0.047719561 0.16754678 -0.01386007
-0.047201693 0.16754629 -0.013752972
-0.046687432 0.16754659 -0.013695653
-0.046168722 0.16754697 -0.013626487
-0.045651808 0.16754709 -0.013609639
-0.045134582 0.16754727 -0.013586666
-0.044618517 0.16754735 -0.013587066
-0.044099778 0.16754764 -0.013531924
-0.043583721 0.16754772 -0.01353401
-0.04307308 0.16754627 -0.013651944
-0.042565629 0.16754456 -0.013837458
-0.042054325 0.16754319 -0.013940946
-0.04154399 0.16754273 -0.014066244
-0.041031629 0.16754147 -0.014147588
-0.040521797 0.16753997 -0.014282555
-0.040005136 0.16754012 -0.01427058
-0.039497167 0.16753845 -0.014445256
-0.038994391 0.16753627 -0.014731612
-0.038482253 0.16753498 -0.014818803
-0.037966184 0.16753505 -0.014820427
-0.037446897 0.16753541 -0.014752545
-0.036924023 0.16753709 -0.014608136
-0.036397308 0.1675391 -0.014381858
-0.035874583 0.16753978 -0.0142398
-0.035350777 0.16754155 -0.014075655
-0.034828305 0.1675422 -0.013940373
-0.03430682 0.16754377 -0.013825702
-0.033786051 0.16754425 -0.013724853
-0.033264816 0.1675458 -0.013616238
-0.032739475 0.16754669 -0.013418495
-0.032217741 0.16754825 -0.013298742
-0.031697333 0.16754872 -0.013207864
-0.031175673 0.16755028 -0.013089652
-0.03065617 0.16755065 -0.013016129
-0.030137096 0.167551 -0.012952912
-0.029621817 0.167551 -0.012971652
-0.029108401 0.16754983 -0.013030071
-0.028595485 0.16754961 -0.013099915
-0.028086722 0.167548 -0.013258222
-0.027581975 0.16754603 -0.013502426
-0.027076956 0.1675441 -0.01374086
-0.026568349 0.1675425 -0.01390129
-0.02605788 0.16754104 -0.014023957
-0.025543589 0.16754094 -0.014063518
-0.025025789 0.16754118 -0.014026872
-0.024508543 0.16754135 -0.014004904
-0.023985967 0.16754198 -0.013865702
-0.023466606 0.16754237 -0.013796758
-0.022946309 0.16754383 -0.013706376
-0.022427402 0.16754416 -0.013647925
-0.02190705 0.16754457 -0.013557421
-0.021387752 0.16754495 -0.013490547
-0.020866636 0.16754648 -0.013383133
-0.020347413 0.16754681 -0.013316576
-0.019831993 0.16754682 -0.013331944
-0.019312602 0.16754718 -0.013263067
-0.018799573 0.16754696 -0.013329469
-0.018284619 0.16754594 -0.013354326
-0.017772805 0.16754562 -0.013447664
-0.017258272 0.16754456 -0.013481159
-0.016750135 0.1675429 -0.013653273
-0.016242135 0.1675422 -0.013826805
-0.015736282 0.16753937 -0.014047739
-0.015233729 0.16753721 -0.014339236
-0.014734227 0.16753377 -0.014696678
-0.014239788 0.16752987 -0.01516219
-0.013730615 0.1675283 -0.015311874
-0.086641744 0.1682522 -0.02302599
-0.086117432 0.16825309 -0.022829384
-0.08558134 0.16825669 -0.022469908
-0.085044824 0.16826132 -0.022103123
-0.084505968 0.16826507 -0.021704737
-0.08396779 0.16826981 -0.021316402
-0.083439544 0.16827194 -0.021065138
-0.082701899 0.16831249 -0.017908666
-0.082180306 0.16831423 -0.017750841
-0.081659563 0.16831492 -0.017603364
-0.081140682 0.16831549 -0.017481152
-0.080619089 0.16831623 -0.017322559
-0.080101378 0.16831674 -0.017218061
-0.079583809 0.16831723 -0.017115928
-0.079060078 0.16831811 -0.016926371
-0.078534894 0.16832006 -0.016717769
-0.078001089 0.16832352 -0.016389441
-0.077468909 0.16832589 -0.016083512
-0.076934122 0.16832942 -0.015741702
-0.076406933 0.16833146 -0.015505704
-0.075879626 0.16833356 -0.015267783
-0.075360492 0.16833414 -0.015142932
-0.074840449 0.1683358 -0.015005195
-0.074321941 0.16833533 -0.014888723
-0.073806755 0.16833569 -0.014818753
-0.073290564 0.16833611 -0.01473564
-0.072774224 0.16833554 -0.014649826
-0.072261386 0.16833478 -0.014611897
-0.071751758 0.1683338 -0.01461823
-0.071240574 0.16833293 -0.014604495
-0.07072743 0.16833214 -0.014563263
-0.070216142 0.16833128 -0.014546617
-0.069710076 0.16833009 -0.014603295
-0.069197454 0.1683293 -0.014569514
-0.068692356 0.16832708 -0.014638771
-0.06839788 0.16828631 -0.017630991
-0.067874216 0.16828719 -0.01744321
-0.06734515 0.16829036 -0.017181292
-0.066819951 0.1682913 -0.016972456
-0.066287264 0.1682947 -0.016659081
-0.065769866 0.16829517 -0.01655877
-0.065248728 0.1682959 -0.016406525
-0.064730711 0.16829644 -0.016296845
-0.064209677 0.16829714 -0.016145848
-0.063697122 0.16829635 -0.016112871
-0.063184947 0.1682955 -0.016084228
-0.062675945 0.16829452 -0.016099937
-0.06216719 0.16829349 -0.016119264
-0.06165836 0.16829146 -0.016137999
-0.061158203 0.16828893 -0.016275346
-0.06065616 0.16828652 -0.01638798
-0.060317419 0.16825341 -0.018767029
-0.059777729 0.16825821 -0.018356796
-0.059266046 0.16825736 -0.018334884
-0.058731638 0.16826087 -0.017998874
-0.058182254 0.16826625 -0.017454691
-0.057625756 0.16827404 -0.016811263
-0.05709476 0.16827734 -0.016521778
-0.056567416 0.16827941 -0.016283438
-0.056042507 0.16828035 -0.016077891
-0.055516131 0.16828239 -0.015853308
-0.054996192 0.16828302 -0.015717257
-0.054473914 0.16828482 -0.015548221
-0.053955115 0.16828537 -0.015428738
-0.053437755 0.16828588 -0.015327857
-0.052922443 0.16828522 -0.015256711
-0.052407451 0.16828458 -0.015189243
-0.051889904 0.16828507 -0.015086356
-0.051374979 0.16828541 -0.015020697
-0.050856441 0.16828597 -0.014904556
-0.05034557 0.16828507 -0.014893821
-0.049827136 0.16828462 -0.014778675
-0.049318105 0.16828364 -0.014793479
-0.048804067 0.16828375 -0.014779762
-0.048287258 0.16828386 -0.01476542
-0.047770485 0.168284 -0.014751473
-0.047259703 0.16828258 -0.014867487
-0.046746999 0.16828234 -0.014940512
-0.046231762 0.16828233 -0.014959414
-0.045717888 0.16828218 -0.015009799
-0.045204312 0.16828203 -0.015063218
-0.044681258 0.16828273 -0.014916492
-0.044177242 0.16828072 -0.015174997
-0.043654807 0.16828234 -0.015040358
-0.04313603 0.16828267 -0.014983351
-0.042616367 0.16828305 -0.014908711
-0.042094626 0.16828462 -0.014788232
-0.041574433 0.16828507 -0.014701779
-0.041056506 0.1682853 -0.014662956
-0.040540602 0.16828533 -0.01466862
-0.040025186 0.16828535 -0.014684238
-0.039517585 0.16828364 -0.01486742
-0.039004758 0.16828342 -0.014938529
-0.038490858 0.1682833 -0.014987011
-0.037972096 0.16828361 -0.01492947
-0.037449941 0.16828522 -0.014801093
-0.036926705 0.16828592 -0.014648409
-0.036400646 0.16828789 -0.014436599
-0.035875611 0.16828977 -0.014246272
-0.035350893 0.16829163 -0.014061632
-0.03482781 0.16829233 -0.013911785
-0.034305889 0.16829391 -0.013788027
-0.03378395 0.16829452 -0.013663082
-0.033259273 0.16829635 -0.013481277
-0.032735392 0.16829813 -0.01331534
-0.032213442 0.16829872 -0.013190907
-0.031690925 0.16830038 -0.013053776
-0.031169698 0.16830091 -0.012943905
-0.030650306 0.16830228 -0.012874551
-0.03013109 0.16830261 -0.012809439
-0.029613525 0.16830283 -0.012778625
-0.029098168 0.16830283 -0.012794598
-0.028584115 0.1683027 -0.012839997
-0.028072245 0.16830236 -0.01293126
-0.027561277 0.168301 -0.013042809
-0.027054477 0.16829921 -0.01324307
-0.026548401 0.16829738 -0.013459352
-0.026045624 0.16829525 -0.013746209
-0.025537118 0.1682936 -0.013909105
-0.02502184 0.1682936 -0.013928086
-0.024504557 0.16829377 -0.013903986
-0.023986518 0.16829504 -0.013861511
-0.023467623 0.16829534 -0.013803535
-0.022948153 0.16829573 -0.013732135
-0.022428986 0.16829607 -0.013666199
-0.021908682 0.16829753 -0.013577533
-0.021390393 0.16829777 -0.013532656
-0.020871837 0.16829808 -0.013479318
-0.020352483 0.16829842 -0.013411822
-0.019835074 0.16829959 -0.013384358
-0.019316424 0.1682999 -0.01332999
-0.018800702 0.16829994 -0.013338692
-0.018285342 0.16829996 -0.013356381
-0.017770778 0.16829988 -0.013390187
-0.017257493 0.16829869 -0.013450543
-0.016746607 0.16829827 -0.01356386
-0.01623559 0.16829687 -0.013673301
-0.01573113 0.16829489 -0.013923721
-0.015228752 0.16829272 -0.014220465
-0.014730778 0.16828915 -0.014609557
-0.014228944 0.16828692 -0.014916105
-0.013721172 0.16828522 -0.015095987
-0.087166481 0.16899231 -0.023219567
-0.086644925 0.16899405 -0.023060672
-0.086112373 0.16899644 -0.022750422
-0.085572757 0.16900125 -0.022340521
-0.085032739 0.16900508 -0.021925401
-0.084496886 0.16900869 -0.021569319
-0.083743833 0.16905114 -0.018200051
-0.083218418 0.16905309 -0.017988499
-0.082695313 0.16905394 -0.017808091
-0.08217416 0.16905566 -0.017655395
-0.081656069 0.16905618 -0.017545141
-0.08113765 0.16905673 -0.017430689
-0.080618471 0.16905731 -0.017304718
-0.080102839 0.16905671 -0.017228644
-0.079578832 0.16905858 -0.017036997
-0.079045996 0.16906199 -0.016722232
-0.078512199 0.16906445 -0.0163939
-0.077978685 0.16906787 -0.016068872
-0.077450305 0.16907004 -0.015816677
-0.076923922 0.16907206 -0.01559089
-0.076399192 0.16907397 -0.015388626
-0.075880282 0.16907457 -0.015266943
-0.075362533 0.16907507 -0.01516177
-0.074847788 0.1690744 -0.01509769
-0.07433185 0.1690748 -0.015016436
-0.073817305 0.16907512 -0.014956069
-0.073304482 0.16907436 -0.014918813
-0.072792679 0.16907351 -0.014895695
-0.07227429 0.16907404 -0.014782139
-0.071776219 0.16907141 -0.014948399
-0.071269386 0.16906925 -0.014994542
-0.070761725 0.16906814 -0.015028591
-0.070569344 0.16901036 -0.019437477
-0.070056155 0.16900961 -0.019394681
-0.069509581 0.16901584 -0.018888578
-0.068978429 0.16901813 -0.018598229
-0.068444058 0.16902162 -0.018261872
-0.067912899 0.16902392 -0.017970532
-0.067386471 0.16902594 -0.017743632
-0.066857792 0.16902912 -0.017486479
-0.066328235 0.16903131 -0.017217547
-0.065804377 0.16903219 -0.017028484
-0.065282278 0.16903396 -0.016862001
-0.064764306 0.1690345 -0.016752452
-0.06424129 0.1690353 -0.016574502
-0.063725427 0.16903572 -0.016495034
-0.063212305 0.16903494 -0.016454026
-0.062701859 0.16903402 -0.016449925
-0.062194981 0.16903289 -0.016494729
-0.061948642 0.16898429 -0.020154744
-0.061414562 0.16898778 -0.019822422
-0.060876936 0.16899246 -0.019440401
-0.060359828 0.16899192 -0.019344606
-0.059832439 0.16899402 -0.019105397
-0.059314273 0.16899455 -0.018994037
-0.058791876 0.16899636 -0.018823314
-0.058277965 0.1689956 -0.018771823
-0.057745874 0.16899899 -0.018466897
-0.057147592 0.16901325 -0.01724416
-0.056603953 0.16901831 -0.016779047
-0.056076378 0.1690204 -0.016537543
-0.055551715 0.16902232 -0.016336814
-0.055029809 0.16902307 -0.016172834
-0.054509401 0.16902474 -0.016030755
-0.053986505 0.16902557 -0.015853543
-0.053467251 0.16902618 -0.015727233
-0.052950859 0.1690266 -0.015640602
-0.052433424 0.1690271 -0.015538665
-0.051917002 0.16902652 -0.015452362
-0.051401921 0.1690269 -0.015383127
-0.050885893 0.16902727 -0.015302551
-0.050368503 0.16902778 -0.01520176
-0.049852222 0.16902718 -0.015116342
-0.04933472 0.16902743 -0.015073623
-0.04881727 0.16902862 -0.015045508
-0.048306055 0.16902725 -0.01515171
-0.047791056 0.16902722 -0.015175712
-0.047278062 0.16902703 -0.015242771
-0.046767116 0.16902661 -0.015354753
-0.046257086 0.16902614 -0.015485779
-0.045745932 0.16902474 -0.015592596
-0.045235269 0.16902432 -0.015709601
-0.044719987 0.1690243 -0.015729066
-0.044204056 0.16902436 -0.015733324
-0.043682314 0.16902593 -0.015613821
-0.043160036 0.16902657 -0.015482034
-0.04263483 0.16902845 -0.015288183
-0.042110845 0.16903025 -0.01511855
-0.041587524 0.16903196 -0.014964835
-0.041065723 0.16903256 -0.014843502
-0.040547393 0.1690328 -0.014796275
-0.040028613 0.16903412 -0.014740511
-0.039513942 0.16903408 -0.01477258
