# .PCD v0.7 - Point Cloud Data file format
VERSION 0.7
FIELDS x y z
SIZE 4 4 4
TYPE F F F
COUNT 1 1 1
WIDTH 1301
HEIGHT 1
VIEWPOINT 0 0 0 1 0 0 0
POINTS 1301
DATA ascii
-0.018765792 0.071289837 0.024964701
-0.019254826 0.071205653 0.025113123
-0.019743543 0.071140833 0.025261205
-0.02030492 0.053100765 0.02707524
-0.020796547 0.05267556 0.027257444
-0.021313723 0.050910346 0.027582143
-0.021924149 0.044239081 0.028429842
-0.022446353 0.042206146 0.028783193
-0.022971401 0.040020093 0.02915279
-0.023497883 0.037760925 0.02953062
-0.024008309 0.036347322 0.029818097
-0.024507767 0.035514228 0.030043582
-0.02499938 0.035085082 0.030226262
-0.025486 0.03492827 0.030379696
-0.025970235 0.034898862 0.030519126
-0.026451739 0.035016961 0.030643003
-0.026930725 0.035251737 0.030755205
-0.027408279 0.035567909 0.030858139
0.015485 0.16922605 0.005509363
0.015016992 0.16819622 0.0057387291
0.014550779 0.16709167 0.0059735426
0.014080796 0.16612449 0.0061968495
0.01360603 0.16534793 0.0064045866
0.01312818 0.16469036 0.006602895
0.012652855 0.16392739 0.0068091233
0.012187667 0.16279222 0.0070473817
0.011712667 0.16202161 0.0072544576
0.011233766 0.16139451 0.007449348
0.010752622 0.1608562 0.0076372069
0.010271102 0.16032788 0.0078239422
0.0097878352 0.15986903 0.0080047827
0.00930617 0.15935399 0.0081909988
0.0088258125 0.15878405 0.0083814245
0.0083441809 0.15826133 0.0085675586
0.0078602061 0.15782961 0.0087463558
0.0073767342 0.15737405 0.0089268535
0.0068915598 0.15699203 0.0091020428
0.0064040795 0.15668616 0.0092696678
0.005917646 0.15634923 0.0094407704
0.0054287761 0.15609917 0.0096040629
0.004938636 0.15590017 0.0097635835
0.0044475347 0.15573969 0.0099197421
0.0039564408 0.15557778 0.010076066
0.0034637414 0.15547046 0.01022727
0.0029715747 0.15535346 0.010380527
0.0024797805 0.15521267 0.010534495
0.0019873306 0.15509745 0.010686561
0.0018993765 0.12103501 0.01382483
0.0014199577 0.12042364 0.014017949
0.0009426102 0.11974344 0.014217818
0.0005113259 0.11732446 0.014563093
3.8210303e-05 0.11490721 0.014915319
-0.00044890121 0.11378144 0.01515528
-0.00093421713 0.11188807 0.015463911
-0.0014212169 0.11074372 0.015706083
-0.0019088201 0.10990477 0.015920693
-0.0023965836 0.10928734 0.016116848
-0.0028827041 0.10766615 0.016401
-0.0033695027 0.10645977 0.016648557
-0.0038572103 0.10583852 0.016845129
-0.0043437555 0.10442574 0.017110351
-0.0048315972 0.10373049 0.017312827
-0.0053131841 0.09975522 0.017804421
-0.0058018751 0.099457622 0.017971328
-0.0062732399 0.089898273 0.018953407
-0.0067549571 0.085942611 0.019442676
-0.0072430931 0.085406259 0.019631121
-0.0077280961 0.083245322 0.019962778
-0.008214891 0.082088619 0.020206392
-0.008701928 0.080872409 0.020454148
-0.0091893896 0.080070294 0.020666361
-0.0096772872 0.079515159 0.020857058
-0.010165196 0.078827493 0.021058585
-0.010652501 0.077954382 0.02127731
-0.01113965 0.076991506 0.021503722
-0.011627316 0.076199479 0.021714767
-0.012114946 0.075516254 0.021916796
-0.012603238 0.075024538 0.022100907
-0.013091311 0.074620388 0.022278512
-0.013580061 0.074318357 0.022445984
-0.014068153 0.07394398 0.022621071
-0.014556594 0.073516242 0.022799553
-0.015044753 0.073142402 0.022974579
-0.015533138 0.072815739 0.023144946
-0.016021684 0.072478503 0.023315594
-0.016510315 0.072225519 0.023479199
-0.016998813 0.072016187 0.023639524
-0.017487675 0.071863025 0.023794236
-0.017976273 0.07168974 0.023951218
-0.018464994 0.071526803 0.02410705
-0.018953752 0.071414664 0.024258785
-0.019442592 0.071333162 0.024407884
-0.019931674 0.071334608 0.024549041
-0.020498749 0.052563384 0.026445072
-0.020992 0.052060694 0.026635047
-0.021535426 0.04888685 0.027111823
-0.022113957 0.043844484 0.027788525
-0.022639791 0.041611925 0.028163984
-0.0231735 0.038956027 0.028584639
-0.023692641 0.037066333 0.028923972
-0.024198251 0.035902306 0.029185051
-0.024694644 0.035228908 0.02939347
-0.025187433 0.034743875 0.029582197
-0.025674175 0.034573078 0.029737374
-0.026158247 0.034557119 0.029875116
-0.026639756 0.03466785 0.02999988
-0.027119324 0.034883328 0.030113531
-0.027597386 0.035189718 0.030216759
-0.028075697 0.035468131 0.030323455
0.014812652 0.16833183 0.0049921414
0.014347371 0.16719885 0.0052301255
0.013876189 0.1662932 0.0054494799
0.013403777 0.16543071 0.0056649153
0.01292688 0.16472906 0.0058661974
0.012450609 0.16401099 0.0060693291
0.011984695 0.16289613 0.0063052974
0.0115107 0.16209562 0.0065157567
0.011033524 0.16140252 0.0067160851
0.010552909 0.16085045 0.0069054984
0.010070384 0.16035907 0.0070890398
0.0095865987 0.15993091 0.0072684404
0.0091060288 0.15936756 0.0074581117
0.0086284317 0.15869656 0.0076569389
0.0081487484 0.15810536 0.0078497622
0.0076651908 0.15765327 0.0080298763
0.0071817264 0.15720949 0.0082100276
0.0066959076 0.15684457 0.0083833225
0.0062091164 0.15651798 0.0085532423
0.0057220459 0.15620019 0.0087221898
0.0052334145 0.15594244 0.0088863466
0.0047441237 0.15572101 0.0090483613
0.0042540878 0.1555111 0.0092081372
0.0037625581 0.15536118 0.0093631651
0.0032710433 0.15521283 0.0095179677
0.0027797669 0.15505455 0.0096738767
0.0022884011 0.15490945 0.0098293293
0.0017959625 0.15479501 0.0099812746
0.0013042055 0.15464962 0.010135796
0.0012201257 0.12062351 0.013288414
0.00073801726 0.12012202 0.013473095
0.00026772916 0.11918177 0.013695333
-0.00015426055 0.11521171 0.014177341
-0.00064082816 0.11398212 0.01442766
-0.0011256561 0.11182664 0.014759686
-0.0016127564 0.11080597 0.014991019
-0.0021002218 0.10999706 0.015204025
-0.0025878437 0.10936283 0.015402159
-0.0030719265 0.10669429 0.015778542
-0.0035595186 0.10603528 0.015978605
-0.0040473454 0.10543875 0.016173212
-0.0045342743 0.10432376 0.016412841
-0.0050148815 0.099909365 0.016943881
-0.00550282 0.099382944 0.017132154
-0.0059911534 0.098975629 0.017309194
-0.006462276 0.089874461 0.01825547
-0.0069434904 0.085841969 0.018752811
-0.0074313097 0.085223615 0.01894906
-0.0079168938 0.083400995 0.019251259
-0.0084032565 0.082151122 0.019503988
-0.0088903867 0.081077121 0.019739738
-0.0093777925 0.08021576 0.019957028
-0.0098655 0.079616331 0.020151986
-0.010353349 0.078945659 0.020352542
-0.01084068 0.07810083 0.020568831
-0.011328056 0.077236302 0.020786487
-0.011815727 0.076554179 0.020988408
-0.012303539 0.075832717 0.021192987
-0.01279138 0.075302608 0.021381659
-0.013279591 0.074822694 0.021565381
-0.013768099 0.074535042 0.021732088
-0.014256291 0.074190147 0.021904672
-0.01474461 0.073806264 0.022079857
-0.015233018 0.073374353 0.022258889
-0.015721224 0.073009416 0.022432799
-0.01620964 0.072682872 0.02260318
-0.01669807 0.072410524 0.022769054
-0.017186951 0.072204627 0.022928046
-0.017675456 0.072002538 0.023087513
-0.01816434 0.071848571 0.023242272
-0.018652923 0.07167507 0.023399346
-0.019141784 0.071546808 0.023552004
-0.019630544 0.071458764 0.023701852
-0.020208236 0.052063063 0.025674544
-0.020693474 0.051979467 0.025819784
-0.021205992 0.050432354 0.026123
-0.021746878 0.047377832 0.026587741
-0.022313664 0.042931974 0.027202386
-0.022830587 0.041167088 0.027528027
-0.023367833 0.038296297 0.027973652
-0.023874193 0.03707289 0.028242154
-0.024379086 0.035941519 0.02850013
-0.024874637 0.035313495 0.028703799
-0.025368284 0.03477978 0.028897641
-0.025855828 0.034574017 0.029056253
-0.026340302 0.034532271 0.029197214
-0.026822541 0.034609564 0.029325234
-0.027302133 0.034824207 0.029438982
-0.027780389 0.035110816 0.029544665
-0.028259674 0.035344094 0.029656084
0.01461288 0.16830394 0.0042599998
0.014142562 0.16736591 0.0044819657
0.013671156 0.166465 0.0047007641
0.013200548 0.16553453 0.0049218535
0.012725163 0.16478114 0.0051280097
0.012250166 0.16401984 0.0053350148
0.011784717 0.16289729 0.0055728038
0.011310201 0.16211402 0.0057812952
0.01083298 0.16143674 0.005981863
0.010353088 0.16084716 0.0061734836
0.0098703578 0.16037904 0.0063563748
0.0093865693 0.15993419 0.006535674
0.0089066885 0.15935782 0.0067278105
0.0084311441 0.1586124 0.0069330293
0.0079514347 0.15802412 0.0071255169
0.0074687563 0.15753843 0.0073084389
0.0069850758 0.15709665 0.007488389
0.0065000392 0.15671189 0.0076638577
0.0060129203 0.15639421 0.0078327898
0.005525101 0.15610668 0.0079993121
0.0050377473 0.15580241 0.0081677698
0.0045490414 0.15554792 0.0083315428
0.0040595047 0.15532468 0.0084928125
0.0035689957 0.15513942 0.0086507779
0.0030785874 0.15494877 0.0088093597
0.0025881045 0.15476838 0.0089677628
0.0020966977 0.15461466 0.0091231782
0.0016052574 0.15446226 0.0092784427
0.0011137128 0.15430433 0.0094334166
0.0010237992 0.12069847 0.012569986
0.00053830445 0.12031883 0.012743935
5.4739416e-05 0.11987469 0.012924146
-0.00034694374 0.11566721 0.013426332
-0.00083362311 0.11454975 0.013667226
-0.0013170615 0.11187005 0.014046812
-0.0018041059 0.11078805 0.014283527
-0.0022916496 0.1100401 0.014491288
-0.0027790479 0.10932982 0.014696471
-0.0032616071 0.10617329 0.015118102
-0.0037498139 0.10572552 0.015298974
-0.0042373948 0.10498652 0.015505636
-0.0047243387 0.10394451 0.015739525
-0.0052043758 0.099661984 0.016261732
-0.0056923851 0.099032216 0.016458353
-0.0061752908 0.096201241 0.016852044
-0.0066505857 0.089555301 0.017583696
-0.0071324967 0.085990205 0.018041207
-0.007619489 0.085059404 0.018265786
-0.0081062019 0.083893463 0.018510468
-0.0085921399 0.082347184 0.018788626
-0.0090789907 0.081246242 0.019027576
-0.0095662661 0.08036875 0.019246807
-0.010053705 0.079661816 0.019451605
-0.010541171 0.078905903 0.019660303
-0.011028633 0.078048557 0.019877145
-0.011516009 0.077259287 0.020088801
-0.012003805 0.076664567 0.020283209
-0.012491878 0.076095551 0.0204746
-0.012979928 0.075580046 0.02066157
-0.013467733 0.075098746 0.020846363
-0.013956275 0.07478106 0.021015732
-0.014444504 0.074359089 0.021194473
-0.014932763 0.073950008 0.021371741
-0.015420917 0.073522754 0.02155114
-0.015909269 0.073159553 0.02172488
-0.016397629 0.07285431 0.021893712
-0.01688635 0.072589755 0.02205769
-0.017374832 0.072373152 0.022218898
-0.017863691 0.072198965 0.022375058
-0.018352322 0.07200145 0.022534017
-0.018841013 0.071836375 0.02269005
-0.01932993 0.071713187 0.022842143
-0.019818783 0.071614824 0.02299224
-0.020402167 0.051512517 0.025046004
-0.020892087 0.051170632 0.025219686
-0.021463348 0.046462178 0.025864307
-0.021964187 0.045540601 0.026099905
-0.02247137 0.044265553 0.026374884
-0.023017418 0.040912613 0.026873102
-0.023546971 0.038441956 0.02727638
-0.024049193 0.037440717 0.027520943
-0.024548169 0.036621109 0.027745724
-0.025047339 0.035786249 0.02797241
-0.025541892 0.035205178 0.02817115
-0.026031269 0.034907658 0.028339313
-0.026515668 0.034868658 0.028479965
-0.026998363 0.034913171 0.028612053
-0.02747949 0.03505867 0.028732544
-0.027958009 0.035345934 0.028837139
0.013937008 0.16755247 0.0037315884
0.013462517 0.1667743 0.0039404854
0.012994852 0.16573539 0.0041708681
0.012523305 0.16484503 0.0043894569
0.012050956 0.16398302 0.0046048188
0.01158401 0.16292971 0.0048377765
0.011108998 0.1621581 0.0050449595
0.010632318 0.16146761 0.0052469759
0.010153864 0.16082603 0.0054434692
0.0096720383 0.16031644 0.0056291171
0.0091887601 0.15986401 0.0058102221
0.0087077953 0.15931956 0.0059987442
0.0082319491 0.15859038 0.0062031369
0.0077533275 0.15796171 0.0063991868
0.0072710477 0.15747213 0.0065835188
0.0067880489 0.15700413 0.0067654033
0.0063028745 0.1566219 0.0069406391
0.0058168769 0.15626642 0.0071128295
0.0053287782 0.15599221 0.0072788172
0.0048422106 0.15565862 0.007449551
0.0043536536 0.15540035 0.0076137991
0.0038642958 0.1551642 0.0077755102
0.0033751465 0.1549287 0.0079381615
0.0028852634 0.1547253 0.0080981459
0.0023948252 0.15452628 0.0082567502
0.0019038506 0.15436226 0.0084132925
0.0014127083 0.15419342 0.008569397
0.00092142075 0.15404508 0.0087252036
0.00042894855 0.15392928 0.0088773463
0.00033996627 0.1204593 0.012019139
-0.00014741346 0.12015777 0.012187218
-0.00053945184 0.11595285 0.012689618
-0.0010262616 0.11495124 0.012920655
-0.0015087537 0.11194558 0.013330186
-0.0019953325 0.11073691 0.013578992
-0.002482947 0.11007757 0.013779148
-0.0029649399 0.10682986 0.014210643
-0.0034522079 0.10598224 0.014427284
-0.0039401762 0.10550843 0.014611218
-0.0044252984 0.10361407 0.014920985
-0.0049135424 0.10332901 0.015088389
-0.0053947717 0.09964776 0.015557682
-0.005876597 0.096420176 0.015987752
-0.0063645579 0.095813632 0.016182605
-0.0068370923 0.088349819 0.016990924
-0.0073217824 0.086331941 0.017312428
-0.0078083426 0.085122049 0.017561419
-0.0082957447 0.084308885 0.01777493
-0.0087814592 0.08283636 0.018048218
-0.0092678703 0.081590094 0.018300533
-0.0097547658 0.08052592 0.018536052
-0.010242164 0.079731524 0.018748362
-0.010729369 0.07895264 0.018959755
-0.011216819 0.078115672 0.019175166
-0.011704098 0.07729362 0.019389739
-0.012192015 0.076764502 0.019578319
-0.012679961 0.076260135 0.019764919
-0.013168048 0.075778142 0.019948903
-0.013656076 0.075313136 0.020131797
-0.014144521 0.074967436 0.020303454
-0.014632542 0.074553937 0.020482205
-0.015120894 0.074138008 0.020660281
-0.015608933 0.073701851 0.020840723
-0.01609733 0.073327221 0.021014865
-0.016585752 0.073027268 0.021183068
-0.017074358 0.072750315 0.021348502
-0.017563004 0.072547451 0.021508101
-0.01805168 0.072353087 0.021666652
-0.018540375 0.072187223 0.021822805
-0.01902907 0.072016604 0.021979555
-0.019517979 0.071901463 0.022130653
-0.020007029 0.071848609 0.022276307
-0.020597124 0.050889015 0.024426619
-0.021114908 0.049036101 0.024764201
-0.021670643 0.04513485 0.025323274
-0.022165406 0.044543505 0.025523374
-0.022669574 0.043425381 0.025781615
-0.023182152 0.041868255 0.026086044
-0.023713529 0.039283164 0.026502708
-0.024212865 0.038431883 0.026731409
-0.024709847 0.037722714 0.026944336
-0.025200564 0.037342384 0.027121857
-0.025693499 0.036837809 0.027312972
-0.026184743 0.036427736 0.027494261
-0.026668182 0.036455158 0.027626572
-0.027154125 0.036323048 0.027777905
-0.02763815 0.036313016 0.027914904
-0.028122187 0.036300123 0.028052274
0.013253544 0.1670845 0.0031791669
0.012787122 0.16600794 0.003413795
0.01232009 0.16495088 0.0036461656
0.011852201 0.16393195 0.0038762521
0.011383038 0.16295955 0.0041020666
0.010907896 0.16220799 0.0043089683
0.010432344 0.16146727 0.0045146379
0.0099550709 0.16078636 0.0047145882
0.0094743334 0.16023615 0.0049037854
0.0089903884 0.15981075 0.0050828499
0.0085094757 0.15926746 0.005271249
0.0080329478 0.15856327 0.0054738144
0.0075552501 0.15790892 0.005672744
0.0070731491 0.15741569 0.0058574458
0.0065908879 0.15691641 0.0060418942
0.006105803 0.1565332 0.0062172231
0.0056211241 0.15612963 0.006393855
0.0051336884 0.15583043 0.0065616271
0.0046466254 0.15551037 0.0067308792
0.0041584969 0.15523829 0.0068966509
0.0036698245 0.15498167 0.0070607006
0.0031806901 0.15474798 0.0072231242
0.0026913024 0.1545195 0.0073849498
0.0022021346 0.1542777 0.0075473632
0.0017110109 0.15411539 0.0077037341
0.0012201294 0.15394115 0.0078605004
0.00072815642 0.15380481 0.0080139469
0.0002358146 0.1536867 0.0081663523
0.00014145672 0.12060528 0.011293685
-0.00034752861 0.12035856 0.011456592
-0.00073174387 0.11616199 0.011960035
-0.001218766 0.11518206 0.012188502
-0.0017061718 0.11452272 0.012389608
-0.0021868385 0.11079023 0.012864999
-0.0026740208 0.11003271 0.013074839
-0.0031553805 0.10667746 0.013517169
-0.0036430769 0.1059702 0.013721025
-0.0041310713 0.10544431 0.013909249
-0.0046144389 0.10301081 0.014269369
-0.0050966702 0.10005464 0.014675958
-0.005585175 0.099717535 0.014846636
-0.0060663521 0.096286856 0.015295954
-0.0065506957 0.094235763 0.015621396
-0.0070306249 0.090297878 0.016116293
-0.0075110495 0.086513892 0.016596828
-0.0079975054 0.085327476 0.016843947
-0.0084848069 0.084576584 0.017053006
-0.008972276 0.083818614 0.017261948
-0.0094573386 0.082048416 0.017561849
-0.0099435337 0.080751434 0.01781919
-0.010430466 0.079893894 0.018038001
-0.010918025 0.079143897 0.018245976
-0.011405401 0.078438938 0.018450517
-0.011892691 0.077528499 0.018672734
-0.012380317 0.076946437 0.018866621
-0.012868412 0.076433301 0.019053288
-0.013356365 0.075931653 0.019239565
-0.01384446 0.075502045 0.019419283
-0.014332667 0.075136088 0.019593332
-0.014820885 0.074760281 0.01976857
-0.015309285 0.074386895 0.019942559
-0.015797511 0.074018106 0.020116957
-0.016285595 0.073583283 0.020297272
-0.016774129 0.073242307 0.020468393
-0.017262619 0.072954439 0.02063513
-0.017751072 0.072742738 0.020795729
-0.018239792 0.072550938 0.020953998
-0.018728506 0.072358936 0.021112299
-0.019217422 0.072233491 0.021264637
-0.019706419 0.072152704 0.021412654
-0.020303741 0.050511681 0.023644507
-0.020793322 0.050197832 0.023814728
-0.021305164 0.048655793 0.024119206
-0.021870051 0.044226907 0.024737541
-0.022365289 0.043595418 0.024942623
-0.022862608 0.042852663 0.025159705
-0.02335947 0.042146951 0.025372148
-0.023855049 0.041497156 0.025579555
-0.024347432 0.041030914 0.025765877
-0.02486614 0.039116226 0.026111221
-0.025359109 0.038608443 0.026302774
-0.025846954 0.038402449 0.02646045
-0.026342103 0.037776325 0.026664827
-0.026829494 0.037578933 0.026822383
-0.027310785 0.037710048 0.026944628
-0.027788021 0.038076133 0.0270404
-0.028260503 0.038685083 0.027110614
0.013045494 0.1673595 0.0024208282
0.012576643 0.16637789 0.0026477184
0.012117106 0.16504575 0.0029041353
0.011650495 0.16398484 0.0031379717
0.011180919 0.16303031 0.0033627148
0.010705732 0.16228132 0.0035693538
0.010231633 0.16148899 0.0037798504
0.0097544231 0.16081476 0.0039800224
0.0092744455 0.16024308 0.0041716076
0.0087927952 0.1597286 0.0043577501
0.0083130077 0.15914978 0.0045501483
0.007834781 0.15851089 0.0047473521
0.0073568113 0.15786466 0.0049453448
0.0068746172 0.15737286 0.0051299226
0.0063934438 0.1568455 0.0053174538
0.005909171 0.15642077 0.0054955245
0.0054249614 0.15600371 0.0056736642
0.0049388967 0.15565577 0.0058459821
0.0044513755 0.15535799 0.0060136574
0.003964033 0.15505576 0.0061818552
0.0034759082 0.15477669 0.0063474379
0.002986826 0.15453897 0.0065103243
0.0024985038 0.15427303 0.006675391
0.0020093136 0.15403266 0.0068376227
0.0015192293 0.15382533 0.0069970903
0.0010279417 0.1536677 0.0071529667
0.00053542107 0.15355529 0.0073047257
4.2807311e-05 0.15344429 0.0074563161
-0.00045051053 0.15335442 0.0076055196
-5.5164099e-05 0.1206729 0.010574115
-0.00054874644 0.12059899 0.010722531
-0.00092383102 0.11617202 0.011247255
-0.001410801 0.11528937 0.011468068
-0.0018987805 0.11479163 0.011653932
-0.0023784265 0.11084782 0.012150517
-0.0028651282 0.109915 0.012376288
-0.0033470131 0.10686662 0.012791917
-0.0038342662 0.1060662 0.013004934
-0.0043224655 0.10566766 0.013181863
-0.0048041493 0.10265005 0.013595769
-0.0052869618 0.10008994 0.013967998
-0.0057754852 0.099743985 0.01413973
-0.0062562712 0.096306585 0.014590776
-0.0067380704 0.093358874 0.014998335
-0.0072201267 0.090349585 0.015410287
-0.0076999106 0.086527079 0.015896389
-0.0081866086 0.08548665 0.016131056
-0.008673925 0.084769592 0.01633708
-0.009161666 0.084119126 0.016536135
-0.009647727 0.082861237 0.016790804
-0.01013295 0.081235021 0.017078467
-0.010619581 0.080190547 0.017313609
-0.011106595 0.07935831 0.017530406
-0.01159443 0.078771733 0.017723877
-0.012081943 0.078105971 0.017924724
-0.012569148 0.077316545 0.018137403
-0.013056852 0.076742478 0.018330334
-0.01354488 0.076198936 0.018519653
-0.014032956 0.07573504 0.018702423
-0.01452104 0.075352177 0.018878521
-0.015009474 0.074979663 0.019052386
-0.015497826 0.074673183 0.019221371
-0.015986096 0.074366949 0.019390281
-0.016474545 0.073990144 0.019564681
-0.016962796 0.073622473 0.019738985
-0.017450996 0.073252559 0.019913495
-0.017939746 0.07300745 0.020076163
-0.018428314 0.07280916 0.020235186
-0.018916816 0.072597772 0.020395769
-0.019405877 0.072459817 0.020548631
-0.019894874 0.072375983 0.020697013
-0.020498887 0.049874939 0.023026785
-0.020987544 0.049603269 0.023192635
-0.02157791 0.04373005 0.02397134
-0.022073813 0.043058798 0.024181422
-0.022568438 0.042474188 0.02438066
-0.02305904 0.042098783 0.024557557
-0.023548467 0.041778442 0.024729533
-0.024038482 0.041444808 0.024901213
-0.024529871 0.041020624 0.025084278
-0.02502019 0.040669858 0.025258129
-0.025510259 0.040319391 0.025432853
-0.026000863 0.039945245 0.025609614
-0.026486821 0.039838292 0.025756838
-0.026972 0.039760146 0.025901383
-0.027457297 0.03967708 0.026046542
-0.027940437 0.039709292 0.026179254
-0.028423484 0.03975264 0.02631055
0.012371179 0.16655523 0.001897397
0.011915069 0.16510731 0.0021648691
0.011445731 0.16415752 0.002390095
0.010977402 0.16315839 0.0026189392
0.010502767 0.16238627 0.002827161
0.010025859 0.16170754 0.0030288137
0.0095513947 0.16092847 0.0032378179
0.009073332 0.16028494 0.0034355163
0.0085963607 0.15960899 0.0036368635
0.0081158616 0.15905482 0.003826479
0.0076363459 0.1584602 0.0040196734
0.0071588159 0.1578012 0.0042190966
0.0066770576 0.15729581 0.0044052121
0.0061960183 0.15676261 0.0045934333
0.0057129264 0.15629832 0.0047749178
0.0052286834 0.15588917 0.0049531548
0.0047424398 0.15553887 0.0051247752
0.0042550787 0.15523687 0.0052929134
0.0037689991 0.15488935 0.0054652295
0.0032822229 0.1545638 0.0056350403
0.0027942061 0.15428737 0.0058012917
0.0023065135 0.1539955 0.0059683346
0.0018171817 0.15376715 0.0061301435
0.0013275519 0.15354432 0.0062913946
0.00083628297 0.15338084 0.0064469003
0.00034362823 0.15327017 0.0065985178
-0.00014911219 0.15316498 0.006749446
-0.0006422773 0.15307091 0.0068991273
-0.00074996427 0.12083959 0.0099884309
-0.0011183135 0.11618847 0.010534419
-0.0016030632 0.11541858 0.01074508
-0.002091039 0.11499878 0.010924572
-0.002569858 0.11089685 0.011437001
-0.0035385489 0.10710428 0.012062846
-0.0040257834 0.1063481 0.012272533
-0.00450591 0.10273673 0.012740385
-0.0049940161 0.10235576 0.012916252
-0.0054774173 0.10007875 0.013263639
-0.005965475 0.099639982 0.013444427
-0.0064386278 0.093366735 0.014154268
-0.006925568 0.092431903 0.014379309
-0.007409595 0.090424739 0.014702469
-0.0078887343 0.086535409 0.015196504
-0.0083757341 0.085598834 0.015421771
-0.0088630468 0.084933959 0.01562356
-0.0093505569 0.084284052 0.015823545
-0.0098372735 0.083252542 0.016057154
-0.010323141 0.081916772 0.016319104
-0.010809295 0.080800861 0.01656175
-0.01129549 0.07966198 0.016806144
-0.011783261 0.079060823 0.017001348
-0.012271367 0.078576997 0.017185515
-0.012758765 0.077946708 0.017384175
-0.013246026 0.07716585 0.017595826
-0.013733726 0.076591566 0.01778879
-0.014221538 0.076058529 0.017977785
-0.014709633 0.075596318 0.018160386
-0.01519775 0.075214334 0.018336391
-0.015686315 0.074931748 0.0185025
-0.016174924 0.074701183 0.018664388
-0.016663358 0.074432574 0.01882983
-0.017151661 0.074067257 0.019003859
-0.017639875 0.073620722 0.019184563
-0.018128123 0.073309086 0.019354131
-0.01861681 0.073064454 0.019516712
-0.019105505 0.07284189 0.01967768
-0.019594381 0.072721317 0.01982942
-0.02008317 0.072614379 0.019980544
-0.020689722 0.049448133 0.022387566
-0.021176264 0.049298383 0.022540189
-0.021780454 0.042611368 0.023410985
-0.022274423 0.042052902 0.023607904
-0.022767682 0.041527539 0.023801638
-0.023256155 0.041275095 0.023965131
-0.023742434 0.041142374 0.024115583
-0.024228808 0.040995996 0.0242677
-0.024716889 0.040770844 0.024427762
-0.025203623 0.040602867 0.024582583
-0.025689714 0.040484875 0.024731191
-0.026174687 0.040424056 0.024873594
-0.026658412 0.040431388 0.025008403
-0.027141243 0.040493313 0.025137417
-0.027622171 0.040648069 0.025256669
-0.028102621 0.040840916 0.025371233
-0.028578768 0.041261576 0.025461096
-0.029053466 0.041771911 0.025540747
0.011712968 0.16517085 0.0014253869
0.011241842 0.16428815 0.0016450379
0.010771174 0.1633755 0.0018660785
0.010299675 0.16250178 0.0020847567
0.0098212324 0.16186921 0.0022812099
0.0093452781 0.16115469 0.00248595
0.0088723004 0.16033278 0.0026997272
0.0083975643 0.15956931 0.0029079667
0.0079173781 0.15900421 0.0030987994
0.0074380338 0.15841365 0.003292507
0.0069610439 0.15773115 0.0034936317
0.0064798221 0.15720409 0.0036811451
0.005998522 0.15668523 0.0038688141
0.0055151694 0.15623459 0.0040497058
0.0050315037 0.15580085 0.0042297221
0.0045458898 0.15543494 0.0044030687
0.0040590242 0.15510707 0.0045731976
0.0035739727 0.15472397 0.0047484813
0.0030884892 0.15435822 0.0049228161
0.0026013479 0.15404244 0.005091548
0.0021137185 0.15374732 0.0052589173
0.0016255826 0.15347669 0.0054245205
0.0011354946 0.15326937 0.0055840197
0.00064459816 0.15310153 0.0057410044
0.00015177205 0.15298988 0.005891697
-0.00034028292 0.1528632 0.0060450709
-0.00083171576 0.15270236 0.006200355
-0.0013226159 0.15253477 0.0063572931
-0.00094939023 0.121004 0.0092599373
-0.0013171621 0.11636725 0.0098081939
-0.0017958768 0.11570784 0.010006951
-0.0022839196 0.11534768 0.01018133
-0.0027619153 0.11108108 0.010710409
-0.0032447129 0.10874027 0.011065386
-0.0037298724 0.10715846 0.011349719
-0.0042173415 0.10650665 0.011549933
-0.0046961866 0.10261326 0.012045402
-0.0051842816 0.10222856 0.012221728
-0.0056672432 0.099861667 0.012577834
-0.0061551072 0.099371597 0.01276374
-0.0066368803 0.096627489 0.013154902
-0.0071129724 0.091680616 0.013746243
-0.0075992607 0.090621457 0.013984118
-0.0080866776 0.089913875 0.01418901
-0.0085644759 0.085678153 0.014716374
-0.0090520419 0.085042812 0.014914643
-0.0095395967 0.08436764 0.015116652
-0.01002609 0.083334886 0.015351405
-0.010511979 0.082133532 0.01560225
-0.010998879 0.081189774 0.015828403
-0.011485144 0.08016029 0.01606375
-0.011972327 0.079399042 0.016274005
-0.012460254 0.078924797 0.01645801
-0.01294823 0.078428127 0.01664374
-0.013435934 0.077798605 0.016841291
-0.013923004 0.077084154 0.017047957
-0.014410619 0.076471992 0.017244443
-0.014898539 0.075916275 0.017435232
-0.015386511 0.075499617 0.017614335
-0.015875112 0.075216897 0.017780486
-0.016363677 0.074957386 0.017944844
-0.016852349 0.074742422 0.018104866
-0.017340824 0.07450027 0.018268131
-0.017829027 0.074130796 0.018442621
-0.018317316 0.073734932 0.018619288
-0.018805787 0.07341323 0.018789101
-0.01929413 0.073136628 0.018955495
-0.019782979 0.072987102 0.019109692
-0.02029245 0.054864429 0.020967707
-0.020880148 0.049057417 0.021743895
-0.021365024 0.049005732 0.021885153
-0.021982763 0.041508324 0.022848681
-0.022475746 0.041002009 0.023040051
-0.022966471 0.040618397 0.023217985
-0.023453917 0.0404213 0.0233755
-0.02393917 0.040347435 0.023519563
-0.02442348 0.040312767 0.02365965
-0.02490807 0.040281169 0.023798393
-0.02539308 0.040218182 0.02394104
-0.025876991 0.040217601 0.02407686
-0.026359513 0.040295221 0.024203876
-0.026840478 0.040451087 0.024323057
-0.027321516 0.040613741 0.024440395
-0.027801799 0.040820263 0.024553208
-0.028279837 0.041145168 0.024653135
-0.028754786 0.041641079 0.02473459
-0.029230505 0.042101167 0.024819564
0.040136594 0.19843546 -0.01067039
0.039637949 0.19838113 -0.010522932
0.039139543 0.19832692 -0.01037457
0.038639959 0.19829001 -0.010229042
0.011508692 0.16531338 0.00067903381
0.011036433 0.16446994 0.00089524407
0.010565944 0.16355261 0.0011167927
0.010096364 0.16261479 0.0013416843
0.0096198246 0.16192032 0.0015441189
0.0091419965 0.16126931 0.0017426489
0.0086720586 0.16034207 0.001966326
0.0081968755 0.15959984 0.0021731257
0.0077186003 0.15896909 0.0023703976
0.0072380528 0.15841372 0.0025601652
0.0067606978 0.15775131 0.0027599754
0.0062802806 0.15719944 0.0029502893
0.0057990998 0.15667996 0.0031379606
0.0053158998 0.15622407 0.0033194819
0.0048329048 0.15576433 0.0035014623
0.0043488219 0.15534124 0.0036802492
0.0038631633 0.15497337 0.003853898
0.0033781566 0.15458898 0.0040293219
0.0028941296 0.15417258 0.0042083305
0.002407968 0.15382153 0.0043800729
0.0019205958 0.15351975 0.0045481655
0.0014322177 0.15325435 0.004713214
0.00094243884 0.15303755 0.0048737451
0.00045190752 0.15285046 0.0050319554
-3.9927661e-05 0.15271157 0.0051856502
-0.00053181499 0.15257098 0.0053396332
-0.0010233857 0.15241514 0.0054943631
-0.0015151836 0.15228136 0.0056484626
-0.0020088553 0.15220232 0.0057964944
-0.0019996166 0.11609619 0.0092618782
-0.0024873801 0.11580563 0.0094287246
-0.0029545017 0.11147741 0.0099644326
-0.003436137 0.10873116 0.010356838
-0.0039209537 0.10713818 0.010643508
-0.0044082589 0.1064974 0.010843409
-0.004886888 0.10265696 0.011335498
-0.005374983 0.10227577 0.011511393
-0.0058559887 0.09934403 0.011920929
-0.0063440204 0.098826058 0.012108207
-0.0068271831 0.096657455 0.012447596
-0.0073020384 0.091577694 0.013054736
-0.0077891275 0.090733424 0.013271954
-0.0082753077 0.089649782 0.013511749
-0.0087542459 0.085934237 0.013992961
-0.0092412196 0.085181922 0.014203165
-0.0097285062 0.084465228 0.014409129
-0.010215592 0.083642796 0.014624733
-0.010700855 0.082194351 0.014898142
-0.011187591 0.081376612 0.015114129
-0.011674803 0.080667414 0.015320178
-0.012162004 0.079857387 0.015534326
-0.012649696 0.079282872 0.015727308
-0.013137255 0.0787168 0.015920281
-0.013625007 0.078173943 0.016110485
-0.014112607 0.077579893 0.016305819
-0.01460012 0.076958038 0.016503459
-0.015087813 0.076382726 0.016696543
-0.015575889 0.075922109 0.016878916
-0.016064197 0.075608969 0.017048726
-0.01655269 0.075319842 0.017215598
-0.017041162 0.075076431 0.017379016
-0.017529827 0.074884117 0.01753732
-0.018018451 0.074633397 0.01770065
-0.018506747 0.074297741 0.017872134
-0.018994812 0.073887825 0.018050395
-0.019483458 0.073606215 0.018216411
-0.019972142 0.073414557 0.018374667
-0.020477697 0.054806516 0.020284245
-0.021072343 0.048553243 0.02111342
-0.021553872 0.048689343 0.021234093
-0.022179564 0.040683437 0.022257382
-0.022672847 0.040153958 0.022451635
-0.023163728 0.039763007 0.022630481
-0.02365195 0.039527804 0.022791822
-0.024137747 0.039426945 0.022938233
-0.024620762 0.039471671 0.023069357
-0.025104217 0.039500788 0.02320149
-0.025587358 0.039537296 0.023333639
-0.026069064 0.039673552 0.023453308
-0.026549611 0.039863288 0.023568252
-0.027029824 0.040070295 0.023680959
-0.027508773 0.04035385 0.023785118
-0.027987676 0.040638566 0.023889128
-0.028465282 0.04099711 0.023984861
-0.028941453 0.041438062 0.024071269
-0.029417448 0.041874543 0.024159186
0.042254861 0.20217328 -0.012435798
0.04041763 0.19874893 -0.011581993
0.039927941 0.1985099 -0.011419818
0.039436217 0.19831786 -0.011260688
0.038939845 0.19821732 -0.011109328
0.038442213 0.19813855 -0.010960305
0.037941631 0.19812937 -0.010815736
0.037442114 0.19808941 -0.010669854
0.013442229 0.15989678 -0.00014068512
0.012960058 0.15941481 4.3732114e-05
0.012474779 0.1590365 0.00021847757
0.011980329 0.15898633 0.0003642668
0.011484243 0.15900005 0.00050477847
0.010831583 0.16463085 0.00014675572
0.010362849 0.1636609 0.00037421496
0.0098945983 0.16267027 0.00060303765
0.0094208233 0.16187774 0.00081456965
0.0089433528 0.16122463 0.0010143206
0.0084715262 0.16035934 0.0012320457
0.0079971366 0.15959476 0.0014413404
0.007519342 0.15894288 0.0016399929
0.0070378333 0.15843861 0.0018269178
0.0065595992 0.15780199 0.0020238184
0.0060793348 0.15725458 0.0022146599
0.0055976249 0.15674062 0.0024007536
0.0051154718 0.15625371 0.0025857515
0.0046337172 0.15574785 0.0027718991
0.0041514486 0.15525931 0.0029561231
0.0036669485 0.1548593 0.0031333161
0.00318202 0.15446942 0.003309384
0.0026991032 0.1540072 0.0034915828
0.0022137016 0.15363221 0.003665973
0.0017260574 0.15334499 0.0038334676
0.0012380332 0.15306178 0.0039995126
0.0007491298 0.15281388 0.0041625616
0.00025885552 0.15262114 0.0043214038
-0.00023186952 0.15243995 0.0044789095
-0.00072392076 0.15230481 0.0046322467
-0.0012159199 0.15216935 0.0047856164
-0.0017087571 0.15206559 0.004936405
-0.0022013076 0.15194526 0.005088076
-0.0022022985 0.11640248 0.0085233077
-0.0026932061 0.11622731 0.0086801741
-0.0031470023 0.11183359 0.0092222821
-0.0036340207 0.11108895 0.0094315261
-0.0041117966 0.1070818 0.0099405497
-0.004599072 0.10641456 0.0101426
-0.0050778165 0.10281081 0.010615416
-0.0055660419 0.10246509 0.010788064
-0.0060453825 0.099030264 0.01124467
-0.0065325238 0.098315783 0.011451392
-0.00701667 0.096499696 0.011758663
-0.0074916966 0.09168084 0.012343569
-0.0079783499 0.090760723 0.012568871
-0.0084630623 0.089133717 0.012858547
-0.0089480206 0.08763583 0.013136828
-0.0094308071 0.085429601 0.013480673
-0.0099178143 0.084651574 0.013692977
-0.010405343 0.084050976 0.013889063
-0.010890767 0.082758076 0.01414887
-0.011376571 0.081574321 0.014398608
-0.011864003 0.080921613 0.014598915
-0.01235158 0.080308326 0.014795542
-0.012839109 0.079706505 0.014991781
-0.013326339 0.078978173 0.015199136
-0.013813872 0.078329131 0.015399041
-0.014301494 0.077775933 0.01559047
-0.01478922 0.07722459 0.015781684
-0.015276965 0.076754518 0.015966209
-0.015765101 0.076355658 0.016143184
-0.01625352 0.076050721 0.016311955
-0.01674192 0.075734027 0.016481159
-0.017230354 0.07543429 0.01664933
-0.017718982 0.075205199 0.016811052
-0.01820771 0.074986801 0.016971501
-0.018696029 0.074683167 0.017140118
-0.019184299 0.074316725 0.01731427
-0.01967271 0.07402686 0.017481236
-0.020161506 0.073891044 0.017634815
-0.020660749 0.054863408 0.019589465
-0.021263871 0.048078023 0.020480298
-0.02182577 0.043655135 0.021107532
-0.022375304 0.039915018 0.021659946
-0.022868572 0.039391108 0.02185351
-0.023358706 0.03903418 0.022029085
-0.023846073 0.038841881 0.022186004
-0.02433187 0.038742259 0.02233229
-0.024816804 0.038683847 0.022474406
-0.025300048 0.038730282 0.022604341
-0.025782458 0.038818613 0.022730015
-0.026263271 0.039002229 0.022844689
-0.026742522 0.03925956 0.02295211
-0.027223391 0.039442681 0.023066916
-0.027701255 0.039781727 0.023165118
-0.028178433 0.040177993 0.023256127
-0.028655563 0.040569641 0.023347698
-0.029130835 0.041058168 0.023429126
-0.029605906 0.04156401 0.023508372
0.043034013 0.20254107 -0.013496811
0.042541932 0.20235439 -0.01333827
0.042052146 0.20211618 -0.01317616
0.041569415 0.20173801 -0.013002101
0.041125175 0.20057549 -0.012763081
0.040683765 0.19936016 -0.012519475
0.040209468 0.19880961 -0.012330985
0.039724443 0.19847658 -0.01216072
0.03923231 0.19829069 -0.012002258
0.038736675 0.1981774 -0.011849536
0.03824034 0.19807699 -0.011698235
0.037741717 0.19802281 -0.011550849
0.037248779 0.19784996 -0.011393735
0.036759693 0.1975999 -0.011230355
0.036291901 0.1969199 -0.011031002
0.035359707 0.19548702 -0.010626491
0.034881514 0.19501749 -0.010444667
0.013718825 0.160602 -0.0010757581
0.013240602 0.15998064 -0.00087858597
0.012760658 0.15940785 -0.00068686204
0.012276001 0.15900958 -0.00050988607
0.011782464 0.15892652 -0.00036140578
0.011285473 0.15896593 -0.00022373069
0.010786094 0.15910037 -9.3825627e-05
0.010280199 0.15945518 1.5249476e-05
0.0096955858 0.16262506 -0.00012611784
0.0092315115 0.16149062 0.00011589588
0.0087502562 0.16097043 0.00030365936
0.0082741901 0.16026101 0.00050776964
0.0077979602 0.15956408 0.00071147271
0.0073200315 0.15892498 0.00090960972
0.0068387352 0.15840614 0.0010972486
0.0063606054 0.15778062 0.0012948532
0.0058788098 0.15727839 0.0014806008
0.005397778 0.15674521 0.0016688523
0.0049163215 0.1562316 0.0018558465
0.0044354983 0.15570112 0.0020447657
0.0039534792 0.15521063 0.0022301483
0.0034702383 0.15475711 0.0024113934
0.0029864646 0.1543275 0.0025909632
0.0025034621 0.15387599 0.002772952
0.0020173453 0.15352915 0.0029451628
0.0015302002 0.15321213 0.003114033
0.0010433421 0.15289599 0.0032837857
0.00055496022 0.15263034 0.0034488207
6.4436346e-05 0.15243456 0.0036070105
-0.0004253611 0.15222792 0.0037673777
-0.00091739744 0.15208659 0.0039204485
-0.0014090165 0.15193865 0.0040752329
-0.0019018166 0.15183389 0.0042261225
-0.0023944266 0.15171577 0.0043775435
-0.002886463 0.15158166 0.0045307572
-0.0028913245 0.11636217 0.0079559572
-0.0033860989 0.11632252 0.0081005823
-0.003826756 0.11141983 0.0086904485
-0.0043024048 0.10693712 0.0092461687
-0.0047899149 0.10628663 0.0094462577
-0.0052784495 0.10602272 0.0096111204
-0.0057574622 0.10262912 0.010065798
-0.0062459446 0.10242204 0.010225875
-0.0067220218 0.098008186 0.010774396
-0.0072057918 0.096234269 0.011079604
-0.0076819845 0.091860414 0.011624327
-0.0081688426 0.09112104 0.011833988
-0.0086511858 0.088790521 0.012189722
-0.0091374256 0.087802798 0.012422027
-0.0096208341 0.085841402 0.012743613
-0.010107417 0.084916219 0.012969498
-0.010595229 0.084427886 0.013155162
-0.011081573 0.083478704 0.013383895
-0.01156649 0.082026102 0.013658753
-0.012053382 0.08118578 0.013876457
-0.012540784 0.080606416 0.014071023
-0.013028529 0.080086201 0.014259495
-0.013515964 0.079404853 0.014462236
-0.014002703 0.078546934 0.014682097
-0.01449018 0.077979878 0.014875177
-0.014977846 0.077420533 0.015067298
-0.015465934 0.076987192 0.015247429
-0.015954316 0.076658502 0.015418101
-0.016442616 0.076399907 0.015583297
-0.016931284 0.076153822 0.015746076
-0.017419536 0.075815797 0.015917791
-0.017907999 0.075545594 0.016083434
-0.018396828 0.075312778 0.016244622
-0.018885091 0.074974984 0.016416306
-0.019373572 0.074652471 0.016586242
-0.019862091 0.074391626 0.01675074
-0.020351099 0.07431481 0.01689825
-0.020843985 0.054916717 0.018894082
-0.021326631 0.054987349 0.019021951
-0.022079524 0.039567895 0.020880843
-0.022573855 0.038981266 0.021081295
-0.023065468 0.03853545 0.021267015
-0.023553975 0.038280167 0.021430854
-0.024040734 0.038128965 0.021582596
-0.024525654 0.038078375 0.02172373
-0.025010258 0.038038936 0.021863438
-0.025493938 0.038058981 0.021996712
-0.02597614 0.038161345 0.022120601
-0.026457014 0.038339715 0.022235977
-0.026936762 0.03858605 0.02234382
-0.027416479 0.038829684 0.022452028
-0.027894173 0.039185457 0.022548083
-0.02837068 0.039625023 0.022633698
-0.028846703 0.040082354 0.02271802
-0.029321782 0.040582888 0.022797924
0.043768313 0.20381531 -0.01463379
0.043307688 0.20299093 -0.014421998
0.042827275 0.20256709 -0.014244055
0.042338204 0.20231558 -0.014080537
0.041849736 0.20205487 -0.013916055
0.041370537 0.20160641 -0.013735469
0.040933575 0.20029996 -0.0134841
0.040479239 0.1993494 -0.013261817
0.040003654 0.19882773 -0.013075426
0.039518822 0.19849116 -0.012904819
0.03902654 0.19830869 -0.012746699
0.038530316 0.19820045 -0.012595493
0.038035061 0.19808023 -0.012442058
0.037539426 0.19796164 -0.012289712
0.037051115 0.19769897 -0.012125045
0.036566544 0.19735679 -0.011953834
0.036098246 0.1966856 -0.011755425
0.035636369 0.19588321 -0.011545954
0.035167094 0.19523467 -0.011348983
0.03468651 0.19481255 -0.011171225
0.034208406 0.19434182 -0.010989308
0.033746015 0.19355342 -0.010780334
0.03328811 0.19267128 -0.010564363
0.032817189 0.19205745 -0.010370142
0.032351945 0.19132537 -0.010166226
0.031010319 0.1880302 -0.0094638858
0.030532245 0.18755858 -0.0092818439
0.030046526 0.18724191 -0.0091123395
0.029562447 0.18689241 -0.0089403838
0.028235499 0.18329906 -0.0082131363
0.027753074 0.18291466 -0.0080384137
0.027274925 0.1824455 -0.0078566335
0.02679928 0.18192434 -0.0076702633
0.026347931 0.18047354 -0.0073995478
0.025885146 0.17929992 -0.0071531474
0.025405984 0.17870443 -0.0069588847
0.024923634 0.17822488 -0.0067747156
0.024442416 0.17770503 -0.0065869838
0.023952957 0.17747177 -0.0064255679
0.022588413 0.17310679 -0.0056100935
0.022103708 0.17271109 -0.0054333657
0.02161653 0.17240569 -0.005264842
0.013989549 0.16150892 -0.0020295116
0.013515029 0.16075265 -0.0018201217
0.013038378 0.16006784 -0.0016178032
0.012559306 0.15947115 -0.0014234022
0.012074266 0.1590856 -0.0012478274
0.011581734 0.15897465 -0.0010962654
0.011084743 0.15900476 -0.00095850648
0.010585148 0.15913881 -0.00082952762
0.010082901 0.15937124 -0.00070867594
0.0095836632 0.15949492 -0.0005785129
0.0090613998 0.16042618 -0.00052142097
0.0085605904 0.16060291 -0.00039626961
0.0080804564 0.16004267 -0.00020497292
0.0076008886 0.15946589 -1.1827797e-05
0.0071224533 0.15884057 0.00018479838
0.0066426806 0.1582786 0.00037724338
0.0061640292 0.15766007 0.00057310052
0.0056808032 0.15721433 0.00075442763
0.0051993802 0.15669982 0.0009415457
0.0047187917 0.15616189 0.0011312957
0.0042375699 0.15564083 0.0013191672
0.0037554875 0.15515438 0.0015040897
0.0032735318 0.15465511 0.0016895141
0.0027911626 0.15417644 0.0018735887
0.0023071021 0.15375519 0.0020521921
0.0018212199 0.15340234 0.0022250796
0.0013349205 0.15306185 0.0023965817
0.0008489415 0.15271972 0.0025692293
0.00035992637 0.15247343 0.0027321083
-0.00013038516 0.15227106 0.0028910516
-0.00061936304 0.15202494 0.0030539013
-0.0011099614 0.15183939 0.0032119122
-0.0016017929 0.15170008 0.0033657327
-0.0020950325 0.15160801 0.0035151835
-0.0025880672 0.15150167 0.0036652936
-0.003080342 0.15137477 0.0038176924
-0.0035752021 0.1513451 0.0039621252
-0.0030831695 0.11627451 0.0072518797
-0.003579773 0.11629646 0.0073905368
-0.0040185228 0.11144044 0.0079784077
-0.004506886 0.11111274 0.0081489068
-0.0049807727 0.10622221 0.008744292
-0.0054692142 0.10595631 0.0089094155
-0.0059483126 0.10272177 0.0093510076
-0.0064367838 0.10245654 0.0095160548
-0.0069115311 0.097830273 0.010086892
-0.0073937178 0.095560268 0.010438329
-0.007872127 0.092050232 0.010904863
-0.0083591603 0.091386855 0.011107387
-0.0088403895 0.08878351 0.011489706
-0.0093264915 0.087818831 0.011720218
-0.0098126233 0.086739592 0.011960495
-0.010297097 0.085213766 0.012243062
-0.010785349 0.084825054 0.012418872
-0.011273511 0.084475294 0.012591995
-0.011757832 0.08286114 0.012882121
-0.012243219 0.081608765 0.013139028
-0.01273033 0.080922239 0.013343358
-0.013217852 0.080345988 0.013537571
-0.013705466 0.079816654 0.013727129
-0.014192816 0.07915289 0.013928795
-0.014679857 0.078374274 0.014141159
-0.015166882 0.07771191 0.014343591
-0.015654869 0.077216938 0.014529074
-0.016143188 0.07690502 0.014698686
-0.016631845 0.076656222 0.014861787
-0.017120298 0.076442271 0.015022648
-0.017609149 0.076203108 0.015184643
-0.018097606 0.075908564 0.015352175
-0.018585853 0.075624757 0.01551941
-0.019074045 0.075251564 0.015694344
-0.019562362 0.074921109 0.015865156
-0.020051178 0.074707195 0.016025085
-0.020540386 0.074703731 0.016165851
-0.021026315 0.055018604 0.018193593
-0.021508006 0.055153191 0.018313449
-0.022271413 0.038998757 0.020262349
-0.022767916 0.038281418 0.020478237
-0.023257986 0.037928708 0.020653244
-0.023746422 0.037672892 0.020817114
-0.024233148 0.037527606 0.020968171
-0.024718085 0.037467368 0.021110479
-0.025202718 0.037432116 0.021249652
-0.025685968 0.037483089 0.021379087
-0.026167877 0.037611656 0.021499703
-0.026648937 0.037774742 0.021616995
-0.027129386 0.037983246 0.02172856
-0.027607869 0.038304076 0.021828067
-0.028085141 0.038705312 0.02191749
-0.028561346 0.039151233 0.022003261
-0.029036906 0.039639264 0.022083785
0.043565173 0.20376526 -0.015374834
0.043103192 0.20297107 -0.015165312
0.042622764 0.2025464 -0.014987279
0.042136069 0.20225348 -0.014819363
0.041649204 0.20195775 -0.014652114
0.041173499 0.20143938 -0.014466053
0.040732916 0.20020783 -0.014220729
0.040269103 0.19944955 -0.014014
0.039794061 0.19891898 -0.013826678
0.039306659 0.19863394 -0.013660574
0.038814258 0.19845186 -0.013502469
0.03831875 0.19833198 -0.013350027
0.037827548 0.19812529 -0.013190355
0.037336554 0.19791329 -0.013030039
0.036850978 0.19759615 -0.012860514
0.036370564 0.19716983 -0.012682296
0.035903286 0.19647934 -0.012481844
0.035440188 0.19570482 -0.012274383
0.034968618 0.195106 -0.012080768
0.03448939 0.19465539 -0.011900926
0.034014206 0.19412756 -0.011713902
0.033556711 0.19324258 -0.0114966
0.033096056 0.19241887 -0.011284929
0.032621603 0.19187152 -0.011096762
0.032155249 0.19116095 -0.01089515
0.031700958 0.19021381 -0.010672232
0.031285342 0.18847628 -0.010384781
0.030817289 0.1878044 -0.01018529
0.030337837 0.18736237 -0.010005442
0.029854145 0.18700065 -0.0098331496
0.029374938 0.18655364 -0.0096527338
0.028938603 0.18524022 -0.0093996469
0.028492946 0.1841152 -0.0091627399
0.028031703 0.18330196 -0.0089521091
0.027554911 0.18280193 -0.0087680109
0.027079169 0.18228319 -0.008581901
0.026613582 0.18148187 -0.0083705429
0.026158515 0.18004391 -0.0080993325
0.025686305 0.17920759 -0.0078829341
0.02520794 0.17858028 -0.0076860748
0.024728242 0.1780155 -0.0074932943
0.024248455 0.17744447 -0.0073008104
0.023760129 0.17717896 -0.0071357614
0.023349848 0.17415637 -0.0067219045
0.022872243 0.17350784 -0.006522675
0.022391658 0.17296742 -0.006332634
0.021907296 0.17255537 -0.0061551086
0.021424789 0.17208874 -0.0059713675
0.020951781 0.17127329 -0.0057573086
0.020473737 0.17064555 -0.0055594277
0.019984644 0.17040275 -0.005396964
0.019490946 0.17032188 -0.0052487166
0.018994156 0.17035696 -0.0051105777
0.016621511 0.16657981 -0.00406521
0.016126219 0.16656238 -0.0039221374
0.015633609 0.16644539 -0.0037708445
0.014255803 0.16256745 -0.0029973178
0.013784807 0.16168717 -0.0027769695
0.013310451 0.1609215 -0.0025675648
0.012834046 0.16023748 -0.0023643347
0.012354199 0.15966845 -0.002172068
0.01186832 0.15931641 -0.001999286
0.011376597 0.15916459 -0.001845032
0.010879472 0.15920934 -0.0017080302
0.010380354 0.1593264 -0.001577086
0.0098819733 0.15941519 -0.0014440052
0.0093857236 0.15942784 -0.0013043329
0.0089596547 0.15695813 -0.00094076991
0.0084707886 0.15670538 -0.00077718357
0.0079781376 0.15658849 -0.00062584761
0.0074821673 0.15660159 -0.00048528868
0.0069290996 0.15861179 -0.00052680285
0.0064586028 0.15771739 -0.00030486984
0.0059764162 0.15723237 -0.00012007076
0.0054882988 0.15695882 4.5885099e-05
0.0050055273 0.15649286 0.00022851583
0.004522793 0.15603177 0.00041159661
0.0040405206 0.15554939 0.00059608603
0.0035587959 0.15504619 0.00078192912
0.0030788817 0.15448573 0.00097420206
0.0025972649 0.15397982 0.0011603362
0.0021138452 0.15353695 0.0013413844
0.0016288757 0.15314938 0.0015172046
0.0011414476 0.15285042 0.0016849753
0.0006554313 0.15250114 0.0018574931
0.00016660616 0.15224975 0.0020209262
-0.00032277778 0.1520215 0.0021827496
-0.00081226602 0.15179591 0.0023442945
-0.0013029426 0.15161484 0.0025018002
-0.001795046 0.15148218 0.0026548523
-0.0022874884 0.15135828 0.0028069462
-0.0027809367 0.15127231 0.0029557529
-0.0032746233 0.15118681 0.0031034788
-0.003769584 0.15116069 0.0032475055
-0.0037757903 0.11636188 0.0066731353
-0.0042772777 0.11655658 0.0067962841
-0.0046989769 0.11127602 0.0074238204
-0.0051723309 0.10640631 0.0080196504
-0.0056607686 0.10608576 0.0081892852
-0.0061394796 0.10284472 0.0086326506
-0.0066274144 0.10239685 0.0088144969
-0.0071015581 0.097786941 0.0093863048
-0.007590156 0.097500697 0.0095528848
-0.0080684163 0.094192646 0.010003205
-0.0085501969 0.09182287 0.010364553
-0.0090377294 0.091255881 0.010557648
-0.009515848 0.087880336 0.011014026
-0.010002781 0.087091245 0.01122766
-0.010488532 0.085952096 0.011474038
-0.010975402 0.08521793 0.011683071
-0.011463795 0.084889248 0.011853699
-0.011951476 0.084386028 0.012041138
-0.012434293 0.082357556 0.012370713
-0.012920476 0.081398621 0.012600595
-0.013407666 0.08071284 0.012804879
-0.013895079 0.080161303 0.012997052
-0.014382999 0.079658777 0.013183471
-0.014870599 0.079091303 0.01337661
-0.015357424 0.078327969 0.013588132
-0.015844755 0.07768289 0.013788525
-0.016332742 0.0772883 0.013966015
-0.01682106 0.076990187 0.01413396
-0.01730952 0.076714195 0.014300276
-0.017798502 0.076526828 0.014457036
-0.018286828 0.076272838 0.014621723
-0.018775526 0.07599505 0.014787309
-0.01926364 0.075648732 0.014959991
-0.019752186 0.07533332 0.015129039
-0.020240951 0.075173758 0.015284458
-0.020730419 0.075211816 0.015421255
-0.021207765 0.055179663 0.017485688
-0.021774061 0.050390474 0.018160667
-0.022465199 0.038314238 0.019657312
-0.022961309 0.037623391 0.019869862
-0.023450529 0.037314817 0.020040359
-0.023938883 0.037065037 0.020203497
-0.024424812 0.036955964 0.020350929
-0.024910431 0.036871031 0.020495402
-0.025395444 0.036804534 0.02063849
-0.025878403 0.036875378 0.020765426
-0.026359884 0.037029773 0.02088281
-0.026841454 0.03717529 0.02100135
-0.027321532 0.037403658 0.021111434
-0.02779891 0.037798475 0.02120165
-0.028275585 0.038228184 0.021288456
-0.028751748 0.038694095 0.021370778
0.04383311 0.20432813 -0.016310079
0.043366503 0.20363064 -0.016107878
0.042899366 0.20293818 -0.015907208
