# .PCD v0.7 - Point Cloud Data file format
VERSION 0.7
FIELDS x y z
SIZE 4 4 4
TYPE F F F
COUNT 1 1 1
WIDTH 1546
HEIGHT 1
VIEWPOINT 0 0 0 1 0 0 0
POINTS 1546
DATA ascii
-48.253143 -100.91588 277.85461
-50.066174 -97.373642 272.33447
-47.194592 -101.37016 279.57126
-50.82214 -95.536522 269.56635
-47.15387 -101.13379 281.94751
-48.479462 -98.459572 274.6904
-47.59951 -99.425697 276.52246
-49.116165 -95.804443 271.37473
-48.209949 -96.845421 273.24243
-46.190125 -99.890915 278.31223
-45.442917 -100.66526 280.75278
-49.51823 -94.06591 269.04919
-46.645947 -97.875999 275.57675
-47.254219 -95.284157 272.28714
-47.896927 -93.970596 270.38962
-46.350708 -96.329109 274.1539
-44.368103 -99.292587 279.18967
-44.917709 -98.252655 277.40582
-43.21244 -99.088913 281.09259
-44.591766 -96.79512 276.01767
-47.333221 -92.153908 268.92822
-45.419395 -94.682457 273.17148
-46.049492 -93.394981 271.28531
-43.080418 -97.692543 278.29773
-43.667141 -95.125854 275.03122
-41.726467 -98.005753 280.03375
-45.465942 -91.627159 269.84314
-42.455883 -96.070007 276.92221
-41.371799 -97.569115 282.07126
-44.12159 -93.178154 272.64795
-41.041306 -96.571136 278.72504
-43.817875 -91.620697 271.21429
-44.91449 -89.743904 268.35779
-42.364414 -93.638588 274.51575
-39.996178 -97.010643 280.43738
-40.738785 -94.907028 276.9274
-42.409039 -91.971588 272.6377
-43.232273 -89.836624 269.76657
-39.342125 -95.357719 278.71396
-40.470161 -93.229996 275.46423
-38.270355 -95.995476 280.83496
-42.897339 -88.355843 268.35214
-40.461487 -91.825974 274.02313
-41.490173 -90.237633 271.62384
-39.043083 -93.665573 276.90671
-37.570038 -94.475807 279.15677
-41.17754 -88.679848 270.18762
-38.778641 -91.958992 275.43378
-39.869263 -90.15696 272.96765
-37.276497 -92.750618 277.33966
-35.951927 -94.542366 280.87677
-39.522358 -88.700195 271.56903
-39.834755 -87.259087 269.69104
-35.83374 -93.364532 279.18079
-37.833511 -90.296745 274.44992
-36.276333 -91.268555 276.4198
-37.480545 -88.85154 273.05884
-34.23888 -93.469093 281.25671
-38.844292 -85.709045 268.73535
-37.866356 -87.158882 271.10016
-34.872292 -91.645912 277.84155
-36.017494 -89.514519 274.92987
-33.762421 -92.317024 279.63528
-34.529755 -90.159538 276.44492
-35.652283 -88.096405 273.54907
-36.897186 -85.420845 269.73563
-35.974174 -86.596275 271.65717
-33.081573 -90.800262 278.29855
-32.22287 -92.133659 281.27365
-34.177673 -88.694916 275.05222
-32.764263 -89.104126 276.48837
-33.863842 -87.095047 273.61078
-31.465748 -90.749023 279.64044
-34.962147 -85.100105 270.72363
-32.448402 -87.505745 275.05115
-30.1819 -90.867676 281.31403
-34.950142 -83.531235 268.86639
-33.509178 -85.619286 272.20752
-31.134605 -89.089111 277.84631
-32.100197 -86.003502 273.64249
-29.727646 -89.612854 279.6582
-33.175095 -84.065193 270.77444
-30.764074 -87.664032 276.47021
-31.722908 -84.58876 272.25995
-32.797226 -82.646912 269.38397
-30.404535 -86.192299 275.07526
-28.179306 -89.460823 281.30896
-29.04052 -88.081734 278.31677
-31.4018 -82.976677 270.80756
-29.010035 -86.549889 276.49518
-30.049311 -84.696724 273.66898
-27.435102 -87.998169 279.64966
-30.012714 -83.294807 272.22424
-31.046909 -81.466827 269.38608
-28.647434 -85.074249 275.09906
-27.378237 -86.545303 277.85797
-25.843746 -87.993759 281.3501
-29.647373 -81.815117 270.81641
-28.312624 -83.494652 273.66479
-25.691547 -86.856705 279.66681
-26.6796 -85.021843 276.51517
-29.311344 -80.226654 269.36847
-27.95573 -81.978981 272.24838
-24.161701 -86.883934 282.06604
-26.335361 -83.463173 275.09143
-24.994837 -85.321609 278.32419
-27.916817 -80.56237 270.79517
-23.916637 -85.933525 280.10046
-25.993042 -81.887825 273.65869
-24.611914 -83.889023 276.94672
-27.558556 -79.033119 269.36719
-22.422396 -85.721458 282.07812
-26.015097 -80.128693 271.74615
-23.221525 -84.379044 278.75256
-24.235588 -82.424232 275.5553
-24.6199 -80.48661 273.17557
-25.691599 -78.467903 270.27637
-21.554199 -84.63929 280.54391
-22.523781 -82.819221 277.39975
-23.230991 -80.832603 274.59793
-25.641108 -77.064049 268.82236
-24.276203 -78.889549 271.73083
-20.825304 -83.183411 279.22937
-21.283962 -82.420959 277.87726
-24.589096 -77.310654 269.80548
-23.164448 -79.480888 273.17218
-20.077669 -84.244598 282.11871
-23.11512 -78.062721 271.72061
-20.631083 -80.680656 276.46298
-19.398293 -82.104538 279.20355
-23.593132 -75.646805 268.81409
-21.242785 -79.129242 274.14847
-18.606382 -83.081886 281.37772
-22.113205 -76.420822 270.74014
-21.249487 -77.501488 272.62952
-18.69701 -80.523491 277.84491
-19.612 -79.113838 275.51599
-17.537802 -81.578888 280.11481
-19.550663 -77.716141 274.07706
-20.22402 -75.93132 271.67493
-16.293587 -81.713867 282.14417
-17.680193 -78.940628 276.8952
-20.515518 -74.38842 269.76108
-16.848585 -79.942467 278.7403
-15.767041 -80.605133 280.53494
-18.532478 -76.116325 273.1153
-17.658773 -77.26001 275.01877
-18.86145 -74.427399 271.15723
-15.800061 -78.463097 277.82629
-19.155165 -72.861542 269.23383
-14.240375 -80.256462 281.78333
-14.70981 -79.15966 279.63498
-16.637781 -75.660263 274.0589
-15.785055 -76.742683 275.93961
-16.941549 -74.044601 272.1283
-14.011225 -77.525848 278.26028
-17.246435 -72.422501 270.18909
-12.821146 -78.861122 280.96692
-14.743528 -75.206635 275.00256
-13.632294 -75.978294 276.84479
-15.057125 -73.538666 273.05762
-12.40847 -77.439003 279.59875
-15.3671 -71.881348 271.10956
-11.04797 -78.011749 281.77435
-11.995634 -76.006744 278.22406
-15.650743 -70.317337 269.18619
-13.383314 -73.677185 274.48123
-12.255284 -74.516525 276.34775
-13.694174 -72.002876 272.53223
-10.607792 -76.542992 280.04651
-13.974411 -70.438568 270.61316
-10.609501 -74.576599 277.73907
-12.008851 -72.182098 273.97113
-10.851441 -73.136963 275.87756
-12.323568 -70.477715 272.01019
-8.8147354 -75.75029 280.87439
-8.9837322 -74.573143 279.10727
-12.610603 -68.872635 270.07568
-9.2108927 -73.176613 277.26385
-10.629898 -70.68631 273.46069
-9.4778137 -71.629349 275.36536
-10.926066 -69.034042 271.51514
-7.021739 -74.817108 281.311
-11.605195 -67.122116 269.05811
-7.5830126 -73.178787 278.63559
-7.8297806 -71.694382 276.76175
-9.2435513 -69.200165 272.95322
-8.1133871 -70.068375 274.83557
-9.9207191 -67.278152 270.49875
-5.9535923 -73.33725 280.40228
-6.1870317 -71.750412 278.15268
-6.4453669 -70.206665 276.25775
-8.2341671 -67.453568 271.94287
-4.3523846 -73.400894 282.13483
-7.100317 -68.339142 273.8345
-4.5461607 -71.952263 279.93542
-8.5277786 -65.780777 269.98517
-4.8051691 -70.250809 277.64661
-5.4163361 -68.532806 275.27768
-6.8307571 -65.995789 271.44415
-2.9589806 -71.81781 281.25977
-5.6987495 -66.881813 273.33804
-3.1292267 -70.587616 279.47522
-7.1162224 -64.337051 269.48929
-3.764535 -68.615723 276.68188
-4.0158854 -67.070435 274.78125
-5.4418478 -64.464737 270.92123
-1.1527576 -70.906929 281.70581
-2.0745392 -69.004501 278.5307
-4.2915516 -65.428505 272.8428
-2.3693218 -67.131317 276.18005
-4.7263603 -62.87822 269.89398
-0.40494156 -69.329964 280.35443
-2.6528435 -65.444847 274.23148
0.61721802 -69.849358 282.10553
-3.2692776 -63.674675 271.83084
-0.67421532 -67.5411 278.0379
-0.98117065 -65.600327 275.66296
-2.8815651 -62.01403 270.36218
0.99595833 -67.869316 279.86469
-1.602232 -63.79517 273.25641
2.0424576 -68.489586 281.64996
0.72729874 -66.064087 277.54059
-1.2100067 -62.142479 271.79413
0.062774658 -63.919922 274.68073
-1.8277416 -60.345795 269.3743
2.3929024 -66.375648 279.36429
1.4302483 -64.259857 276.10605
3.8514175 -67.868713 282.88489
0.44728851 -62.226017 273.20862
3.7473717 -66.845779 281.16901
-0.16232681 -60.444275 270.79919
2.8327961 -64.903259 277.97556
1.8208809 -62.583862 274.64343
4.2060604 -65.444763 279.80722
3.2488289 -63.324059 276.54895
1.4959221 -60.52663 272.21609
5.5843544 -66.173996 282.04172
1.2679882 -59.005653 270.30804
4.6605701 -64.015526 278.43329
2.8957081 -60.986973 273.68713
6.0218964 -64.51889 280.2522
4.2908726 -61.596611 275.55383
2.9124947 -59.030869 271.70795
7.3445396 -64.877823 282.02081
5.7016029 -62.28463 277.44067
3.0300941 -57.626476 270.25635
4.2970791 -59.431992 273.16138
7.0826569 -62.867905 279.2887
6.135643 -60.7444 276.02533
4.6932907 -57.7285 271.68231
8.4383698 -63.360893 281.10309
7.5112648 -61.300499 277.86914
6.2461071 -59.297096 274.5705
4.8107376 -56.306061 270.2247
8.8949127 -61.904182 279.72314
6.354332 -57.833557 273.1066
10.02161 -63.376266 282.8273
7.9340801 -59.697014 276.43442
6.4643784 -56.370949 271.63934
9.3499603 -60.429707 278.33435
8.055357 -58.277752 274.98947
10.505135 -61.861954 281.08389
8.1754284 -56.846088 273.53693
9.769331 -58.794212 276.89059
10.946835 -60.321678 279.67728
7.1807384 -54.50433 270.17007
8.2915974 -55.392189 272.07355
12.358706 -61.396381 282.37411
9.8403091 -56.985775 274.9696
11.397083 -58.804722 278.27466
9.9551697 -55.515049 273.50427
12.815052 -59.73938 280.58386
11.527601 -57.397892 276.83813
9.004549 -53.490585 270.59393
12.62862 -58.292809 278.72437
10.129911 -54.452026 272.52072
10.956079 -55.639648 274.4483
15.009602 -59.404961 282.33203
12.913074 -55.5485 275.87195
14.537609 -58.036026 280.08636
13.721344 -56.687195 277.77368
11.191208 -52.685932 271.5072
12.028128 -53.927208 273.45572
11.291767 -50.958397 269.59454
16.118237 -57.870701 281.41037
13.664341 -53.949165 274.85248
16.831024 -58.629841 283.17682
15.622574 -56.387474 279.12479
14.777798 -54.905846 276.76553
13.099918 -52.190731 272.45377
13.233562 -50.755432 270.99341
17.23616 -56.357128 280.49384
14.736217 -52.206039 273.85114
18.295246 -57.291107 282.7327
16.7108 -54.7313 278.15921
15.861801 -53.219837 275.78625
14.877506 -50.79258 272.40121
14.678886 -49.249115 270.48401
18.319149 -54.671833 279.52176
19.096748 -55.726109 281.38708
16.563076 -51.195847 274.27762
17.808338 -53.094353 277.19824
16.305759 -49.208725 271.86844
17.929325 -51.574451 275.72247
15.797379 -47.655594 269.52371
19.422009 -53.050938 278.56845
20.958019 -55.274456 282.68634
20.189209 -54.067085 280.42511
17.688198 -49.644215 273.3374
19.863369 -51.392635 277.11792
17.415916 -47.57185 270.89673
19.35947 -50.001259 275.19739
22.094482 -53.79977 281.78461
21.299999 -52.467834 279.48047
23.101936 -54.364334 283.55676
19.105083 -47.989578 272.78369
18.187416 -45.972321 269.86874
21.757061 -50.862198 278.04895
20.466015 -48.344727 274.22562
21.265068 -49.505932 276.14227
23.22113 -52.262489 280.86197
19.558712 -46.353359 271.32568
24.255993 -52.953293 282.67651
23.701237 -50.745911 279.46179
21.208099 -46.421795 272.7457
23.19051 -49.285877 277.52643
22.376469 -47.857269 275.1748
25.049065 -51.278118 281.29614
21.00412 -44.7812 270.797
26.100479 -52.240765 283.54523
23.155102 -46.264946 274.15759
25.133591 -49.158161 278.93765
24.291401 -47.579021 276.54321
22.671921 -44.930916 272.24506
26.90662 -50.608032 282.18008
22.45467 -43.211029 270.26889
26.7728 -49.248268 280.34952
25.058887 -45.737938 275.09564
26.243961 -47.484219 277.96771
24.553318 -44.282112 273.1467
28.789661 -50.24551 283.51019
28.366264 -49.138237 281.69653
24.341724 -42.566158 271.17456
26.705341 -45.829235 276.51672
27.897251 -47.632935 279.40067
26.511494 -44.17865 274.57645
26.018673 -42.765476 272.6391
28.342415 -45.890526 277.92575
29.484303 -47.485294 280.73843
30.57058 -48.45509 282.64264
26.162506 -41.236588 271.14838
28.161648 -44.284954 276.00424
29.985126 -45.991989 279.345
27.961811 -42.586079 274.04663
29.811749 -44.404427 277.43338
31.350578 -46.636005 281.2175
28.109108 -41.057266 272.55945
29.615288 -42.704597 275.48016
31.444153 -44.454308 278.8382
28.270683 -39.587044 271.08716
32.966164 -46.639099 282.6001
29.771706 -41.206326 274.00626
31.258572 -42.789894 276.90057
32.808323 -45.098141 280.71295
29.932808 -39.721844 272.53299
31.427696 -41.339012 275.4451
32.908321 -42.919075 278.33212
29.751781 -38.077904 270.58102
34.434284 -45.146782 282.11142
31.57262 -39.764427 273.9469
34.29541 -43.678349 280.24496
33.06842 -41.413483 276.86307
36.058987 -45.403828 283.92337
31.387218 -38.083267 271.98743
33.220383 -39.858784 275.37473
34.746063 -41.881931 278.75558
35.900379 -43.622669 281.61279
31.54953 -36.576454 270.50177
33.034008 -38.156036 273.41293
34.932312 -40.483509 277.32104
36.397156 -42.038361 280.19284
37.526398 -43.682724 283.01422
33.215439 -36.728401 271.95599
35.085052 -38.91238 275.82861
36.573574 -40.579861 278.74304
33.369434 -35.159912 270.4505
34.925022 -37.518353 274.3219
38.020447 -42.072777 281.58969
36.737892 -39.052353 277.26788
39.380424 -42.95541 283.88461
38.201885 -40.626549 280.14703
35.074707 -35.713211 272.39032
36.892395 -37.468094 275.77115
38.383591 -39.172382 278.6983
39.887821 -41.394218 282.4772
35.219143 -34.076485 270.8642
36.714478 -35.757629 273.80768
38.555977 -37.663326 277.22876
40.06068 -39.67614 280.59879
36.878803 -34.205353 272.31195
41.808884 -41.199425 283.86536
38.351536 -35.802849 275.22278
40.23233 -38.151131 279.12903
41.68726 -39.732712 282.00323
38.543915 -34.377575 273.77069
37.354141 -32.438023 270.81079
40.033974 -36.302849 277.1333
41.87706 -38.28743 280.56165
40.222462 -34.847267 275.67633
39.004124 -32.520374 272.24503
41.700146 -36.528484 278.59851
43.574547 -39.142956 282.91925
40.40929 -33.373951 274.21008
39.189457 -31.038284 270.76736
41.878971 -35.01107 277.12585
43.760468 -37.658943 281.4679
45.169025 -39.057369 284.27698
43.589317 -35.905922 279.50934
42.054672 -33.467903 275.64136
40.874187 -31.516666 272.68558
45.69038 -37.494701 282.86975
43.794392 -34.503708 278.07455
41.057735 -30.003733 271.19913
45.252041 -36.143051 280.97372
42.528397 -31.641447 274.1304
43.969822 -32.939766 276.58594
45.427166 -34.572189 279.49045
42.692356 -30.013939 272.61145
47.164684 -35.880775 282.34747
42.544006 -28.36414 270.6554
45.585224 -32.903084 277.97287
44.818821 -31.66534 276.03033
44.047665 -30.414219 274.07739
47.085873 -35.016712 281.37405
47.266415 -33.45295 279.89389
44.878605 -28.797514 273.05334
46.74284 -31.176758 276.98807
45.967831 -29.882893 275.02441
48.989407 -34.478508 282.30951
49.711025 -35.529823 284.17603
45.061794 -27.235174 271.55197
49.171803 -32.903973 280.82837
48.425282 -31.730501 278.91391
46.813808 -28.329374 274.02209
47.879063 -29.30872 275.95767
50.884289 -33.897926 283.23166
49.266987 -30.156878 277.91263
46.974957 -26.62921 272.47998
51.079647 -32.372608 281.76779
50.316174 -31.086218 279.82114
46.514759 -25.137203 270.50537
48.721714 -27.721312 274.94669
52.769886 -33.268906 284.13879
50.106167 -28.550394 276.89948
48.891247 -26.043129 273.41382
52.973507 -31.768089 282.68451
52.222179 -30.525658 280.75372
51.483173 -29.361832 278.84094
48.433216 -24.538799 271.43805
50.587574 -26.649849 275.36902
51.976765 -27.521126 277.33429
50.796574 -25.162518 273.8967
54.135777 -30.011333 281.69995
54.856327 -31.104412 283.58307
53.376675 -28.714815 279.74902
50.666859 -23.741095 272.37469
52.468166 -25.648273 275.81366
53.893879 -26.981453 278.27777
56.023693 -29.356794 282.60324
51.160305 -21.861189 270.83838
55.285007 -28.152246 280.68265
52.668354 -24.090221 274.32037
52.522549 -22.31526 272.32886
54.390812 -25.116306 276.76212
55.787334 -26.312771 279.1814
57.949558 -29.16818 284.0022
57.186039 -27.551867 281.60443
54.587208 -23.515419 275.25793
53.367641 -20.642056 271.28494
54.479549 -22.174313 273.76398
56.308323 -24.558094 277.70203
58.812885 -27.631828 283.02234
57.696186 -25.731821 280.11148
56.4986 -22.902075 276.18317
55.323612 -20.480171 272.71655
56.393162 -21.552864 274.6889
59.33939 -25.891991 281.55753
58.216679 -23.952751 278.62708
60.69453 -26.931786 283.91272
58.414165 -22.313683 277.11578
56.187855 -18.878304 271.69604
59.858112 -24.086611 280.06891
57.260288 -19.971493 273.67844
58.311985 -20.963303 275.62329
61.243488 -25.298939 282.4823
60.080021 -22.574669 278.60025
58.116978 -18.307793 272.64066
61.752254 -23.412151 280.9715
59.183109 -19.386086 274.616
60.277767 -20.910107 277.08102
63.139721 -24.663147 283.39398
61.988651 -21.962439 279.5238
58.961887 -16.552147 271.57254
60.040409 -17.706181 273.57526
61.13184 -19.219311 276.04169
63.688656 -22.989111 281.9498
62.182041 -20.248211 277.99179
65.066254 -24.476112 284.79575
63.911503 -21.438889 280.474
65.299759 -22.983967 283.34457
60.903812 -16.038975 272.53662
62.003223 -17.60704 275.02478
63.066189 -18.716019 277.00299
64.108383 -19.720737 278.94339
65.531555 -21.471788 281.88379
61.141689 -14.565438 271.06042
62.871944 -15.956208 273.99405
67.197235 -22.344007 284.25604
65.759964 -19.927212 280.4093
63.921078 -16.986076 275.9519
64.988464 -18.146336 277.94354
62.773434 -14.563673 272.47983
67.438263 -20.86512 282.80725
63.010349 -13.058193 270.99341
66.630768 -18.286709 279.3923
64.787613 -15.301516 274.91287
67.670654 -19.321524 281.33533
65.86615 -16.534298 276.93054
69.066833 -21.254864 284.67688
64.678894 -13.551599 272.9288
69.31871 -19.818434 283.24161
67.500092 -16.611521 278.36288
68.552536 -17.729099 280.33478
66.714127 -14.714467 275.85217
65.554779 -11.881424 271.88864
66.62149 -13.035327 273.89261
70.200241 -18.217365 282.24203
68.391052 -15.047808 277.36563
71.224442 -19.203056 284.1626
69.443832 -16.171339 279.34283
68.268921 -13.163726 275.34824
67.501511 -11.371179 272.85641
71.08461 -16.610172 281.23886
72.12178 -17.682949 283.18912
70.293777 -14.329975 278.26349
73.12587 -18.562197 285.07587
67.74382 -9.833498 271.3606
69.142654 -11.447597 274.29895
70.210541 -12.946619 276.76215
71.633163 -14.784525 279.74326
73.004776 -16.046032 282.17899
69.372711 -9.8162804 272.77786
74.352325 -16.893801 284.12491
71.101517 -11.323118 275.74402
72.175201 -12.893526 278.22379
73.551682 -14.182472 280.67441
71.026245 -9.9729433 274.24622
70.280731 -8.273387 271.77722
74.897537 -15.011581 282.62
73.05571 -11.186785 277.18329
76.227982 -15.763905 284.53711
74.115891 -12.409588 279.19302
71.911346 -8.2728586 273.2002
72.960648 -9.3909054 275.19125
75.447723 -13.138004 281.11356
76.790375 -13.963068 283.05746
72.154907 -6.6770039 271.68686
74.985352 -10.608128 278.1261
76.363068 -11.637691 280.14087
73.838165 -7.6183815 274.12506
74.901184 -8.852602 276.14911
78.4086 -14.019679 284.47516
77.692688 -12.377232 282.06281
74.101318 -6.1271486 272.64612
76.916214 -10.040365 279.07178
75.783401 -7.089159 275.08786
79.29361 -12.303913 283.44476
78.239685 -10.424909 280.53134
76.828125 -8.2292414 277.08084
74.995529 -4.4172306 271.59436
80.613129 -12.709061 284.90079
76.046936 -5.5764093 273.60461
79.568619 -10.863095 282.00381
78.47702 -8.4166899 278.55173
77.731308 -6.5816364 276.0567
79.468475 -8.9304152 279.98615
76.287689 -3.8981323 272.06689
82.173492 -11.114513 284.39639
81.416656 -8.8064337 281.42413
78.230087 -3.6174984 273.47369
79.994629 -6.1458616 277.47491
79.274734 -4.7761688 275.47879
81.036392 -7.3275261 279.47394
82.738144 -9.2150011 282.88699
78.180664 -2.0210609 271.52881
84.064865 -10.330914 285.27325
80.182419 -3.0993204 274.44312
81.234726 -4.6612329 276.92987
82.980667 -7.1642675 280.90219
82.264618 -5.7712231 278.90979
80.118454 -1.6948376 272.92392
84.653198 -8.568182 283.80646
80.410172 -0.29611492 271.46954
82.139816 -2.9483252 275.88623
84.919098 -6.9793797 282.32196
84.218994 -5.6678686 280.35797
83.156113 -3.9669867 277.84271
86.281494 -8.7070742 285.25067
82.078278 -1.5378551 274.3688
86.545181 -7.0842037 283.75989
82.353287 0.0014467239 272.87494
85.132965 -4.0044661 279.336
84.06369 -2.2464924 276.79877
86.483856 -5.6333866 282.25061
88.164566 -7.1612167 285.18713
84.018204 -0.59054661 274.84528
86.751129 -4.0128021 280.75244
85.707077 -2.4014158 278.2644
83.268616 1.7083054 271.82562
88.444519 -5.6242104 283.72116
85.654526 -1.0086536 276.75797
84.592194 1.3714647 273.29102
88.379288 -4.1128063 282.19366
87.672592 -2.361393 279.73508
85.939865 0.50059509 275.27884
87.290756 -1.1115265 278.20886
90.345032 -4.8396559 284.60229
89.307739 -2.5010824 281.1908
85.847931 2.8755598 272.73676
87.551865 0.59251308 276.67499
90.635071 -3.3368397 283.14456
87.17804 2.1276054 274.69
89.251556 -1.0348577 279.66968
88.872772 0.21218014 278.14392
92.262283 -3.4650202 284.59033
90.901276 -1.2841654 281.15884
89.152405 1.810173 276.64136
87.783447 3.9266863 273.1846
92.221832 -2.0828047 283.10254
90.842758 0.22533226 279.62457
89.106796 3.5630989 274.6568
90.800903 1.6122866 278.12268
88.734512 5.4675703 272.18677
92.486053 0.021978378 281.10107
90.759186 3.0027008 276.61578
94.156387 -1.5153389 284.05011
92.41983 1.6182394 279.54086
90.362549 5.1237621 274.0881
94.439178 0.11504078 282.5531
91.696625 4.6583538 275.58987
92.709839 3.1896877 278.04956
94.067413 1.3808861 281.02844
90.656967 6.6617432 272.59302
96.070312 -0.41646004 284.48135
94.02597 2.8119745 279.51654
92.281647 6.6993866 274.01404
93.641235 4.9139042 277.00604
96.026733 1.4295397 282.49463
95.655869 2.7118444 280.96457
93.606094 6.302207 275.4964
92.595169 8.1237202 272.55273
95.261414 4.5493631 278.90231
97.653152 0.93004894 284.41467
95.230591 6.3019352 276.92398
97.60611 2.8370008 282.40961
94.221268 8.1507111 273.97803
96.910385 4.3072701 280.39441
99.59137 1.0929728 285.84189
98.919876 2.4087191 283.883
95.539795 7.7918777 275.44983
96.87001 6.1640663 278.38995
95.177887 9.7559509 272.96271
98.879913 4.29105 281.8829
98.510925 5.6005383 280.34256
97.151459 7.8974705 276.84708
101.19249 2.3200054 285.81158
96.807388 9.3661938 274.87952
100.5155 3.708272 283.8309
98.795914 7.3236732 278.80795
100.487 5.5318079 281.84741
100.12695 6.7906113 280.32159
98.430283 9.3895874 276.30328
97.416885 10.947628 273.80661
102.46506 3.7954483 285.28305
99.747009 9.0040722 277.77954
102.10512 5.4894838 283.27652
99.039948 10.988548 275.22797
102.06624 7.0306511 281.73724
101.36839 8.5951309 279.69049
103.73672 5.3099403 284.74298
99.357788 12.489407 273.74576
100.67216 10.934032 276.67548
103.702 6.843502 283.20966
101.98761 10.547501 278.15234
103.33713 8.6049519 281.17584
101.00143 12.359465 275.21902
105.66219 6.0163755 285.65436
100.97871 13.773979 273.69571
103.61601 10.479351 279.59872
104.96106 8.5272026 282.61862
102.59702 12.614899 276.5759
106.59207 7.935936 284.57062
105.23453 10.474966 281.02417
104.229 12.121441 278.51758
102.90941 14.221268 275.06525
102.59538 15.539295 273.1347
108.2278 7.6944237 286.05426
104.22723 13.823608 276.55032
106.87393 9.8361053 282.99551
106.21092 12.046896 280.03217
104.5466 15.401747 275.04776
108.52707 9.4655037 284.52054
105.86778 13.674231 278.02551
104.2188 16.867069 273.07278
107.84392 11.468985 281.9895
106.16734 15.452188 276.46774
107.47972 13.756409 279.43042
105.84859 16.86587 274.51212
109.47447 11.315945 283.45477
110.49113 9.8736153 285.52066
108.79488 13.308977 280.9216
107.81548 15.23457 277.96423
106.19073 18.290325 273.04993
107.81039 16.605366 276.45966
110.46852 12.779209 282.49875
111.46225 11.538155 284.5105
109.4832 14.810282 279.51797
107.83572 18.151146 274.53107
107.83456 19.496714 273.02536
109.79333 16.559624 277.97256
111.11911 14.643864 280.99359
112.42906 13.277119 283.4772
109.4781 18.010551 276.00986
111.11411 16.06304 279.4823
113.73804 12.805222 284.96701
109.81924 19.500149 274.53174
113.08994 15.083126 281.99139
111.46376 17.944679 277.53033
114.07896 14.317978 283.50415
112.43463 16.936756 279.49149
110.50395 21.119293 273.07834
112.45 19.600483 276.50806
114.40372 16.95739 280.97986
113.42375 18.562283 278.48163
116.66293 13.654961 286.40192
116.04675 14.746754 284.50235
115.37416 15.887833 282.94885
112.13698 21.083048 274.53067
115.37251 18.80098 279.90979
114.40567 20.292828 277.43936
116.34691 17.687483 281.89548
117.3546 16.214066 283.97797
113.12576 22.773708 273.49261
118.31308 15.194979 285.92389
114.10236 21.720325 275.48053
116.37852 20.320789 278.93161
117.34927 19.235535 280.91269
118.33197 17.998739 282.93109
115.10934 23.266685 274.48688
116.07355 21.804276 276.96069
119.29755 16.904522 284.90231
114.82477 24.525536 272.56842
120.92178 16.738785 286.36954
117.7 21.763149 278.40875
119.32793 19.638935 281.92383
117.07074 23.468563 275.93524
120.28419 18.631741 283.87393
119.00067 20.902779 280.39282
116.78221 24.80402 273.99792
121.91432 18.423717 285.35602
117.14682 26.228184 272.53339
119.35216 22.975281 278.38712
121.28387 20.267334 282.86972
118.40166 24.883739 275.41736
120.65527 22.067291 280.38586
119.71736 24.413715 276.92859
122.91937 20.016888 284.36679
119.11258 26.429974 273.98682
122.28554 21.921072 281.85867
121.34204 23.861378 278.89514
120.72951 26.01059 275.9231
124.86905 20.138138 285.82071
123.90161 21.895302 283.29456
122.97603 23.701569 280.37558
120.77434 27.656109 273.96039
122.35764 25.429634 277.90155
124.59837 23.633926 281.82703
125.86349 21.91695 284.77985
122.72607 26.904915 276.43076
123.99091 25.293228 279.37799
122.75169 28.258396 274.92542
126.24306 23.292881 283.35385
127.49533 21.65715 286.27707
122.47694 29.561436 272.9928
124.35896 26.798061 277.90207
125.60583 25.328636 280.80249
127.83731 23.482819 284.72723
126.90314 24.935913 282.28165
124.70912 28.516094 276.3606
125.9873 26.709106 279.36572
124.438 29.819798 274.43152
126.01143 28.139366 277.84491
127.60013 26.767414 280.78476
128.86435 24.991623 283.76108
124.82059 31.213104 272.97607
129.8047 23.996082 285.7063
126.38187 29.675434 276.35596
127.63503 28.105606 279.29385
129.22795 26.628796 282.25787
126.44473 31.263851 274.40991
128.00781 29.645351 277.80713
129.26111 28.015636 280.75644
130.82315 25.639771 284.70392
126.81645 32.824051 272.90527
128.06696 31.311901 275.84253
132.12135 25.141697 286.20563
129.62962 29.633934 279.25067
131.18132 27.388687 283.17114
128.45192 32.748451 274.3772
129.66708 30.990158 277.75024
130.92615 29.252853 280.73169
132.79564 26.739231 285.15216
130.05943 32.364258 276.30734
128.8299 34.284801 272.87936
132.52887 28.79282 282.66644
131.29813 30.874771 279.22467
130.1396 33.846207 274.39117
133.82199 28.378235 284.15033
132.91017 30.328514 281.18872
131.67885 32.41227 277.73798
135.091 27.59407 286.10233
131.75296 34.001186 275.79462
130.85361 35.675125 272.87463
133.28479 31.96587 279.67822
134.53111 30.25631 282.64471
135.80408 29.432785 284.61295
133.35567 33.631004 277.71866
134.90347 31.958424 281.11942
132.47171 35.808205 274.2879
133.75072 35.060516 276.25909
136.53793 31.053909 283.18094
134.97365 33.668705 279.15106
137.7869 29.832581 285.62778
133.52324 37.31572 273.30463
136.57263 33.262367 281.0777
135.36752 35.142105 277.68207
134.79562 36.65052 275.25534
137.82019 32.769817 282.95871
138.75473 31.705853 284.93015
136.95952 34.852085 279.58002
140.04424 31.263889 286.41931
136.40228 36.889847 276.6355
135.51114 38.602089 273.70508
138.19118 34.589943 281.40027
139.77533 33.619366 283.85117
137.99034 36.66716 278.51801
137.09784 38.459793 275.57178
141.0761 33.041222 285.38153
137.15068 39.812744 274.06177
140.16312 35.270271 282.34265
139.59392 36.191757 280.46835
138.73003 38.368034 277.0481
142.69286 32.930958 286.84344
141.80684 34.866829 283.89334
139.99142 37.737164 278.98117
139.14012 39.747879 275.60031
143.10574 34.288067 285.42447
141.58051 36.711098 281.45776
138.90324 40.948692 273.69357
140.76099 39.086845 277.61264
143.21925 36.379433 282.99075
142.02971 38.310944 279.586
141.17609 40.44342 276.1727
144.79402 35.405663 285.43875
140.60635 42.079372 273.70084
143.63383 37.761417 281.55576
142.77655 40.028584 278.11374
145.17867 37.251511 283.87955
146.40373 35.389862 286.87585
144.02888 39.448463 280.03101
142.22093 42.268265 275.10168
146.47034 36.7435 285.39218
143.48111 41.636395 277.0423
145.62044 39.055401 281.9566
145.09267 41.023743 279.03864
143.87872 43.331669 275.50339
-126.89967 -143.88138 283.55392
-127.75717 -142.26062 284.66547
-125.19641 -145.71405 281.98627
-124.84404 -143.60291 282.84735
-125.61732 -142.16046 284.01938
-123.12253 -144.09122 281.94342
-125.51241 -140.26718 284.90228
-123.35156 -142.29047 283.11896
-121.09601 -144.48428 281.07367
-123.33992 -140.23624 284.27881
-121.31024 -142.71042 282.25525
-121.6089 -140.74207 283.37546
-119.35226 -142.95001 281.33005
-119.82147 -141.38147 282.52072
-121.13248 -138.8736 284.33295
-119.37712 -139.43768 283.44849
-117.40115 -141.81839 281.39423
-117.63597 -139.97659 282.55731
-119.2222 -137.62463 284.36133
-115.89899 -140.51172 281.66675
-117.14778 -138.11935 283.51721
-118.74985 -135.726 285.31573
-115.41632 -138.63937 282.61816
-116.98457 -136.31308 284.43445
-115.23195 -136.87769 283.54749
-113.16061 -138.75964 281.71317
-115.19093 -134.83719 284.72256
-113.07933 -136.81149 282.91113
-111.04599 -137.92395 281.54712
-114.27293 -133.06976 285.45523
-113.03105 -134.77922 284.08698
-111.0177 -135.84062 282.69904
-112.14598 -132.9292 284.78973
-109.24831 -136.46304 281.83459
-110.49556 -134.02365 283.67914
-108.74419 -134.60092 282.79572
-110.72554 -131.43814 285.34726
-107.27267 -136.05258 281.41522
-109.01221 -132.62274 283.92776
-106.7899 -134.13162 282.35535
-108.51678 -130.72168 284.88712
-107.01791 -132.23914 283.5163
-105.04552 -134.70413 281.47266
-105.27792 -132.79558 282.62427
-108.0136 -128.82872 285.85461
-106.51666 -130.34366 284.47681
-104.76913 -130.91489 283.58646
-103.2771 -132.43428 282.22073
-106.03453 -128.39148 285.42346
-101.52765 -133.02641 281.34344
-104.25902 -129.02728 284.55157
-102.78287 -130.5103 283.16733
-104.06406 -127.21577 285.4826
-101.06467 -131.02301 282.25916
-102.29128 -128.569 284.11365
-100.55624 -129.11909 283.21497
-102.07895 -126.79128 285.05557
-98.944168 -130.16486 282.08643
-102.26738 -124.95145 286.25452
-100.33168 -127.36734 284.16248
-100.52533 -125.50999 285.35184
-98.442368 -128.23328 283.03329
-100.74266 -123.5898 286.52664
-98.228348 -126.44463 283.96909
-96.427399 -128.62411 282.14697
-98.886383 -124.36275 285.35629
-96.322968 -126.62686 283.34576
-99.194305 -122.27592 286.8161
-94.296082 -128.51367 281.49203
-96.828125 -124.84624 284.49429
-97.317657 -123.10279 285.66177
-94.190598 -126.5088 282.68631
-94.660172 -124.80817 283.8602
-95.159943 -123.02911 285.01361
-95.943268 -121.41799 286.16452
-92.042511 -126.43573 282.04266
-93.240005 -124.72212 283.41708
-91.101074 -124.61926 282.76175
-93.35582 -121.46871 285.28351
-94.54303 -119.78474 286.68726
-92.292542 -122.91529 284.14493
-90.072464 -125.98638 281.60757
-90.127914 -122.87105 283.508
-92.392532 -119.68398 286.02744
-89.121231 -124.18695 282.33191
-91.362366 -121.05133 284.85757
-89.162445 -121.09116 284.24731
-91.457199 -117.81567 286.7475
-90.369827 -119.33363 285.62347
-88.171066 -122.37217 283.05505
-87.12114 -123.8076 281.92017
-88.216827 -119.24722 284.96909
-86.141571 -122.06079 282.66571
-89.435059 -117.45585 286.3396
-86.916 -120.4296 283.80441
-84.43248 -122.58049 281.75302
-87.251068 -117.44271 285.70816
-88.484573 -115.60484 287.06882
-84.634171 -120.61726 282.90652
-85.930283 -118.67912 284.55737
-82.899216 -121.20523 282.0152
-86.308273 -115.56481 286.42673
-83.661606 -118.8274 283.6438
-84.992462 -116.79195 285.26837
-81.926537 -119.41448 282.74924
-80.605171 -120.67828 281.61798
-85.339813 -113.74097 287.16748
-82.690247 -117.02199 284.37982
-84.01152 -115.00377 286.01657
-80.962036 -117.58903 283.47556
-79.639481 -118.85905 282.34192
-84.372955 -111.89961 287.90637
-81.68573 -115.29111 285.14471
-83.039047 -113.18081 286.75714
-79.980164 -115.79597 284.21683
-78.682037 -117.00439 283.05807
-82.485428 -111.24184 287.7392
-80.738815 -113.39428 285.85822
-76.649109 -117.46952 282.18686
-79.002609 -113.97934 284.95404
-80.481125 -111.59426 286.81824
-77.668503 -115.28698 283.82437
-80.943909 -109.81652 288.00171
-78.736862 -112.19656 285.9165
-75.668037 -115.66106 282.91971
-77.164886 -113.20387 284.7468
-78.894424 -110.28966 287.11871
-75.426483 -113.80643 283.85022
-76.883484 -111.45311 285.72046
-73.369293 -115.90936 282.03967
-78.650665 -108.43191 288.06754
-77.033875 -109.55476 286.92615
-74.843285 -111.9228 284.84149
-73.117493 -114.07414 282.97382
-75.331131 -110.05012 285.98709
-76.780533 -107.71258 287.88046
-72.863831 -112.23577 283.91211
-70.819931 -114.31973 282.09134
-75.040741 -108.30441 286.96982
-73.299484 -110.49673 285.09863
-70.959305 -112.43301 283.28497
-73.025421 -108.70036 286.06174
-74.49601 -106.28625 287.93353
-71.141876 -110.42052 284.44348
-69.246704 -112.98518 282.37329
-72.71785 -106.98869 287.05762
-69.444443 -110.92335 283.51144
-70.861694 -108.63267 285.40765
-67.542542 -111.92069 282.40744
-72.055176 -105.19608 287.75525
-69.151466 -109.16647 284.48279
-70.602493 -106.77692 286.35461
-67.281174 -110.07108 283.34344
-68.867638 -107.3753 285.44772
-70.007324 -104.87351 287.35614
-65.410095 -110.98979 282.21237
-66.981842 -108.32007 284.31735
-70.186798 -102.83948 288.53317
-68.313232 -105.35339 286.4071
-65.134796 -109.16707 283.15811
-66.726662 -106.43629 285.25238
-68.485291 -103.33295 287.58481
-63.382034 -109.84403 282.28525
-64.950905 -107.1639 284.38989
-66.414963 -104.70317 286.24225
-68.178375 -101.58081 288.57889
-63.122257 -107.964 283.21356
-66.567207 -102.72675 287.43475
-64.68248 -105.30395 285.33447
-62.840919 -106.13623 284.16467
-64.872009 -103.21401 286.48599
-66.280884 -100.90591 288.4068
-61.108028 -107.57829 282.7955
-62.960514 -104.2403 285.37463
-64.584869 -101.39038 287.45404
-60.817154 -105.76833 283.7518
-62.686398 -102.37569 286.32474
-64.269333 -99.640152 288.4509
-60.974754 -103.75072 284.92114
-58.531578 -105.9807 282.85034
-62.386497 -100.5762 287.30124
-59.233021 -104.39622 284.02936
-60.675617 -101.9482 285.89096
-62.097946 -98.735458 288.26944
-58.947323 -102.54977 284.98138
-60.371086 -100.15226 286.86804
-56.793716 -104.96563 282.90405
-59.358471 -100.79097 286.17944
-57.49498 -103.37192 284.08157
-62.244923 -96.731934 289.46927
-55.665279 -105.86971 281.97284
-57.646286 -101.34673 285.25333
-55.782772 -103.94315 283.16638
-60.522476 -97.293205 288.53583
-58.33992 -98.935226 286.92657
-54.055378 -104.56793 282.271
-55.923626 -101.94144 284.34195
-58.486782 -96.912445 288.11554
-56.637638 -99.458817 285.98706
-54.182129 -102.6013 283.45422
-58.62534 -94.907974 289.3175
-54.90279 -100.08801 285.08401
-56.761856 -97.495766 287.19159
-52.041061 -102.48376 282.78241
-53.049042 -100.98555 283.92969
-56.891785 -95.509926 288.39569
-55.03363 -98.098137 286.27591
-53.143467 -99.098129 285.14996
-55.157425 -96.123421 287.47971
-57.020718 -93.52121 289.6059
-49.90593 -102.35277 282.10657
-50.89053 -100.91399 283.27182
-53.290306 -97.047371 286.32376
-55.292465 -94.108849 288.6777
-51.009232 -98.942039 284.46252
-53.401203 -95.098503 287.53775
-54.991135 -92.247269 289.65198
-48.884155 -100.48365 282.83734
-51.136219 -96.938705 285.6499
-53.249481 -92.879021 288.7366
-48.983658 -98.557838 284.04254
-51.260548 -94.937134 286.84503
-47.279999 -99.119492 283.11966
-49.103233 -96.564514 285.23242
-50.943459 -93.109177 287.82391
-52.081993 -91.305931 289.24545
-47.369743 -97.210495 284.33337
-49.249088 -94.484543 286.40137
-44.990494 -99.357353 282.22198
-51.779583 -89.42131 290.21793
-45.680794 -97.728096 283.39432
-50.198788 -91.408859 288.56934
-47.501526 -95.166031 285.5097
-48.902969 -92.73526 287.40503
-45.778378 -95.782188 284.59915
-47.188614 -93.309517 286.4754
-49.453686 -89.69857 289.31528
-43.529884 -97.634422 282.72794
-48.169216 -90.992249 288.13629
-45.479931 -93.874939 285.54498
-43.646481 -95.616745 283.90726
-49.14856 -87.802826 290.28662
-46.130249 -91.486832 287.24292
-47.429375 -89.255371 288.87323
-43.299034 -93.852951 284.89816
-44.294617 -92.343346 286.06009
-41.751156 -95.804413 283.26648
-47.109917 -87.393364 289.85468
-45.403099 -89.705536 287.96289
-39.780197 -96.133499 282.33087
-43.541954 -90.640213 286.80139
-41.141273 -93.763626 284.22992
-42.11692 -92.305267 285.4068
-45.08223 -87.840202 288.94012
-39.448898 -94.303398 283.29517
-43.210243 -88.80455 287.78366
-44.76395 -85.957161 289.91705
-41.370956 -90.572617 286.13712
-39.954857 -92.224113 284.74008
-37.43573 -94.768867 282.40295
-42.913071 -86.849464 288.73309
-41.064011 -88.64743 287.0889
-37.782665 -93.080421 283.6283
-39.20047 -90.509346 285.47461
-42.570305 -85.029877 289.73083
-40.728706 -86.803436 288.07205
-37.503689 -91.058685 284.53799
-35.811668 -93.411003 282.69043
-38.876541 -88.627991 286.43869
-41.921532 -83.057198 290.75006
-40.391655 -84.954529 289.05875
-37.119858 -89.36515 285.5592
-35.478874 -91.554939 283.65088
-38.553749 -86.733147 287.40378
-33.773544 -92.150642 282.73328
-36.83033 -87.356827 286.48438
-35.144932 -89.692207 284.61438
-39.633469 -83.215111 289.80408
-38.346199 -84.564598 288.63251
-33.448833 -90.252197 283.68176
-36.48534 -85.518005 287.46912
-34.832237 -87.750435 285.5578
-39.296982 -81.344086 290.79346
-37.595177 -82.792091 289.36685
-31.723003 -90.919327 282.7861
-33.108089 -88.396614 284.6496
-34.479321 -85.929878 286.54544
-35.732742 -83.7481 288.20032
-37.269512 -80.8731 290.34064
-31.39394 -89.019547 283.73611
-32.752083 -86.581482 285.63568
-35.381405 -81.909386 289.19479
-33.711685 -84.203873 287.28793
-29.677097 -89.661507 282.83096
-31.068079 -87.098579 284.68475
-36.49844 -79.141586 291.09613
-32.000523 -84.79882 286.35715
-33.368782 -82.329483 288.26804
-29.349945 -87.739189 283.7756
-34.637669 -80.085815 289.91754
-29.985144 -85.257301 285.4494
-31.656548 -82.921791 287.33301
-27.333065 -88.229202 282.88461
-32.603424 -80.571846 289.00873
-28.140665 -86.204765 284.29199
-33.564476 -78.17849 290.68259
-29.641235 -83.371979 286.4194
-30.443237 -81.376045 287.85678
-31.821857 -78.85556 289.76617
-26.132221 -86.663826 283.38882
-27.792202 -84.330276 285.26099
-28.437895 -81.789894 286.9295
-30.114552 -79.424171 288.81802
-31.493576 -76.898125 290.73462
-25.780235 -84.792816 284.35574
-26.597931 -82.71785 285.75836
-28.084782 -79.91227 287.91098
-29.762159 -77.541969 289.80652
-24.08717 -85.361923 283.42194
-24.585096 -83.180763 284.85101
-26.235258 -80.868256 286.7442
-29.391117 -75.712791 290.81674
-27.747528 -77.970299 288.87753
-22.87496 -83.807899 283.93353
-24.217632 -81.339256 285.83627
-25.885876 -78.961784 287.71732
-27.396294 -76.065269 289.86108
-21.185383 -84.372971 282.99805
-22.502571 -81.97747 284.91898
-24.178974 -79.554703 286.78015
-25.522011 -77.095627 288.70837
-26.757545 -74.895508 290.38385
-24.413879 -78.024704 287.74469
-20.088732 -82.521835 283.7587
-21.741348 -80.157753 285.63232
-26.395718 -73.007904 291.3811
-23.623327 -76.292671 288.49719
-24.582987 -74.787567 289.69586
-22.211916 -78.041237 287.09946
-19.72467 -80.643044 284.72998
-18.04985 -82.132561 283.33334
-20.522005 -78.586739 286.14749
-24.219353 -72.894012 290.68954
-21.414318 -76.324799 287.85526
-22.40626 -74.692589 289.01221
-17.675169 -80.278061 284.31174
-24.164989 -71.135147 291.66571
-19.712532 -76.908928 286.91272
-18.341866 -78.542816 285.48477
-22.023493 -72.855026 290.02158
-20.206352 -74.686401 288.35693
-15.528545 -80.135391 283.61981
-21.962889 -71.106285 290.99915
-16.460024 -78.680725 284.8158
-17.529545 -76.866348 286.2489
-18.503592 -75.272087 287.41248
-19.853386 -72.73159 289.328
-21.903978 -69.345131 291.97784
-18.127169 -73.394577 288.4043
-14.309735 -78.542999 284.12424
-19.909565 -70.682648 290.55881
-15.249514 -77.051216 285.31207
-16.347496 -75.125175 286.7146
-18.068687 -71.618988 289.36865
-19.85335 -68.899178 291.53006
-12.358353 -78.816513 283.15485
-15.957002 -73.286285 287.71686
-13.072624 -77.002396 284.64761
-14.023883 -75.461281 285.82343
-18.128084 -69.542656 290.59296
-19.048153 -67.147865 292.29584
-16.005217 -71.243057 288.94351
-14.058266 -73.463837 287.05499
-11.190718 -77.150063 283.98169
-17.313618 -67.82135 291.36502
-11.851059 -75.390282 285.15063
-15.93971 -69.473785 289.91409
-13.99289 -71.69075 288.01639
-9.3563709 -76.992607 282.87329
-11.909841 -73.288589 286.34747
-9.961791 -75.560242 284.49033
-13.931908 -69.895126 288.97568
-16.511316 -66.042358 292.12311
-15.134132 -67.710152 290.67166
-11.954686 -71.231064 287.56543
-9.8982162 -73.764481 285.43488
-7.6196032 -75.86338 283.24664
-13.124073 -68.133499 289.73126
-10.232709 -71.911247 286.64868
-14.31599 -65.979462 291.44305
-11.560499 -69.36438 288.56659
-7.8908367 -74.236336 284.52277
-14.244199 -64.204605 292.42554
-8.2361679 -72.330177 285.71643
-9.83288 -70.058708 287.65076
-12.300299 -66.417282 290.50446
-5.8871899 -74.567566 283.2218
-10.761641 -67.555618 289.30716
-12.23218 -64.618744 291.47668
-6.205513 -72.890648 284.83069
-7.843339 -70.443291 286.70474
-9.0501432 -68.185928 288.36835
-10.371008 -65.651337 290.30646
-6.1403732 -71.068573 285.77145
-7.0183029 -68.722801 287.46704
-4.0673418 -72.694183 284.11765
-8.6553917 -66.290611 289.36694
-10.980403 -63.029434 292.01135
-9.1256504 -64.038879 290.83087
-5.3158112 -69.343033 286.52936
-6.9488811 -66.906921 288.42261
-4.0911369 -70.660446 285.33698
-9.7288322 -61.423607 292.54343
-7.4248819 -64.620659 289.87134
-2.0625038 -71.987198 283.24246
-4.9241199 -67.420494 287.51285
-3.2754383 -68.888786 286.07996
-7.8764858 -62.425194 291.35733
-5.6959925 -65.320663 288.95038
-2.0341015 -70.282883 284.91211
-6.1496983 -63.105366 290.42566
-7.7825642 -60.684731 292.35471
-0.32510185 -70.813919 283.60519
-2.8797951 -66.966705 287.06296
-3.8141518 -65.42347 288.25922
-1.2127056 -68.521454 285.65765
-4.4589062 -63.658287 289.45709
-6.0748177 -61.284412 291.3952
0.47924423 -69.128174 284.71841
-5.9746294 -59.553211 292.39697
-0.8231411 -66.562042 286.62833
-1.7621307 -64.986969 287.81418
-4.0461864 -61.783825 290.47131
-2.3869038 -63.284088 289.03061
-5.8836365 -57.780655 293.39111
0.87464905 -67.18441 285.69058
2.3511982 -69.088196 283.64133
-3.9718475 -59.942947 291.43677
0.42281342 -64.925812 287.13745
-0.48736 -63.455677 288.35944
-1.9984589 -61.301319 290.01099
2.7589092 -67.332062 285.01764
-3.9760113 -57.936703 292.70764
2.1336594 -65.598267 286.21289
-1.8965569 -59.554016 291.00436
-0.10520554 -61.436733 289.32654
1.6789989 -63.313728 287.65656
-1.7956085 -57.796028 291.99939
4.0116482 -65.715622 285.52902
0.0028152466 -59.703072 290.32211
5.1633205 -66.795486 284.2594
3.3856678 -63.968044 286.72394
2.1042156 -61.451797 288.6702
-1.6892567 -56.052773 293.00366
0.096687317 -57.906639 291.30344
3.8110065 -62.100624 287.73251
5.2739296 -64.121101 286.04974
2.2105312 -59.698357 289.65784
7.0189857 -65.742752 283.96869
0.20688438 -56.167606 292.30707
3.8936768 -60.243896 288.68521
2.3029213 -57.88195 290.63129
0.30572128 -54.376644 293.29996
6.1072464 -62.333557 286.79694
7.4612617 -64.08812 285.38275
2.4014969 -56.083427 291.61523
4.3275776 -58.389431 289.70807
8.8122711 -64.579834 283.99121
5.7824402 -60.376442 288.00055
2.520937 -54.361824 292.62723
8.2820072 -62.23782 286.10892
4.4172249 -56.54348 290.6745
7.6857281 -60.576981 287.33755
6.2081547 -58.47821 289.008
10.072754 -63.111294 284.89813
2.5973606 -52.458771 293.58994
4.5189953 -54.739674 291.65872
6.3010406 -56.633541 289.97284
8.0968361 -58.607586 288.32101
10.100431 -61.148281 286.15759
4.6423702 -53.015778 292.67194
11.763023 -62.455368 283.97156
6.4173336 -54.877861 290.9697
9.7955513 -59.240623 287.37628
8.2046509 -56.813152 289.2991
6.5392303 -53.138084 291.9762
12.27738 -61.065548 285.47336
9.9082737 -57.457767 288.35461
8.3144341 -55.019417 290.28241
11.695665 -59.43647 286.71179
5.90518 -51.324764 293.18884
13.840107 -60.991795 283.96613
10.026682 -55.691628 289.34299
8.4183483 -53.192768 291.26074
11.784733 -57.542503 287.65387
6.694685 -50.400898 293.457
12.443361 -58.362221 286.92264
9.4162922 -53.953625 290.56683
13.683842 -59.850555 285.76712
8.6068573 -50.576664 292.77484
14.542191 -58.097927 286.52945
12.400143 -55.086327 288.90845
10.14703 -51.811298 291.58066
7.9806175 -48.777573 293.99799
13.619637 -56.479675 287.71399
15.852783 -59.567986 284.67169
11.478092 -53.487583 290.10992
10.564226 -49.805199 292.57715
16.706207 -57.950542 285.82343
12.342289 -51.729141 290.88776
14.472458 -54.680912 288.47052
15.792133 -56.351055 287.01205
13.556641 -53.093521 289.6749
10.682137 -48.003967 293.57611
12.459381 -49.920197 291.87744
18.544132 -57.723953 284.67947
16.661377 -54.611816 287.7854
17.9734 -56.266884 286.32425
14.40744 -51.265007 290.431
15.736935 -52.969463 288.97131
12.576221 -48.10244 292.86951
14.521214 -49.425789 291.41104
20.111828 -56.656258 283.97208
12.705715 -46.331226 293.88037
18.845745 -54.529804 287.09686
16.628948 -51.307262 289.77625
17.94038 -52.954109 288.30124
20.041271 -55.864616 285.88809
14.653572 -47.65881 292.41772
16.737732 -49.431667 290.74341
14.797405 -45.934708 293.44196
21.8591 -55.539623 284.71228
20.921421 -54.149048 286.66675
18.79966 -51.136635 289.05762
20.008514 -52.523815 287.85538
16.867168 -47.638222 291.74042
14.908314 -44.060097 294.4267
18.925735 -49.321152 290.04132
16.986664 -45.793404 292.72711
23.173698 -54.20433 285.6713
20.881939 -50.7551 288.62601
22.196724 -52.453026 287.16907
19.070362 -47.579834 291.05234
17.124039 -44.01926 293.73984
21.007458 -48.921257 289.60352
19.200779 -45.767883 292.047
24.07605 -52.561623 286.47382
24.895832 -53.617279 284.76334
23.069519 -50.670204 287.93396
21.15258 -47.167099 290.61005
19.328125 -43.933926 293.04028
18.426567 -42.377491 294.28168
23.196354 -48.826462 288.9068
24.961697 -50.827961 287.25198
26.228813 -52.344856 285.74374
21.27282 -45.293518 291.58578
23.348423 -47.088837 289.91663
25.098869 -49.018417 288.23312
21.429157 -43.574154 292.61243
19.284576 -40.480103 295.04083
20.500706 -41.880657 293.81281
27.129169 -50.665653 286.53729
27.907146 -51.539413 284.7677
23.478443 -45.242924 290.89893
25.235035 -47.195679 289.21527
27.287548 -48.93803 287.54181
23.62709 -43.474098 291.90924
21.380993 -40.067932 294.59625
22.723763 -41.875549 293.13574
25.359241 -45.310295 290.18375
29.260311 -50.338982 285.77249
27.434685 -47.150539 288.5329
29.355793 -48.491245 287.09009
25.825672 -43.383617 291.20929
23.590076 -39.987465 293.89551
24.929749 -41.80151 292.43893
30.637589 -49.536625 284.38147
27.567871 -45.289677 289.50696
29.49073 -46.629688 288.05829
31.225693 -48.554443 286.37878
28.034824 -43.349464 290.52655
24.478035 -38.179554 294.68274
25.813404 -39.979706 293.21661
27.122726 -41.674519 291.7269
32.140762 -48.252735 283.95831
29.538132 -44.540115 289.31503
31.388268 -46.810425 287.38068
33.237034 -47.840958 285.84573
31.55323 -45.069759 288.3884
26.693943 -38.124943 293.98853
28.016544 -39.886993 292.51328
29.33461 -41.643944 291.04391
30.858887 -42.937218 289.85956
33.361271 -46.092072 287.19754
26.824539 -36.221008 294.97668
34.579674 -46.841572 284.39307
28.906178 -38.061584 293.29224
30.229515 -39.847961 291.82617
32.861862 -43.404961 288.91217
35.306149 -46.316364 286.1825
31.737278 -41.062992 290.61429
34.667912 -44.417885 287.71506
29.052853 -36.216606 294.29584
31.113453 -37.982639 292.59189
33.737576 -41.508358 289.65735
36.677723 -44.953499 286.79266
32.624474 -39.212517 291.38016
29.196575 -34.349075 295.29797
35.554287 -42.56929 288.47064
31.268406 -36.160595 293.60046
37.894928 -44.808479 285.18411
34.642345 -39.735062 290.44339
33.089321 -37.19138 292.38928
37.55883 -43.070534 287.53497
31.414829 -34.289509 294.59985
36.453876 -40.767479 289.2442
34.790649 -37.861366 291.42871
39.30011 -43.7966 286.2533
33.239532 -35.328499 293.38644
36.606361 -38.904465 290.22809
38.449974 -41.217308 288.29025
34.957554 -36.069931 292.44342
32.186481 -32.032883 295.62054
33.391895 -33.467281 294.38928
40.250195 -42.233322 287.09274
36.776878 -37.122223 291.24109
40.951767 -42.76144 285.20523
38.625309 -39.454453 289.30106
35.107204 -34.184456 293.43558
40.42485 -40.458305 288.09543
34.288902 -31.599464 295.16782
36.940006 -35.294388 292.24554
38.784363 -37.602142 290.29004
42.364361 -41.769291 286.28247
36.000053 -32.290787 294.20352
40.594849 -38.650761 289.09332
38.952297 -35.785004 291.29456
42.513668 -40.060268 287.65659
37.830067 -33.382172 293.00385
35.640945 -30.016823 295.7406
40.76239 -36.822002 290.08987
43.668411 -40.487732 284.74188
42.689682 -38.265656 288.65765
37.340054 -30.646997 294.75629
39.858891 -33.947636 292.07193
44.454647 -40.258194 286.6283
39.166843 -31.724083 293.54913
37.075615 -28.617603 296.01257
41.659 -34.929729 290.84708
42.843201 -36.346844 289.6268
44.564472 -38.323433 287.93762
39.329845 -29.854244 294.55469
41.292957 -32.566536 292.34143
46.357601 -39.115364 286.31702
44.742336 -36.51519 288.93771
43.756458 -34.522739 290.40369
41.048424 -30.606293 293.60745
46.550999 -37.599266 287.7533
47.010494 -38.014542 284.70117
