# .PCD v0.7 - Point Cloud Data file format
VERSION 0.7
FIELDS x y z
SIZE 4 4 4
TYPE F F F
COUNT 1 1 1
WIDTH 1370
HEIGHT 1
VIEWPOINT 0 0 0 1 0 0 0
POINTS 1370
DATA ascii
0.042425599 0.084345102 0.030816199
0.0429019 0.084330298 0.030627299
0.043349501 0.084311299 0.030384701
0.0437635 0.084287398 0.030079201
0.0441746 0.084262997 0.029768201
0.044603601 0.084241301 0.029490801
0.045000099 0.084214799 0.029152701
0.045403201 0.084189199 0.028826799
0.045791902 0.084161602 0.028473901
0.046119399 0.0841249 0.028006701
0.0464589 0.084090099 0.027561899
0.046743002 0.084047101 0.027013499
0.0470546 0.084008098 0.026516501
0.046698399 0.081696503 -0.0038622899
0.047035199 0.081662402 -0.0043383101
0.0473928 0.081631303 -0.0047730198
0.0619707 0.0836557 0.0220202
0.062465701 0.083643697 0.0218662
0.063074797 0.083648302 0.021925701
0.063815698 0.0836723 0.0222314
0.064555101 0.083696 0.0225344
0.065328598 0.083724797 0.022901401
0.0660652 0.083748102 0.0231991
0.066713698 0.083758503 0.0233321
0.067368999 0.083769999 0.023477901
0.067988202 0.083776101 0.0235561
0.068643004 0.083787501 0.023700999
0.069304101 0.083799697 0.0238577
0.0698753 0.083798803 0.023846099
0.070438303 0.083796702 0.023819299
0.070950501 0.083787203 0.023697499
0.071509004 0.083784401 0.0236622
0.072020702 0.083774798 0.0235394
0.072551802 0.083768003 0.023452999
0.073044099 0.083755597 0.023294
0.073538497 0.083743401 0.0231387
0.074050702 0.083733797 0.023017
0.074578799 0.0837266 0.022924799
0.075125203 0.0837221 0.022867
0.075649597 0.083714299 0.0227679
0.076147497 0.083702698 0.0226193
0.076622501 0.0836877 0.0224279
0.0771055 0.083673798 0.0222515
0.077545598 0.083653703 0.0219949
0.077992499 0.0836346 0.021751
0.078403398 0.083610199 0.021439601
0.078805901 0.083584599 0.0211126
0.079200901 0.083557896 0.020771701
0.079596698 0.083531201 0.0204321
0.079970904 0.083501503 0.0200522
0.080356002 0.083473302 0.0196927
0.080720998 0.083442204 0.019295501
0.081086501 0.083411098 0.0188994
0.081443302 0.083378799 0.018487001
0.081779301 0.083343402 0.0180356
0.082095601 0.083305098 0.017547401
0.082405902 0.083265997 0.017047999
0.082702897 0.0832249 0.0165239
0.082975402 0.083180197 0.0159538
0.0832147 0.083130702 0.0153215
0.083479397 0.083084904 0.0147369
0.0837221 0.083035797 0.0141111
0.083920501 0.082980298 0.0134023
0.084119 0.082924701 0.0126939
-0.083690196 0.083412603 0.0098260799
-0.082645804 0.083480798 0.0106995
-0.081655197 0.083541103 0.0114724
-0.080801599 0.083581403 0.0119892
-0.080011196 0.083612502 0.0123876
-0.079209603 0.083645202 0.0128069
-0.078466997 0.083669402 0.0131161
-0.077362597 0.083746299 0.0141017
-0.076575398 0.083776899 0.0144943
-0.075826101 0.083802 0.0148157
-0.0751229 0.083820403 0.0150513
-0.074436501 0.083836302 0.0152551
-0.073751301 0.083852097 0.0154569
-0.073080502 0.083865702 0.0156317
-0.072372898 0.083884701 0.015875099
-0.071702503 0.083898298 0.016049201
-0.0709939 0.083917402 0.016294699
-0.070313901 0.0839324 0.016486701
-0.069657199 0.083944 0.0166352
-0.0690239 0.083952203 0.016739801
-0.068389297 0.083960503 0.0168468
-0.067785099 0.083964497 0.0168969
-0.067193396 0.083966501 0.0169238
-0.066603601 0.083968401 0.0169471
-0.065988697 0.083973803 0.0170174
-0.065398201 0.083975799 0.017041899
-0.064763099 0.083984204 0.01715
-0.064027399 0.0840073 0.017446
-0.063193999 0.084044702 0.017925
-0.0623817 0.084078997 0.0183644
-0.061650299 0.084101498 0.018652501
-0.060906801 0.084125698 0.018963199
-0.060157899 0.084150799 0.019284099
-0.059384398 0.084179401 0.0196508
-0.058629502 0.0842053 0.0199831
-0.0579108 0.0842259 0.0202474
-0.057232101 0.084240697 0.0204369
-0.056576699 0.084252097 0.020582801
-0.055954698 0.084258601 0.020666299
-0.0552762 0.084273398 0.020855499
-0.054562502 0.084293298 0.021110499
-0.053865999 0.084310703 0.0213333
-0.053185299 0.084325798 0.0215267
-0.052556999 0.084333196 0.0216219
-0.051937498 0.084339403 0.021700701
-0.051344398 0.084341697 0.0217303
-0.050743401 0.084345102 0.0217744
-0.050145298 0.084348097 0.0218133
-0.049550399 0.084350698 0.021846101
-0.048957799 0.084352903 0.021874599
-0.0483752 0.0843537 0.0218844
-0.047750998 0.084360503 0.021972099
-0.047181901 0.084359303 0.021956701
-0.046600401 0.084359899 0.021964399
-0.046061799 0.084354296 0.021892
-0.045484599 0.084354296 0.0218917
-0.044899601 0.084355399 0.021906
-0.0443286 0.084354401 0.021894
-0.043738302 0.084356397 0.021918399
-0.043146901 0.084358402 0.021944599
-0.0425914 0.084355198 0.0219038
-0.042051502 0.084349699 0.021833699
-0.041530501 0.084341504 0.021728201
-0.0410465 0.084327899 0.021553701
-0.040563598 0.0843141 0.0213771
-0.040039301 0.084306397 0.0212778
-0.039510399 0.084299304 0.0211873
-0.038986102 0.084291503 0.021088
-0.0384827 0.084280699 0.020949701
-0.0380047 0.084266298 0.0207639
-0.037546501 0.084248804 0.020540999
-0.037162699 0.084220603 0.020179
-0.036851998 0.084181704 0.019680399
-0.036570799 0.084138498 0.019126499
-0.036206499 0.084107399 0.018727999
-0.035785999 0.084084503 0.0184347
-0.0353925 0.084057599 0.018090799
-0.034952 0.084037699 0.017835001
-0.034567099 0.084009603 0.017474901
-0.0342605 0.083970003 0.0169685
-0.0340291 0.0839196 0.0163217
-0.0337184 0.083880603 0.0158229
-0.033419199 0.083839998 0.0153027
-0.033208601 0.083786502 0.0146168
-0.033107501 0.083717003 0.013726
-0.032955099 0.083654903 0.0129313
-0.0325495 0.083629899 0.0126101
-0.032127101 0.083607301 0.0123202
-0.031653401 0.083592102 0.0121265
-0.0311205 0.083585598 0.0120434
-0.030615401 0.0835751 0.0119082
-0.030104499 0.083565399 0.011784
-0.029577799 0.083558001 0.0116892
-0.029046301 0.083551303 0.0116034
-0.0285003 0.083546698 0.0115447
-0.0279593 0.083541401 0.0114768
-0.027439101 0.083533101 0.0113698
-0.026900601 0.083527401 0.0112972
-0.026369801 0.083520599 0.0112102
-0.025895599 0.083505601 0.0110174
-0.0254154 0.0834914 0.0108356
-0.024949299 0.083475098 0.0106275
-0.0244634 0.083461799 0.0104565
-0.023972699 0.083449103 0.0102943
-0.0234979 0.083434202 0.0101026
-0.0229678 0.083427303 0.0100142
-0.0224123 0.083424099 0.0099734403
-0.021844899 0.083422601 0.0099547198
-0.021282399 0.0834205 0.0099270996
-0.0207239 0.083417699 0.0098918397
-0.0181395 0.0837107 0.0136455
-0.0175384 0.083714202 0.0136899
-0.0170079 0.083707303 0.0136022
-0.0165362 0.083691902 0.0134046
-0.015946601 0.083693698 0.0134274
-0.0153677 0.083693899 0.0134305
-0.0148942 0.0836787 0.0132362
-0.0144909 0.083653301 0.0129106
-0.0140916 0.083627403 0.0125777
-0.0136973 0.083600603 0.0122353
-0.0132227 0.083585598 0.0120432
-0.0127663 0.083567999 0.011817
-0.0124067 0.0835362 0.0114097
-0.0120786 0.083499797 0.0109436
-0.0118232 0.083452798 0.0103415
-0.0115682 0.0834058 0.00973853
-0.0112875 0.083362497 0.0091837998
-0.0110633 0.083310902 0.0085233403
-0.0108127 0.083263204 0.0079122297
-0.0104544 0.0832313 0.0075025298
-0.0100406 0.083207399 0.00719673
-0.0096086599 0.083186202 0.0069246902
-0.0091749998 0.083165199 0.0066559399
-0.0087420698 0.083144099 0.0063858498
-0.0083113601 0.083123498 0.00609669
-0.0079045296 0.083099604 0.00575933
-0.0074909902 0.083076701 0.00543524
-0.0070568798 0.083056599 0.0051518399
-0.0066045201 0.083039097 0.0049045398
-0.0061770198 0.083018199 0.0046080798
-0.00579315 0.082991101 0.0042253002
-0.0053954502 0.082965903 0.0038698399
-0.0050154901 0.082938299 0.0034793401
-0.0046300702 0.082911402 0.0030995801
-0.0042657601 0.082881503 0.0026781
-0.0039242399 0.082848497 0.00221151
-0.0035828401 0.082815498 0.00174469
-0.0032488301 0.082781397 0.00126327
-0.0029402601 0.082743801 0.00073152699
-0.0026134399 0.082708701 0.00023582501
-0.00228148 0.082674302 -0.00024964
-0.00193053 0.0826426 -0.00069757598
-0.00160526 0.082607299 -0.00119631
-0.00128775 0.082570903 -0.00171042
-0.000970416 0.082534499 -0.00222484
-0.00068216003 0.082493998 -0.0027967701
-0.00041241199 0.082451001 -0.00340535
-0.000126339 0.082410201 -0.0039816299
0.000120915 0.082364 -0.00463471
0.00031249199 0.082309902 -0.0053979498
0.00055243802 0.082262702 -0.00606552
0.00073514902 0.082207397 -0.0068462798
0.00087861001 0.082146697 -0.0077047301
0.00107082 0.082092702 -0.0084667103
0.00124205 0.082035899 -0.0092702098
0.00141963 0.081979901 -0.0100611
0.00169668 0.081937797 -0.0106552
0.0243292 0.083842002 0.0153278
0.0249532 0.083848797 0.015415
0.026828401 0.084038198 0.0178422
0.027727799 0.084085204 0.018444501
0.028487699 0.084111899 0.018786
0.035827 0.0850989 0.031432401
0.036475599 0.085109301 0.0315658
0.0371297 0.085120499 0.031709101
0.03774 0.085125297 0.0317709
0.0383224 0.085125998 0.031780299
0.038854498 0.085119396 0.031695701
0.039432101 0.085119501 0.0316961
0.039981 0.085115299 0.031643
0.040516298 0.085109197 0.0315644
0.041041601 0.085101597 0.031466998
0.0415335 0.085089102 0.031307101
0.042015001 0.085075103 0.031127799
0.0425217 0.085064799 0.030995701
0.042983402 0.085047901 0.0307795
0.0434427 0.085030697 0.0305585
0.043876499 0.085009702 0.030290199
0.044315599 0.0849896 0.030031599
0.044744998 0.084968001 0.029754899
0.045129299 0.0849398 0.0293939
0.0455289 0.084913798 0.0290615
0.0459157 0.084886 0.028705001
0.0462901 0.084856398 0.028325399
0.046627302 0.084821403 0.027876301
0.046929199 0.084781103 0.0273613
0.047267899 0.084746301 0.0269148
0.047001399 0.082380101 -0.00440697
0.047304198 0.082341596 -0.0049501099
0.047559299 0.082296498 -0.0055876998
0.062327702 0.084331997 0.021607
0.062821597 0.084319897 0.021451
0.0633986 0.0843198 0.021450199
0.0642315 0.084357098 0.0219281
0.0650227 0.084388301 0.0223282
0.065837197 0.084422901 0.022771601
0.066544898 0.084441997 0.023015499
0.067171402 0.084449098 0.0231074
0.067781202 0.084453903 0.0231681
0.068430297 0.084464401 0.0233023
0.069094397 0.084477 0.0234644
0.069701597 0.084481403 0.0235203
0.070289202 0.084482901 0.0235395
0.070848897 0.084480301 0.023506399
0.071425699 0.084480204 0.0235055
0.071941599 0.084471203 0.0233905
0.0724703 0.084464103 0.0232995
0.072963901 0.084451899 0.0231429
0.073469497 0.084441401 0.0230087
0.073965803 0.084429599 0.0228571
0.074455798 0.084416904 0.0226938
0.074961998 0.084406503 0.0225606
0.075500503 0.084400803 0.022488
0.076013997 0.084391497 0.0223685
0.0764933 0.084377199 0.022185201
0.076969698 0.084362403 0.021996399
0.077416398 0.084343404 0.0217521
0.077858299 0.0843236 0.0214989
0.078294598 0.084302999 0.021235
0.078715198 0.084280103 0.0209418
0.079128802 0.084256202 0.020635599
0.079533301 0.084230997 0.020312401
0.079934999 0.084205396 0.0199838
0.080339901 0.084180199 0.0196613
0.080717303 0.084151 0.019287201
0.081091098 0.084121302 0.018906699
0.081449002 0.084089302 0.0184961
0.081784599 0.084054001 0.018044099
0.082112402 0.0840175 0.0175773
0.082410902 0.083976798 0.0170558
0.082717702 0.083937399 0.0165499
0.082982302 0.083891697 0.015964899
0.083222203 0.083842397 0.0153338
0.0834869 0.083796799 0.014749
0.083728299 0.083747797 0.0141208
0.083937198 0.083694004 0.0134317
0.084147498 0.083640397 0.0127452
0.0843511 0.083585903 0.0120461
-0.083721399 0.084120497 0.0097655598
-0.082604103 0.084198996 0.0107754
-0.081613503 0.0842591 0.0115483
-0.080733702 0.084303103 0.0121141
-0.079939999 0.0843345 0.0125187
-0.079198301 0.084358402 0.0128262
-0.078430198 0.084386103 0.0131829
-0.077412598 0.084450103 0.0140064
-0.0766147 0.0844822 0.014419
-0.075864002 0.084507398 0.0147431
-0.075181097 0.084522702 0.0149405
-0.074474499 0.0845415 0.0151822
-0.073821902 0.0845524 0.015323
-0.073129296 0.084569201 0.0155387
-0.072391801 0.084592499 0.0158382
-0.0717168 0.084606603 0.0160207
-0.070994496 0.084627703 0.0162919
-0.070339598 0.084638998 0.016437
-0.069686897 0.084649898 0.016577801
-0.069063097 0.0846567 0.016664799
-0.068433799 0.0846643 0.016762
-0.067828402 0.084668301 0.0168144
-0.067232698 0.084670998 0.016848801
-0.066627897 0.084674999 0.016899999
-0.066023096 0.084679 0.0169515
-0.065403797 0.084685102 0.0170299
-0.064760402 0.084694698 0.017153401
-0.0640302 0.084716901 0.017439401
-0.063148603 0.084761098 0.0180085
-0.062351901 0.084793001 0.0184187
-0.0615848 0.084820598 0.0187735
-0.060839102 0.084844999 0.019088401
-0.060076401 0.084872 0.019435201
-0.059353501 0.0848931 0.0197073
-0.0586331 0.084913902 0.0199749
-0.057935499 0.084931403 0.020199999
-0.057278398 0.084942997 0.020349
-0.056620799 0.084954701 0.020499101
-0.0559805 0.084963799 0.0206168
-0.0553235 0.084975399 0.020765901
-0.054618001 0.084994003 0.021005601
-0.0538937 0.085015401 0.0212803
-0.0532034 0.0850318 0.0214916
-0.052574299 0.085039303 0.021588501
-0.051950201 0.085046098 0.021676
-0.0513658 0.085047103 0.021689201
-0.050758101 0.085051604 0.021745799
-0.050165601 0.085053697 0.0217741
-0.049558099 0.085058101 0.0218306
-0.048958901 0.085061297 0.0218715
-0.048371699 0.085062698 0.0218898
-0.047768999 0.0850664 0.021937201
-0.047201101 0.085065097 0.021919601
-0.046618301 0.085065797 0.021929801
-0.046060201 0.0850631 0.0218939
-0.045480601 0.085063398 0.0218981
-0.0448853 0.085065998 0.021931499
-0.044337101 0.085061803 0.021877
-0.0437783 0.085059099 0.0218424
-0.0432267 0.085055299 0.021794301
-0.0426814 0.085050702 0.021734299
-0.042167101 0.085041501 0.0216162
-0.041678499 0.085028604 0.0214503
-0.041175801 0.085017703 0.0213107
-0.040697802 0.085003302 0.021124899
-0.0402053 0.084991001 0.0209662
-0.039695099 0.084981203 0.0208406
-0.039189201 0.084970802 0.020706801
-0.038696099 0.084958598 0.0205492
-0.038214501 0.084944703 0.020370301
-0.0378001 0.084921002 0.020065401
-0.0374582 0.084886797 0.0196252
-0.037172802 0.084844299 0.019078899
-0.036865599 0.084804997 0.0185738
-0.036488999 0.084775902 0.0181982
-0.036113299 0.084746599 0.0178211
-0.035734799 0.084717698 0.0174492
-0.035319701 0.084694102 0.0171456
-0.034910399 0.084669597 0.016831299
-0.034657098 0.084622502 0.0162252
-0.034409299 0.084574603 0.0156087
-0.034198299 0.084521398 0.0149235
-0.033882499 0.0844834 0.0144343
-0.033785999 0.084413499 0.0135351
-0.033598099 0.084356897 0.0128066
-0.0331982 0.084331103 0.0124747
-0.032765001 0.084310099 0.0122049
-0.032271001 0.084298 0.0120491
-0.031766299 0.084287398 0.0119132
-0.031263798 0.084276602 0.0117733
-0.03076 0.084265903 0.0116356
-0.030252 0.0842558 0.0115059
-0.029702401 0.084251799 0.011454
-0.0291859 0.084242903 0.0113402
-0.0286381 0.084238604 0.011285
-0.0280864 0.084234901 0.011237
-0.027558301 0.084227704 0.0111449
-0.027036199 0.084219702 0.0110416
-0.0264719 0.084217802 0.011017
-0.025993099 0.084203497 0.0108328
-0.025529901 0.084186897 0.0106192
-0.025038101 0.084174402 0.0104592
-0.024532599 0.084164001 0.0103248
-0.0240115 0.084155798 0.0102196
-0.0235149 0.084144101 0.0100686
-0.0229991 0.084135197 0.0099535398
-0.0224587 0.084129803 0.00988439
-0.0219096 0.084125698 0.0098315403
-0.0213707 0.084120102 0.00975959
-0.020843299 0.084112801 0.0096661001
-0.0183472 0.084391698 0.013255
-0.017777501 0.084390603 0.0132407
-0.017238799 0.084385 0.0131684
-0.0167195 0.084376499 0.0130598
-0.0161546 0.084374703 0.0130366
-0.0155595 0.084377304 0.0130698
-0.0150749 0.084363803 0.0128963
-0.0146704 0.084338702 0.0125729
-0.0142748 0.084312297 0.012233
-0.0138593 0.084288798 0.0119303
-0.0133906 0.084273003 0.0117271
-0.0128978 0.084260702 0.011569
-0.0124968 0.084234998 0.011239
-0.0121949 0.084195003 0.0107239
-0.0119365 0.084148698 0.0101274
-0.0116672 0.084103897 0.0095511302
-0.011389 0.084060401 0.0089915702
-0.0111304 0.084014103 0.0083954101
-0.0108624 0.083969101 0.0078167701
-0.0104925 0.083939001 0.00742885
-0.0100593 0.083917998 0.0071591102
-0.0096073803 0.083899803 0.0069245799
-0.0091712503 0.083879203 0.0066603902
-0.0087296097 0.083859503 0.0064065699
-0.0082836002 0.083841197 0.00614902
-0.00786757 0.083818898 0.0058299098
-0.0074654599 0.083794601 0.0054832199
-0.0070358398 0.083774202 0.0051909499
-0.0065812799 0.083757199 0.00494804
-0.0061268401 0.0837401 0.0047048801
-0.0057144598 0.083717301 0.00437852
-0.0053178999 0.083692297 0.0040208702
-0.0049328702 0.083665699 0.0036404
-0.0045531299 0.083638303 0.0032494599
-0.0041766502 0.083610497 0.0028520799
-0.0038318699 0.083578303 0.00239199
-0.0034837599 0.083546601 0.00193846
-0.00313552 0.083514899 0.0014852301
-0.0028331301 0.083476797 0.00094129803
-0.0025297699 0.083438903 0.00039923901
-0.00217792 0.0834077 -4.68576e-05
-0.00185344 0.083372697 -0.000547164
-0.0015102 0.083340302 -0.00101025
-0.00118434 0.0833055 -0.0015077899
-0.00085438002 0.083271302 -0.0019972101
-0.00056166202 0.083231904 -0.0025603301
-0.00026029299 0.083193697 -0.00310629
-8.9407003e-08 0.083149798 -0.0037336999
0.00026181299 0.083106101 -0.0043577398
0.00050700502 0.083060101 -0.0050148699
0.00072900997 0.083011001 -0.0057178498
0.00092855102 0.082958698 -0.0064652502
0.00105192 0.0828958 -0.0073634
0.00125429 0.0828439 -0.00810521
0.0014527 0.0827915 -0.00885488
0.0016504599 0.082739003 -0.0096058296
0.00188038 0.082690902 -0.0102931
0.0247667 0.084532298 0.0150644
0.0255956 0.084568903 0.0155349
0.0275748 0.084772602 0.0181568
0.028449399 0.084815897 0.0187128
0.028994801 0.084811203 0.0186531
0.036505099 0.085818999 0.0316207
0.037164301 0.0858308 0.031773798
0.037811801 0.085841 0.031904899
0.0383946 0.085841797 0.031915098
0.038940798 0.085837297 0.031856801
0.039508801 0.085835896 0.031839401
0.040046301 0.085830197 0.031764898
0.0405959 0.085826099 0.031712901
0.041118398 0.085818097 0.031610399
0.041620199 0.085807197 0.031468999
0.042098802 0.085792802 0.031284299
0.0425798 0.085778803 0.0311042
0.043059502 0.085764602 0.0309214
0.043538801 0.085750401 0.0307381
0.043986298 0.085731499 0.0304952
0.044426098 0.085711502 0.0302379
0.044836499 0.085687198 0.0299257
0.045226701 0.085660003 0.029575599
0.0456433 0.085636698 0.0292749
0.0460339 0.085609503 0.0289256
0.046422601 0.0855821 0.0285728
0.0467568 0.085546799 0.028117999
0.047100101 0.085512698 0.0276803
0.0474132 0.085474297 0.0271859
0.0475167 0.083013996 -0.0056737401
0.047875602 0.082983799 -0.0061059198
0.062670998 0.085006699 0.0211681
0.063160896 0.084993899 0.0210045
0.063868798 0.085012898 0.0212487
0.064701803 0.085050099 0.0217268
0.065580398 0.085093901 0.022290399
0.066376001 0.085125603 0.0226986
0.067013897 0.085134402 0.0228117
0.067588702 0.085134 0.0228069
0.0681815 0.085136302 0.022836
0.068851203 0.085149698 0.0230087
0.0695199 0.085162997 0.023179499
0.070154399 0.085171297 0.023286499
0.070722997 0.085170001 0.023269899
0.071305402 0.085170701 0.023279499
0.071823798 0.0851622 0.023169201
0.072364397 0.085156798 0.0231004
0.0728653 0.085145697 0.022957399
0.073377699 0.085136302 0.0228361
0.073870301 0.085123897 0.022677399
0.074346498 0.085109197 0.022488199
0.074845299 0.085097797 0.0223414
0.075369298 0.085090101 0.0222417
0.075911902 0.085084997 0.0221767
0.0763916 0.085070796 0.0219939
0.076866798 0.085055999 0.0218029
0.077330001 0.0850394 0.0215894
0.077767797 0.085019097 0.0213283
0.078209102 0.084999301 0.0210739
0.078650199 0.084979497 0.0208191
0.079075202 0.084957398 0.0205341
0.0794864 0.084933199 0.0202234
0.0798949 0.084908701 0.0199074
0.080300003 0.084883697 0.0195853
0.080693498 0.084856898 0.0192414
0.081074297 0.084828399 0.0188738
0.0814225 0.084795102 0.018445199
0.081743397 0.084757797 0.0179656
0.082066402 0.084720798 0.0174897
0.082388997 0.084683798 0.0170133
0.082682401 0.0846425 0.0164822
0.082955398 0.084598303 0.015912799
0.083213203 0.084551796 0.0153151
0.083484903 0.084507398 0.0147435
0.083726399 0.084458597 0.0141153
0.083948903 0.084407002 0.0134516
0.0841555 0.084353097 0.0127582
0.084376998 0.084301397 0.0120925
-0.083777301 0.084824897 0.0096585704
-0.082654603 0.084903903 0.0106788
-0.081622802 0.084969603 0.0115289
-0.0806835 0.085022002 0.012206
-0.079890601 0.085053198 0.0126091
-0.079162002 0.085075103 0.0128921
-0.078420699 0.0850989 0.0131988
-0.077475503 0.085152097 0.0138868
-0.076644599 0.085188799 0.0143611
-0.075902604 0.085212603 0.0146691
-0.075206198 0.085229903 0.0148918
-0.074509203 0.085247204 0.0151155
-0.073854104 0.085258402 0.015261
-0.073155999 0.085275903 0.0154868
-0.0724122 0.085299999 0.0157982
-0.071720302 0.085316598 0.016012499
-0.071016997 0.0853348 0.0162482
-0.070389196 0.085342102 0.016342601
-0.069748998 0.085351199 0.01646
-0.069118701 0.085358903 0.0165592
-0.068533704 0.085359998 0.0165735
-0.067922696 0.085364901 0.0166364
-0.067322701 0.085368097 0.016678801
-0.066711098 0.085373104 0.0167429
-0.066064097 0.085383199 0.016873101
-0.065404698 0.085395001 0.017026599
-0.064755604 0.085405402 0.0171609
-0.064020999 0.085428201 0.017455
-0.0631347 0.085472897 0.018032899
-0.062319901 0.085507303 0.018477
-0.061538901 0.0855368 0.018858001
-0.060777001 0.085563503 0.019203199
-0.060007598 0.085591301 0.0195625
-0.0593138 0.085608102 0.019780301
-0.058641002 0.085621901 0.0199588
-0.057957601 0.085637301 0.020157199
-0.0573125 0.085647099 0.0202839
-0.0566574 0.085658297 0.0204293
-0.0560055 0.0856691 0.0205689
-0.0553592 0.085679099 0.0206978
-0.054674901 0.085694604 0.020897901
-0.053932499 0.085718498 0.021206699
-0.053266101 0.085731402 0.021373199
-0.052599799 0.085744299 0.021539601
-0.0519736 0.085751303 0.021631001
-0.051409502 0.085749403 0.021606101
-0.050817899 0.085751504 0.0216329
-0.050218798 0.085754603 0.021673501
-0.049598299 0.085760899 0.0217542
-0.048992801 0.0857649 0.021806801
-0.048397001 0.085767597 0.021841399
-0.047795001 0.085771203 0.0218875
-0.047225799 0.085770003 0.0218722
-0.046638701 0.085771397 0.021890501
-0.046063501 0.085771099 0.021886401
-0.045471899 0.0857732 0.021913201
-0.044883799 0.085774697 0.0219332
-0.0443542 0.085767798 0.021843901
-0.043822698 0.085761197 0.021758201
-0.043288101 0.085754998 0.021678301
-0.0427709 0.085746303 0.021565801
-0.042289499 0.0857324 0.021386201
-0.041795701 0.085720301 0.021229999
-0.0413155 0.085706197 0.021048101
-0.040837001 0.085691899 0.0208632
-0.040346101 0.085679397 0.0207016
-0.0398583 0.0856665 0.0205341
-0.039374799 0.085652903 0.0203584
-0.038935799 0.085632801 0.0200998
-0.038472001 0.085616402 0.0198873
-0.038118199 0.085584 0.019469099
-0.037788399 0.0855482 0.0190061
-0.0374703 0.085510701 0.018521201
-0.037136 0.085475497 0.018066499
-0.036718499 0.0854524 0.0177675
-0.036346301 0.085422702 0.0173837
-0.036013201 0.085387297 0.016926801
-0.03568 0.085352004 0.016470101
-0.035339799 0.085317701 0.0160264
-0.035076398 0.0852722 0.0154393
-0.034836601 0.085223399 0.0148077
-0.034668799 0.0851641 0.0140417
-0.0345346 0.085099898 0.0132127
-0.034246199 0.085058101 0.0126722
-0.033881899 0.0850273 0.0122736
-0.033419099 0.0850107 0.0120594
-0.032898702 0.085002497 0.0119529
-0.0324031 0.084990598 0.0117999
-0.031898402 0.0849801 0.0116641
-0.0314047 0.084968001 0.0115076
-0.030909101 0.084956199 0.0113547
-0.030404201 0.084945701 0.0112192
-0.0298668 0.084939897 0.0111444
-0.029336501 0.084933102 0.0110565
-0.028788401 0.084928803 0.0110016
-0.028237499 0.084925003 0.0109521
-0.027688 0.084921002 0.0109001
-0.027178099 0.084911197 0.0107739
-0.026613999 0.084909298 0.0107491
-0.026141901 0.084894098 0.0105522
-0.0256567 0.084880702 0.0103799
-0.0251387 0.084872097 0.0102688
-0.024576301 0.084870003 0.0102409
-0.024036299 0.084864601 0.010171
-0.023528799 0.084854499 0.0100404
-0.023018099 0.084844798 0.0099156601
-0.0225114 0.084834598 0.0097835502
-0.021984801 0.0848272 0.0096885003
-0.0214814 0.084816501 0.0095503004
-0.0209105 0.084815599 0.0095381401
-0.0203673 0.084810697 0.00947423
-0.017992601 0.085070796 0.0128364
-0.017436201 0.085067801 0.0127972
-0.016888 0.085063599 0.0127427
-0.016352201 0.085057601 0.0126649
-0.0157736 0.085057698 0.0126673
-0.0152668 0.085047498 0.0125354
-0.0148333 0.085026696 0.0122662
-0.014444 0.084999502 0.0119144
-0.0140267 0.084976301 0.0116151
-0.0135356 0.084963799 0.0114538
-0.0130191 0.084954999 0.0113399
-0.0126233 0.084928699 0.0110002
-0.0123097 0.084890597 0.010507
-0.0120372 0.0848464 0.0099366596
-0.0117691 0.084801704 0.0093582598
-0.0114987 0.084757298 0.0087840101
-0.0112406 0.084711 0.0081868796
-0.010929 0.0846726 0.00768968
-0.0105531 0.084643401 0.0073128301
-0.0101102 0.084624 0.0070613301
-0.0096382601 0.084608696 0.0068642301
-0.0091776596 0.084591798 0.0066458099
-0.0087073399 0.084576301 0.0064455899
-0.0082423501 0.084560603 0.0062280698
-0.0078084902 0.084541 0.0059441798
-0.0073971502 0.084518299 0.0056158099
-0.0069895801 0.084495001 0.0052799699
-0.0065434598 0.084477097 0.0050203502
-0.0060871001 0.084460497 0.0047810399
-0.00566138 0.084439799 0.00448108
-0.00525124 0.084416904 0.00415029
-0.0048497198 0.084392898 0.00380249
-0.0044728699 0.084365502 0.00340588
-0.00410141 0.084337302 0.00299858
-0.00373915 0.084307902 0.00257313
-0.0033863999 0.084277198 0.0021287899
-0.0030527001 0.084243797 0.00164681
-0.0027115501 0.084211498 0.00117959
-0.00240345 0.0841747 0.000646948
-0.00208118 0.084139802 0.00014238
-0.00174934 0.084106199 -0.00034327101
-0.00143018 0.084070899 -0.00085403101
-0.00108101 0.084039703 -0.00130542
-0.00075264298 0.084005699 -0.00179793
-0.00045231701 0.083967797 -0.0023459401
-0.00015118701 0.083930001 -0.00289232
0.000147477 0.083891898 -0.0034436199
0.00039448601 0.083846703 -0.0040971101
0.00066326599 0.083804503 -0.0047074901
0.00089424098 0.083757102 -0.0053926902
0.0010958 0.083705701 -0.0061360602
0.00124798 0.083647497 -0.0069771199
0.0014351 0.083594203 -0.0077490401
0.00162927 0.083541803 -0.0085070096
0.00185984 0.083494298 -0.0091930004
0.0020817299 0.083445698 -0.0098961797
0.0022531999 0.083390199 -0.0106991
0.025616201 0.085282497 0.0155716
0.0261965 0.085282899 0.0155772
0.0284131 0.0855202 0.018643601
0.0289174 0.085509598 0.018506899
0.036489699 0.086522102 0.031591602
0.037182301 0.086538799 0.0318073
0.0378564 0.086552799 0.0319882
0.0384444 0.086554296 0.032008201
0.039003201 0.086551599 0.031973299
0.039569698 0.086549997 0.031953201
0.040111098 0.086544797 0.031885799
0.0406502 0.086539298 0.0318143
0.041174699 0.086531602 0.031715501
0.0416658 0.086519197 0.031554099
0.0421662 0.086507998 0.031410199
0.042654101 0.086495101 0.031242801
0.043138701 0.086481698 0.031069299
0.043634001 0.086469799 0.0309158
0.044090901 0.086452298 0.030690599
0.0445108 0.086429603 0.0303961
0.044934999 0.086407401 0.030109501
0.045343 0.086382903 0.0297927
0.0457321 0.086355597 0.0294406
0.046114899 0.086327501 0.029076699
0.046509702 0.086300999 0.028735301
0.046869799 0.086269602 0.028328801
0.047217902 0.086236402 0.027899999
0.047561999 0.086202703 0.027463799
0.0478554 0.086161599 0.0269325
0.047567599 0.083744504 -0.0055747302
0.047900401 0.083711103 -0.0060585402
0.048335999 0.083691701 -0.0063389102
0.048784699 0.083674103 -0.0065933
0.063585401 0.085680597 0.0207173
0.064417802 0.085717499 0.0211944
0.065342203 0.085767798 0.0218437
0.066119701 0.085796803 0.022218
0.0668042 0.0858123 0.0224184
0.0674036 0.085815497 0.022459701
0.0680134 0.085820198 0.022520401
0.068662196 0.085830502 0.022654099
0.069340199 0.085845098 0.0228424
0.0699936 0.085856102 0.0229846
0.070592403 0.085859202 0.023024799
0.071179397 0.085860603 0.023042699
0.071716197 0.085854702 0.022966901
0.0722306 0.085845597 0.0228491
0.072726697 0.085833803 0.022697199
0.073241398 0.085824803 0.02258
0.073740803 0.0858135 0.022434199
0.074221 0.085799403 0.022252399
0.074725904 0.085788898 0.022116899
0.075246997 0.085780799 0.022011699
0.075784102 0.085775003 0.0219365
0.076301798 0.085766301 0.021824799
0.076791599 0.085753702 0.021661101
0.077254601 0.085737102 0.0214472
0.077707201 0.085718997 0.0212138
0.078154497 0.085700199 0.020970499
0.078596599 0.085680597 0.020717399
0.079016298 0.085657798 0.0204226
0.079438001 0.085635297 0.0201314
0.079851702 0.085611597 0.0198253
0.080252402 0.085585997 0.019494999
0.080632403 0.085557498 0.019125801
0.081006803 0.085528098 0.0187461
0.081355102 0.085495003 0.018317699
0.081693299 0.085460298 0.0178703
0.082001999 0.085421503 0.017367801
0.082324304 0.085384503 0.016890701
0.082611799 0.085342601 0.0163486
0.082898803 0.085300602 0.015805401
0.083191201 0.085259303 0.0152722
0.083459303 0.085214503 0.0146939
0.083713301 0.085167699 0.0140889
0.083954401 0.085119098 0.0134599
0.084176198 0.0850676 0.0127949
0.084371202 0.085012302 0.0120796
0.084562398 0.0849564 0.0113574
-0.083742402 0.085558102 0.0097260196
-0.0829245 0.085592598 0.0101759
-0.081680797 0.0856883 0.0114224
-0.080683 0.085748702 0.0122089
-0.079871602 0.085782297 0.0126466
-0.079136901 0.085804902 0.012941
-0.078413904 0.085825801 0.0132134
-0.077512398 0.0858723 0.0138197
-0.076654099 0.0859126 0.0143452
-0.075909398 0.085936703 0.0146582
-0.075191401 0.085956901 0.0149213
-0.074520901 0.085970201 0.0150955
-0.073868997 0.0859809 0.0152349
-0.073168002 0.085998699 0.0154662
-0.072413497 0.086024098 0.0157976
-0.071744099 0.086037301 0.0159698
-0.071086302 0.086048901 0.0161203
-0.0704652 0.086055197 0.0162022
-0.069843702 0.0860615 0.0162847
-0.069225103 0.086067401 0.0163619
-0.068635002 0.086069301 0.016385799
-0.068036102 0.0860724 0.016426099
-0.067443602 0.086074501 0.016454499
-0.066834599 0.086079098 0.0165137
-0.066110499 0.086100101 0.016788101
-0.065412097 0.086117499 0.0170146
-0.064763799 0.086127698 0.0171472
-0.064019099 0.086151697 0.017460199
-0.063169301 0.086190902 0.017969901
-0.062320299 0.086229898 0.0184779
-0.061548602 0.0862578 0.0188416
-0.060789201 0.0862839 0.019182101
-0.0600092 0.086313002 0.019561101
-0.0593068 0.086331002 0.019795099
-0.058632299 0.086344898 0.0199767
-0.057970699 0.086356997 0.020134401
-0.057321802 0.086367302 0.0202682
-0.056668501 0.086378202 0.020410201
-0.056011699 0.086389601 0.020558899
-0.055366602 0.086399302 0.0206856
-0.054701701 0.086411901 0.020849399
-0.053980999 0.086432502 0.021117499
-0.05333 0.086443 0.0212551
-0.052662 0.086456001 0.0214247
-0.052030802 0.086463802 0.0215255
-0.051463101 0.086462401 0.021507399
-0.050896902 0.086460799 0.021486601
-0.050292298 0.086464703 0.0215375
-0.0496752 0.086470403 0.021612
-0.049058601 0.086476102 0.021685399
-0.048461001 0.086478896 0.0217232
-0.047847498 0.086484097 0.021790899
-0.047263801 0.086485103 0.021802699
-0.046706501 0.086482197 0.021765299
-0.046131801 0.086481802 0.021760199
-0.045550399 0.086482398 0.021767801
-0.0449697 0.086482897 0.021774201
-0.044427101 0.086477898 0.021709099
-0.0438914 0.0864719 0.0216312
-0.043381602 0.0864622 0.021504899
-0.0428713 0.086452603 0.0213794
-0.042396899 0.086437799 0.021186899
-0.041930102 0.086421899 0.02098
-0.041466899 0.086405501 0.020766599
-0.041005 0.086388901 0.020550599
-0.040545601 0.086372003 0.020330099
-0.040061399 0.086358599 0.0201557
-0.039604399 0.086341403 0.019930599
-0.039179198 0.086319499 0.019646101
-0.038791399 0.086292297 0.0192915
-0.038446799 0.086258903 0.018856199
-0.038107801 0.086224698 0.018410301
-0.0377056 0.0861995 0.0180826
-0.037355099 0.086166903 0.017658301
-0.036981001 0.086137801 0.017278099
-0.0366381 0.086104102 0.016839599
-0.0362847 0.086071998 0.0164207
-0.035990801 0.086031303 0.0158905
-0.035827599 0.085971802 0.0151158
-0.035746701 0.0859005 0.0141873
-0.0356097 0.085837297 0.0133636
-0.035340499 0.085793003 0.0127871
-0.035048701 0.085752003 0.012253
-0.0345737 0.0857374 0.0120615
-0.034056801 0.085728697 0.0119484
-0.033580899 0.085714102 0.0117586
-0.033064101 0.0857054 0.0116455
-0.032551698 0.085696101 0.011524
-0.032049201 0.085685298 0.011384
-0.031533401 0.085676499 0.0112687
-0.031046201 0.085663602 0.0111002
-0.0305677 0.085649401 0.0109153
-0.030053001 0.085640401 0.0107982
-0.0294929 0.085637897 0.0107658
-0.0289381 0.085634701 0.0107236
-0.0283946 0.085629798 0.0106604
-0.027857499 0.085624002 0.0105851
-0.027346199 0.085614502 0.0104615
-0.0268161 0.085607797 0.0103732
-0.026349699 0.085591801 0.0101656
-0.025814001 0.085585803 0.0100877
-0.025281901 0.085579403 0.010003
-0.024679599 0.085582897 0.0100497
-0.0241191 0.085580498 0.0100182
-0.023571201 0.085576303 0.0099631296
-0.0230681 0.085565597 0.0098241298
-0.022556501 0.085556202 0.0097012399
-0.022055 0.085545301 0.0095593501
-0.0215619 0.085533202 0.0094016604
-0.021018701 0.085528299 0.0093377801
-0.020485099 0.085522003 0.0092560602
-0.019956 0.085515097 0.0091658197
-0.0176061 0.085769601 0.0124813
-0.0170884 0.085761003 0.0123697
-0.0165543 0.085754797 0.0122889
-0.015984301 0.085753702 0.0122751
-0.0154536 0.0857471 0.0121879
-0.0149683 0.085733801 0.0120157
-0.0145779 0.085707001 0.0116661
-0.0141895 0.085679904 0.0113125
-0.0137051 0.0856665 0.0111387
-0.0131544 0.0856627 0.0110889
-0.012745 0.085638598 0.0107746
-0.0124222 0.085602 0.0102986
-0.0121207 0.085562401 0.0097826002
-0.0118738 0.085515 0.0091644898
-0.0116049 0.085470699 0.0085875504
-0.0113311 0.085427098 0.0080196997
-0.0110218 0.085388601 0.0075182202
-0.0106286 0.085362203 0.0071737799
-0.0101828 0.085343301 0.0069278502
-0.0097017903 0.085329503 0.0067475801
-0.0092064999 0.085317701 0.0065941098
-0.0087031899 0.085307099 0.00645557
-0.0082286196 0.085292697 0.0062574102
-0.0077661602 0.085277103 0.0060301302
-0.0073572001 0.085254297 0.0056969998
-0.0069475202 0.085231498 0.0053653
-0.0065137101 0.085212 0.00508135
-0.00605636 0.085195698 0.0048439498
-0.0056177801 0.085176803 0.0045694401
-0.0051819701 0.085157603 0.0042894501
-0.0047866302 0.085132897 0.0039294199
-0.0044004498 0.085106902 0.00355117
-0.0040275198 0.085079201 0.00314682
-0.0036682 0.085049599 0.00271547
-0.00332184 0.085018203 0.0022585201
-0.0029674601 0.084987901 0.00181743
-0.00262818 0.084955603 0.00134651
-0.00229555 0.084922403 0.00086236699
-0.0019773101 0.084887199 0.000349774
-0.00165856 0.084852003 -0.000161768
-0.00132763 0.084818602 -0.00064925198
-0.00101048 0.084783196 -0.0011640301
-0.00065657502 0.084752902 -0.00160607
-0.00036885601 0.084713504 -0.0021790301
-4.4636399e-05 0.084679201 -0.0026797401
0.000241913 0.084639698 -0.0032550299
0.00052595098 0.0845998 -0.00383528
0.00080440898 0.084559299 -0.0044265799
0.0010388 0.084512703 -0.0051050298
0.0012754 0.084466398 -0.0057791299
0.00145184 0.084411897 -0.00657218
0.00163152 0.084357902 -0.0073589198
0.00185692 0.084310099 -0.0080551403
0.0020661999 0.084260203 -0.0087832902
0.00226419 0.0842086 -0.0095337499
0.0024572599 0.084156401 -0.0102939
0.026150599 0.0860008 0.0154932
0.0284488 0.086247802 0.0187121
0.033704899 0.086919598 0.027463701
0.034526601 0.086954698 0.027920799
0.037138902 0.087246798 0.031727199
0.037852202 0.087266304 0.031981502
0.038487501 0.0872747 0.0320898
0.039053801 0.087273099 0.032069199
0.039627101 0.087272502 0.032061499
0.040164899 0.087266803 0.0319876
0.040681899 0.087258101 0.031874701
0.041214898 0.087251797 0.031791698
0.041707899 0.087239698 0.031633899
0.0422219 0.0872306 0.031515401
0.042729702 0.087220602 0.031385299
0.0432203 0.0872081 0.0312232
0.043702099 0.087194398 0.031044399
0.044158202 0.087177001 0.0308176
0.0445766 0.087154202 0.030520201
0.045003299 0.087132603 0.030238399
0.045409199 0.087107897 0.029917801
0.0458133 0.087083101 0.029593701
0.046197701 0.0870554 0.029232699
0.046574399 0.087026604 0.028857499
0.0469441 0.086996697 0.028469
0.047299199 0.086964801 0.028053399
0.047607198 0.086926199 0.027549401
0.0479321 0.0868899 0.0270773
0.048199099 0.086845301 0.026496699
0.0479674 0.084456399 -0.0059242998
0.048389699 0.084435403 -0.0062309499
0.048794098 0.084411897 -0.0065731001
0.049146298 0.084381297 -0.0070185801
0.064242803 0.086413398 0.0208687
0.065059602 0.086447701 0.021316599
0.065866597 0.086480699 0.0217463
0.066546701 0.086495496 0.021938199
0.0672068 0.086507402 0.022093199
0.067817099 0.086512104 0.0221547
0.068490699 0.086525902 0.0223347
0.069202997 0.086545303 0.022587201
0.069817103 0.086550497 0.022655999
0.070444398 0.086557701 0.0227494
0.071032502 0.086559303 0.0227695
0.071585 0.086555697 0.022723099
0.072075203 0.086543202 0.02256
0.072565302 0.0865307 0.022396799
0.073082 0.086521901 0.022283301
0.073601097 0.086513601 0.0221745
0.074116804 0.086504698 0.022058999
0.074609898 0.086492598 0.021901499
0.0751362 0.086485296 0.021806
0.0756547 0.0864769 0.021695901
0.076148599 0.086464897 0.0215398
0.076637 0.086452097 0.0213734
0.0771387 0.086441197 0.021232
0.077612303 0.086426303 0.0210378
0.078071997 0.086409502 0.020817799
0.078528002 0.086392 0.020590801
0.078948997 0.086369596 0.020298401
0.079361998 0.086346 0.019990901
0.079773501 0.086322203 0.0196808
0.080170199 0.086296201 0.019342801
0.080540404 0.086266503 0.0189554
0.080915697 0.086237498 0.0185773
0.081262 0.086204298 0.0181452
0.081588402 0.086168297 0.0176758
0.0819382 0.086135603 0.017250201
0.082241498 0.086096302 0.0167375
0.082560301 0.086059198 0.016254
0.082860999 0.086019397 0.0157363
0.083168 0.085980602 0.0152307
0.083445303 0.0859375 0.0146696
0.0837107 0.0858927 0.0140859
0.083959699 0.085845597 0.0134718
0.0841778 0.085794002 0.0127998
0.084389001 0.085741401 0.0121148
0.084581897 0.085686304 0.0113957
-0.083267502 0.086271599 0.0095364703
-0.081850901 0.086391099 0.0111062
-0.0807532 0.086465202 0.0120794
-0.079888903 0.086506099 0.0126161
-0.079144001 0.086529903 0.0129295
-0.078425899 0.086549997 0.0131929
-0.077511199 0.086598001 0.0138239
-0.076630302 0.0866412 0.0143916
-0.075889498 0.086664498 0.0146973
-0.075175397 0.086684003 0.0149531
-0.074508898 0.086696699 0.0151198
-0.073836103 0.086710297 0.0152984
-0.073170498 0.086722903 0.0154635
-0.072445199 0.086743899 0.015740201
-0.071807697 0.086752497 0.0158526
-0.071157403 0.086762898 0.015989
-0.070552804 0.086766697 0.016039999
-0.069932103 0.086772896 0.016121101
-0.069328301 0.086776704 0.0161706
-0.068722099 0.086780801 0.0162246
-0.068135403 0.086782098 0.0162421
-0.067541003 0.086784601 0.016274
-0.066897601 0.086793996 0.0163975
-0.066143103 0.086819202 0.0167289
-0.065428697 0.0868387 0.0169852
-0.064785801 0.086847998 0.0171078
-0.064078398 0.086866602 0.0173511
-0.0632727 0.086899102 0.0177781
-0.062394701 0.086941898 0.018340601
-0.0616083 0.0869717 0.0187316
-0.060871199 0.086994402 0.0190304
-0.060101099 0.087021902 0.019390799
-0.059362099 0.087044902 0.0196933
-0.058664098 0.087062098 0.0199189
-0.0579894 0.087075897 0.020101
-0.0573483 0.087085001 0.0202202
-0.056683 0.087097503 0.0203848
-0.056023501 0.087109201 0.020538401
-0.055348799 0.087123103 0.0207205
-0.0546939 0.0871341 0.020865601
-0.054031 0.087146297 0.0210256
-0.053355899 0.0871602 0.0212084
-0.0527164 0.087169103 0.021324599
-0.052095599 0.087175302 0.021405799
-0.051528402 0.087173797 0.0213868
-0.050962199 0.087172203 0.021366
-0.050379802 0.087173 0.021375399
-0.049763899 0.087178402 0.0214475
-0.0491479 0.087183997 0.02152
-0.0485406 0.087188199 0.0215759
-0.047930598 0.0871929 0.0216369
-0.0473429 0.087194398 0.0216564
-0.046792202 0.087190501 0.021606401
-0.046236798 0.087187402 0.021565501
-0.045712002 0.087179899 0.021467101
-0.045138702 0.0871794 0.0214596
-0.0445644 0.087178901 0.021453699
-0.044010598 0.0871756 0.0214097
-0.043530598 0.087161697 0.0212276
-0.0430029 0.087154597 0.021134799
-0.0425382 0.087138601 0.020924199
-0.0421036 0.087118298 0.0206572
-0.041682299 0.087096103 0.020365199
-0.0412466 0.087075897 0.020100299
-0.040847801 0.087050498 0.0197664
-0.040377501 0.087035201 0.0195661
-0.039960802 0.087012298 0.0192656
-0.039552402 0.0869883 0.018949701
-0.039156001 0.086962499 0.0186111
-0.038761601 0.086936504 0.018269001
-0.0383971 0.086906098 0.017870801
-0.038087498 0.086868003 0.01737
-0.0378155 0.086824499 0.0167989
-0.037603099 0.086772598 0.016116301
-0.037250999 0.086740501 0.015695
-0.036804099 0.086721897 0.0154509
-0.036474101 0.086686701 0.0149882
-0.036482699 0.086603202 0.0138923
-0.036441401 0.086526901 0.0128897
-0.036180299 0.086481899 0.0122981
-0.0357995 0.0864539 0.0119304
-0.0353067 0.0864418 0.0117724
-0.034792401 0.086432897 0.0116545
-0.034263998 0.0864259 0.011563
-0.0337575 0.086415797 0.0114304
-0.033249401 0.086405903 0.0113009
-0.032723598 0.086398602 0.0112043
-0.032219999 0.086388104 0.0110664
-0.031691998 0.0863811 0.0109741
-0.031190099 0.086370297 0.0108331
-0.030732401 0.086353302 0.0106092
-0.0302427 0.0863408 0.0104453
-0.029702401 0.086335503 0.010376
-0.029139601 0.086333402 0.0103488
-0.028612601 0.086326301 0.0102545
-0.028097 0.086317502 0.0101392
-0.027625199 0.0863024 0.0099416003
-0.0271316 0.086290501 0.0097850002
-0.0266349 0.086278997 0.0096341101
-0.026025699 0.086283602 0.0096936896
-0.0254177 0.086287901 0.0097509902
-0.024829101 0.086289503 0.0097721098
-0.024246501 0.0862903 0.0097819399
-0.0236647 0.086290903 0.0097901896
-0.0231479 0.086282298 0.0096770599
-0.022627501 0.086274199 0.0095704496
-0.0221195 0.086264297 0.0094407601
-0.0216337 0.086251304 0.0092695002
-0.0211301 0.086240798 0.0091314698
-0.0206249 0.086230502 0.00899659
-0.020079101 0.086226001 0.0089376802
-0.017802799 0.086467899 0.0121153
-0.0173016 0.086457103 0.0119729
-0.0167589 0.086452201 0.011908
-0.016155999 0.0864558 0.0119559
-0.0156304 0.086448401 0.0118592
-0.0151473 0.086434998 0.0116829
-0.0147164 0.086414203 0.0114089
-0.014317 0.086388797 0.0110762
-0.0138578 0.086372003 0.0108551
-0.0133359 0.086364098 0.0107513
-0.0128834 0.086346298 0.0105179
-0.0125198 0.0863159 0.0101181
-0.0122175 0.086276703 0.0096035404
-0.0119476 0.086232901 0.0090284301
-0.0116895 0.086187497 0.0084313396
-0.0114191 0.086143702 0.0078571998
-0.0111182 0.0861044 0.0073401001
-0.0107077 0.086080603 0.0070280302
-0.0102549 0.086062901 0.0067950501
-0.0097512696 0.086052403 0.0066571799
-0.0092284298 0.086044602 0.0065552401
-0.0087154396 0.086035497 0.00643487
-0.0082261898 0.086023301 0.0062644202
-0.00775507 0.086009003 0.00605423
-0.0073244101 0.0859892 0.0057640402
-0.0069046998 0.085967898 0.0054521901
-0.0064888499 0.085946202 0.0051326798
-0.00603772 0.085929103 0.0048829801
-0.0055683898 0.085914597 0.0046692998
-0.00513802 0.085894801 0.0043784799
-0.0047393101 0.085870698 0.00402511
-0.00435971 0.085844003 0.00363387
-0.0039698901 0.0858187 0.00326289
-0.00361474 0.085788801 0.0028232799
-0.0032806799 0.0857559 0.0023419701
-0.00292127 0.085726596 0.00191081
-0.00257076 0.085695997 0.00146207
-0.00223614 0.085663199 0.00098187395
-0.00189618 0.085631199 0.00051222701
-0.00156554 0.085597999 2.41241e-05
-0.00123369 0.085564896 -0.000461549
-0.00092368602 0.085528798 -0.00099046598
-0.00059392297 0.085495397 -0.0014802699
-0.00025989101 0.0854626 -0.0019616201
5.71087e-05 0.0854275 -0.0024767099
0.00035874499 0.0853903 -0.0030221399
0.00064200902 0.0853507 -0.0036039201
0.000929125 0.085311502 -0.0041781301
0.00119574 0.0852696 -0.00479287
0.00142378 0.085222498 -0.0054839002
0.00162857 0.085172303 -0.0062209698
0.00182455 0.085120901 -0.0069754501
0.0020391101 0.085071899 -0.0076931398
0.0022327199 0.085020199 -0.0084523298
0.0024636199 0.084973499 -0.0091377599
0.0026857599 0.084925599 -0.0098404698
0.0028277801 0.084866904 -0.0107017
0.033839099 0.087655701 0.027716
0.034802701 0.087710701 0.028438499
0.036967002 0.087936699 0.031406701
0.037828401 0.087977096 0.031938002
0.0385135 0.087992497 0.032139499
0.039085601 0.0879917 0.032129802
0.039654199 0.0879905 0.032113399
0.040196098 0.087985396 0.032047
0.040716201 0.087977298 0.031939998
0.041239601 0.087969601 0.031839099
0.041762602 0.087961897 0.031737398
0.042282 0.087953597 0.031629
0.042787701 0.087943397 0.031495102
0.0432836 0.087931797 0.0313427
0.0437438 0.0879151 0.0311235
0.044191498 0.087896697 0.030881099
0.044622902 0.087875903 0.0306079
0.045059599 0.087855898 0.030345
0.045458902 0.087830499 0.030012
0.045878299 0.087807998 0.029716499
0.046258301 0.087779902 0.029347301
0.0466258 0.087750003 0.0289548
0.046985801 0.087719098 0.028548401
0.047364701 0.0876908 0.0281772
0.047692101 0.087655202 0.0277096
0.0479999 0.087616801 0.027205501
0.048294298 0.087576501 0.026676301
0.0480345 0.085201703 -0.0057898699
0.0484166 0.085175298 -0.0061761299
0.048804902 0.085149802 -0.00655019
0.049158201 0.085119598 -0.00699346
0.049447801 0.085080802 -0.00756271
0.064827897 0.087135598 0.020884801
0.065603197 0.087163799 0.0212551
0.066275403 0.087177299 0.0214324
0.066967897 0.087193698 0.0216478
0.067591101 0.087200202 0.021733601
0.0682685 0.0872145 0.021920601
0.068956301 0.087230198 0.022127301
0.069603503 0.087240197 0.022258
0.070243701 0.0872491 0.0223755
0.070828103 0.087250099 0.0223887
0.071411602 0.087251 0.0224001
0.071924999 0.087241903 0.0222806
0.072406203 0.087228201 0.0221007
0.072923802 0.0872197 0.021988999
0.0734635 0.087214299 0.0219186
0.074009098 0.087209798 0.0218591
0.0745361 0.087202601 0.021764901
0.075030804 0.087190799 0.0216104
0.075532801 0.0871801 0.021469399
0.0760094 0.087165803 0.021281
0.0764779 0.087150298 0.0210774
0.076969899 0.087138101 0.020917701
0.077460803 0.087125801 0.020756099
0.077937603 0.087111503 0.020568
0.078404903 0.087095797 0.0203622
0.078833699 0.087074697 0.020084299
0.079236902 0.087049901 0.0197585
0.079643503 0.087025501 0.0194392
0.080040097 0.086999796 0.0191011
0.080428801 0.0869729 0.0187482
0.080806501 0.086944498 0.0183747
0.0811527 0.086911596 0.017942401
0.081507102 0.086879797 0.017525399
0.081857301 0.086847499 0.0171005
0.082185604 0.086811997 0.016634701
0.082532801 0.0867792 0.016204201
0.082838602 0.086740598 0.0156963
0.083149001 0.0867026 0.015197
0.083416998 0.0866585 0.0146184
0.083697602 0.086616203 0.0140633
0.083941698 0.086568803 0.0134399
0.084174603 0.086519703 0.0127958
0.084389403 0.086468101 0.0121177
0.084615 0.086418003 0.0114596
-0.083454996 0.086973302 0.0091878204
-0.082382903 0.087043203 0.010113
-0.080991797 0.087158099 0.0116352
-0.079929501 0.087226599 0.0125422
-0.079190798 0.087249398 0.0128439
-0.0784593 0.087271199 0.0131323
-0.077498697 0.087325297 0.0138491
-0.076617502 0.087368198 0.0144174
-0.075879298 0.087390997 0.0147183
-0.0751817 0.087407902 0.0149431
-0.0744856 0.087424703 0.0151651
-0.073816903 0.0874376 0.015336
-0.073174402 0.087446801 0.0154578
-0.0724843 0.087462701 0.0156688
-0.071854897 0.087470099 0.0157662
-0.071216397 0.087478697 0.015880501
-0.070625603 0.087480597 0.015905701
-0.0699967 0.087487899 0.0160021
-0.069377199 0.087493896 0.016080899
-0.0687695 0.087498203 0.016137799
-0.068185799 0.087499097 0.0161497
-0.0675961 0.087500803 0.0161727
-0.066935003 0.087512597 0.0163294
-0.066162199 0.087540202 0.0166949
-0.065456897 0.087558299 0.016934199
-0.064827003 0.087565698 0.0170325
-0.064157501 0.087578699 0.017204899
-0.063402496 0.0876038 0.017537201
-0.062514298 0.087647699 0.018118501
-0.061719801 0.087678403 0.0185246
-0.060992301 0.0876996 0.018805601
-0.060223699 0.0877266 0.0191631
-0.0594308 0.087757103 0.0195664
-0.058723599 0.087775402 0.019809101
-0.0580189 0.087793402 0.020047501
-0.057390202 0.0878006 0.0201435
-0.0566977 0.087816902 0.0203587
-0.056028701 0.087829798 0.0205302
-0.055351298 0.087843999 0.0207173
-0.054684401 0.087856598 0.020884899
-0.054047499 0.087865002 0.020996301
-0.053388599 0.087876603 0.021148801
-0.052736599 0.087887101 0.021288401
-0.052152202 0.087888099 0.0213015
-0.0515843 0.087886803 0.0212839
-0.0509964 0.087888204 0.0213037
-0.050413702 0.087889001 0.0213136
-0.049818501 0.087891497 0.021346999
-0.049210999 0.087895803 0.0214033
-0.048615199 0.087898403 0.0214379
-0.048024401 0.087900303 0.0214631
-0.047464602 0.0878978 0.021430301
-0.046912499 0.087894201 0.021383099
-0.046382099 0.0878876 0.0212951
-0.0458632 0.087879397 0.021186
-0.045287199 0.087879203 0.021183399
-0.044732299 0.087876 0.021141401
-0.0441784 0.087872699 0.0210975
-0.043699101 0.087858804 0.020914201
-0.043177899 0.087850899 0.0208092
-0.042685602 0.087838903 0.0206501
-0.042280901 0.087814502 0.020327101
-0.041889898 0.087788202 0.019978501
-0.041501299 0.087761499 0.0196256
-0.041189998 0.087723903 0.0191279
-0.040804401 0.087696902 0.0187693
-0.0403485 0.087679699 0.0185421
-0.039914001 0.087659501 0.0182749
-0.039493602 0.087637402 0.0179813
-0.039067 0.087616101 0.017699501
-0.0387903 0.087573603 0.017137101
-0.038724799 0.087501302 0.016179901
-0.038466301 0.087456301 0.0155835
-0.038125299 0.0874229 0.0151414
-0.0377401 0.087395802 0.0147821
-0.0374588 0.087353997 0.0142282
