# .PCD v0.7 - Point Cloud Data file format
VERSION 0.7
FIELDS x y z
SIZE 4 4 4
TYPE F F F
COUNT 1 1 1
WIDTH 1309
HEIGHT 1
VIEWPOINT 0 0 0 1 0 0 0
POINTS 1309
DATA ascii
-0.033454183 0.21013254 -0.012878194
-0.034033652 0.21021247 -0.012803495
-0.034642424 0.2103162 -0.012651153
-0.03527873 0.21044335 -0.012425721
-0.0017281752 0.20378426 -0.027342908
-0.0022476492 0.20382228 -0.027397566
-0.002722661 0.20382209 -0.027580522
-0.0031835921 0.20380907 -0.027804367
-0.00366286 0.20381249 -0.027974881
-0.0041709635 0.20384099 -0.028062448
-0.0046909768 0.20387936 -0.028115816
-0.0052343579 0.20393731 -0.028101608
-0.0058112275 0.20402525 -0.027990885
-0.0064222803 0.20414175 -0.027781487
-0.0069962405 0.20422623 -0.027679041
-0.0075854845 0.20432454 -0.027532503
-0.030271988 0.21106935 -0.011094444
-0.030584704 0.21093345 -0.011726424
-0.030932177 0.21082552 -0.012266316
-0.031314321 0.2107465 -0.012714215
-0.031758845 0.21071677 -0.012997024
-0.032265812 0.21073857 -0.013114251
-0.032802925 0.21078472 -0.013151743
-0.033358064 0.21084589 -0.013141364
-0.033952102 0.21093817 -0.013028137
-0.034552973 0.21103579 -0.01289656
-0.0010234322 0.20436107 -0.027813561
-0.0015397426 0.20439643 -0.027877435
-0.0020223223 0.20440257 -0.028038733
-0.0024818517 0.20438941 -0.028266527
-0.0029770527 0.20440611 -0.028391279
-0.0034944359 0.20444345 -0.028451674
-0.0040258197 0.20449135 -0.028472282
-0.0045758439 0.20455588 -0.028438859
-0.0051449724 0.20463634 -0.02835045
-0.0057309987 0.20473188 -0.028213307
-0.0063183112 0.20482863 -0.028072231
-0.029445905 0.21157898 -0.011830933
-0.029920885 0.21157499 -0.012032859
-0.030272417 0.21147011 -0.012562193
-0.030642984 0.21138111 -0.013040751
-0.031081362 0.21134768 -0.013339743
-0.031584941 0.21136679 -0.013466246
-0.032121744 0.21141271 -0.013504557
-0.032686256 0.21148118 -0.013469167
-0.033270702 0.21156609 -0.013381146
-0.033873014 0.21166582 -0.013245918
-0.034461677 0.21175392 -0.013146937
-0.00091055036 0.2050384 -0.0281303
-0.0013672328 0.20502183 -0.028366327
-0.0018328037 0.20501381 -0.028576501
-0.0023110574 0.20501631 -0.028750166
-0.002831907 0.20505646 -0.028801098
-0.0033718003 0.20511256 -0.028796822
-0.0039237542 0.20517866 -0.02875796
-0.004489637 0.20525643 -0.028678693
-0.0051077139 0.20537986 -0.028449096
-0.0056679212 0.20545389 -0.028386377
-0.028982276 0.21199228 -0.013067447
-0.029480025 0.21200688 -0.013209261
-0.029932445 0.21198437 -0.013470948
-0.030401196 0.2119755 -0.013689615
-0.030903401 0.2119936 -0.01381962
-0.031442128 0.21204093 -0.013852872
-0.032005005 0.21210918 -0.013821907
-0.032586835 0.212192 -0.013741001
-0.033182625 0.2122867 -0.013623051
-0.033795383 0.21239451 -0.013460144
-0.0003450308 0.20573346 -0.02819974
-0.00078383833 0.20570309 -0.028487049
-0.0012232615 0.20567214 -0.028772809
-0.0016931603 0.20566769 -0.028970592
-0.0021902015 0.20568691 -0.029090129
-0.0027218098 0.2057361 -0.029109739
-0.0032827333 0.20581079 -0.029044814
-0.0038471473 0.20588735 -0.028969787
-0.0044120029 0.20596522 -0.028893873
-0.028257789 0.21258265 -0.013534792
-0.02874006 0.21258432 -0.013717279
-0.029208351 0.21257508 -0.01393716
-0.029691223 0.21257709 -0.014118448
-0.03020601 0.21260604 -0.014214881
-0.03075308 0.21266085 -0.014226213
-0.031316649 0.21272959 -0.014193423
-0.031905446 0.21281883 -0.014094241
-0.032503847 0.21291555 -0.013969302
-0.033111386 0.21301937 -0.013820097
-0.00022953283 0.20640755 -0.028523974
-0.00068186224 0.20638838 -0.02877257
-0.0011257809 0.20636231 -0.029045053
-0.001599934 0.20636143 -0.029230513
-0.0021072617 0.20638925 -0.029320367
-0.0026433486 0.20644324 -0.029326975
-0.0032140883 0.20652601 -0.029233962
-0.028135026 0.21327132 -0.013868198
-0.028573096 0.2132377 -0.014167868
-0.029024899 0.21321464 -0.014431439
-0.029521026 0.21322905 -0.014577538
-0.030061355 0.21327876 -0.014606334
-0.030635428 0.21335556 -0.014546074
-0.031214328 0.21343714 -0.014473028
-0.031820174 0.21353962 -0.01432839
-0.03242838 0.21364497 -0.014177561
-0.00062088668 0.20711008 -0.028939441
-0.0010710601 0.20708914 -0.029194087
-0.0015470637 0.20708975 -0.029374428
-0.0020631282 0.20712599 -0.029438816
-0.028055515 0.21399659 -0.014086954
-0.028465981 0.21393953 -0.014459789
-0.028910181 0.21391058 -0.014743596
-0.029410075 0.21392792 -0.014879547
-0.029958591 0.21398495 -0.01488696
-0.03055184 0.21407762 -0.014775932
-0.031143785 0.21416932 -0.014668189
-0.031744242 0.21426864 -0.014537998
-0.027968116 0.21473987 -0.014325656
-0.028397048 0.21469913 -0.014649704
-0.028838256 0.21466786 -0.014941372
-0.029343288 0.21468924 -0.015063681
-0.02990048 0.21475293 -0.015048184
-0.030497642 0.21484976 -0.014926508
-0.03109318 0.21494526 -0.01480934
-0.0279206 0.21551608 -0.014458783
-0.028353749 0.21547861 -0.014771745
-0.028786909 0.21544117 -0.015084445
-0.029297616 0.21546686 -0.015191972
-0.029836927 0.21551676 -0.015223719
-0.028308678 0.21625775 -0.014898337
-0.028733708 0.21621294 -0.015232757
0.0586433 0.068186365 0.025877256
0.05833048 0.068097234 0.025481109
0.058097031 0.067988805 0.024996296
0.063916117 0.065753371 0.014778797
0.063948363 0.065580606 0.013997667
0.063882932 0.065431416 0.013325423
0.063710868 0.065308079 0.01277224
0.063458622 0.065204322 0.012308445
0.063222796 0.065096378 0.011826351
0.062952742 0.064996846 0.011382401
0.06264621 0.06490615 0.010979194
0.062352847 0.064812303 0.010561187
0.062078591 0.064713746 0.010122024
0.061766956 0.064624242 0.0097245015
0.061520021 0.064519085 0.0092547908
0.061201539 0.064431354 0.0088648424
0.060876232 0.064345151 0.0084825791
0.060551431 0.064258859 0.0080996826
0.060215693 0.064175248 0.0077290274
0.059833985 0.064102754 0.0074096881
0.059444416 0.064032152 0.0070990957
0.059059713 0.063960448 0.0067830309
0.058687363 0.063885644 0.0064532869
0.058336873 0.063805535 0.0060990825
0.057948474 0.063734747 0.0057872087
0.057529118 0.06367138 0.0055098236
0.061518881 0.070322588 0.032252111
0.061316181 0.070206694 0.031732999
0.061252762 0.070057094 0.031058654
0.061449226 0.069844186 0.030094355
0.061261658 0.069724619 0.029558346
0.061058525 0.069608875 0.0290398
0.060880233 0.06948708 0.028493568
0.060679045 0.069370821 0.027972817
0.060458098 0.069259427 0.027474061
0.060256351 0.06914328 0.026954006
0.059951458 0.069052234 0.026548818
0.05963451 0.068964124 0.026157197
0.059351299 0.068867922 0.025727969
0.059049424 0.068776079 0.025319569
0.058723275 0.068690188 0.024938144
0.058340576 0.068618171 0.024619944
0.057813238 0.068581119 0.024462976
0.064942986 0.06651856 0.015019692
0.064903826 0.066362962 0.014318243
0.064759284 0.066232949 0.013734296
0.064562812 0.06611564 0.013208274
0.064331457 0.066006646 0.012721188
0.064098492 0.065898128 0.012235831
0.063859254 0.06579119 0.011757579
0.063618362 0.065684557 0.011281032
0.063372999 0.065579087 0.010809604
0.063106269 0.065478817 0.010361925
0.062830865 0.065380573 0.0099239424
0.062484775 0.065299556 0.0095648803
0.062186774 0.065206878 0.0091521554
0.061910789 0.065108761 0.0087148175
0.061582264 0.065023467 0.0083361231
0.061254244 0.064938098 0.0079568475
0.060922373 0.064853549 0.0075818673
0.060565989 0.064775065 0.0072342083
0.060200673 0.064698696 0.0068965182
0.059830498 0.064623579 0.006564226
0.059451934 0.064550392 0.0062414333
0.059047926 0.064483397 0.0059469044
0.058665406 0.064411268 0.0056284145
0.058262695 0.064343989 0.0053324401
0.057886075 0.064270392 0.0050073937
0.057489175 0.064201713 0.0047049671
0.057056438 0.064141758 0.0044424906
0.056627836 0.06408076 0.0041754171
0.056290176 0.063997671 0.0038068667
0.055892531 0.063929215 0.0035052821
0.055405308 0.063882403 0.00330358
0.054978982 0.063820869 0.0030340329
0.05452757 0.063765444 0.0027922615
0.054094128 0.063705668 0.002530627
0.053671252 0.063643306 0.0022571012
0.05323901 0.063583173 0.0019941404
0.052762449 0.063533902 0.001780577
0.052159291 0.063515313 0.0017082691
0.051643468 0.063475497 0.0015384257
0.051134318 0.063434079 0.0013612211
0.06231996 0.071311444 0.033489466
0.062387373 0.071129724 0.032669056
0.062324774 0.070979767 0.031993717
0.062177744 0.070850402 0.031412598
0.062135797 0.070695363 0.030714247
0.062213968 0.070511095 0.029881828
0.062088955 0.070376292 0.029276095
0.061914522 0.070253544 0.028725542
0.061672371 0.070147261 0.028250437
0.061443035 0.070037946 0.027761169
0.061206583 0.069930263 0.027279776
0.060981948 0.069819748 0.026785173
0.060759541 0.06970872 0.026288055
0.060430225 0.069623709 0.025910176
0.060101468 0.069538511 0.025531713
0.05975261 0.069458306 0.025175661
0.059399877 0.069378972 0.024823956
0.059050191 0.069298871 0.024468824
0.058598328 0.069243774 0.024227679
0.058023546 0.069218472 0.024123654
0.065601185 0.067207649 0.014926672
0.06548579 0.067070439 0.014310312
0.065392017 0.066928044 0.013669718
0.0652062 0.066808134 0.01313182
0.065009877 0.066690668 0.012605675
0.06480141 0.066576213 0.012093011
0.064582661 0.066464305 0.011591837
0.064360827 0.066353053 0.011094123
0.064097092 0.066252083 0.010643173
0.063819379 0.06615451 0.010207783
0.06355764 0.066053063 0.0097545572
0.063278839 0.065955698 0.0093203858
0.062980294 0.065863185 0.0089081787
0.062683105 0.065770298 0.0084944889
0.062352445 0.06568563 0.0081182122
0.062005918 0.065604851 0.0077595524
0.061673228 0.065520614 0.0073854588
0.061324682 0.065440297 0.0070290454
0.060972299 0.065360896 0.0066769347
0.060578827 0.065291479 0.0063706487
0.060179528 0.065223522 0.0060708411
0.05981094 0.065148018 0.0057368651
0.05942231 0.065077469 0.0054251701
0.059037257 0.06500598 0.0051094741
0.05864827 0.06493558 0.0047981814
0.058257822 0.06486544 0.0044885278
0.057833772 0.064803436 0.004216373
0.057400394 0.064743802 0.0039545447
0.056945045 0.064689495 0.0037173033
0.056522701 0.064627126 0.0034431368
0.056087192 0.064567916 0.0031837597
0.055623073 0.064515799 0.0029563457
0.055183735 0.06445758 0.0027011782
0.054740977 0.064400181 0.0024498776
0.054310054 0.064339913 0.0021853
0.053881891 0.06427896 0.0019176826
0.05344633 0.064219877 0.0016584173
0.052988663 0.064166009 0.0014237538
0.052507572 0.06411802 0.001215212
0.051985275 0.064079985 0.0010525286
0.051473286 0.064039439 0.0008784458
0.051023412 0.063983791 0.00063506514
0.050515778 0.063942224 0.0004561469
0.049964298 0.063911319 0.00032607466
0.049451347 0.063871011 0.00015301257
0.063055962 0.072142243 0.034057327
0.063193649 0.071943179 0.033158675
0.063219294 0.071771584 0.032384925
0.063126355 0.071628883 0.031743445
0.06304656 0.071482956 0.031087302
0.062995017 0.071330175 0.030399621
0.063025147 0.071157418 0.029620916
0.062947243 0.071010999 0.028962694
0.062819734 0.070876777 0.028359666
0.062599838 0.070765123 0.027859829
0.06236789 0.070656478 0.027373437
0.062126372 0.070550077 0.026897687
0.06187037 0.070447281 0.026437983
0.061549533 0.070360325 0.026050732
0.061216328 0.070276387 0.025677189
0.06089117 0.070190422 0.025294662
0.060554881 0.070107244 0.024924643
0.060173888 0.070034981 0.024604462
0.05976231 0.069970191 0.024318282
0.0593693 0.06990087 0.024011418
0.066091642 0.068092115 0.01576912
0.066071764 0.067931503 0.015046142
0.066031665 0.06777598 0.014345765
0.065916419 0.067638695 0.013729122
0.065822408 0.067496285 0.013088841
0.065646604 0.067373849 0.012539778
0.065484539 0.067248061 0.011975348
0.065268204 0.067135587 0.011471547
0.065066144 0.067019552 0.01095181
0.064837828 0.066910021 0.010461293
0.064575136 0.066808812 0.010009095
0.064278454 0.066715941 0.0095948875
0.063976884 0.066624284 0.0091860667
0.063659295 0.066536501 0.0087951422
0.063357607 0.066444784 0.0083864778
0.063044891 0.066355906 0.0079901256
0.062700301 0.066274717 0.0076293312
0.062356275 0.066193409 0.0072678402
0.061990466 0.066117421 0.006930653
0.06162012 0.06604258 0.0065985918
0.06124742 0.06596829 0.0062691271
0.060855236 0.065898776 0.0059613734
0.060464125 0.065828979 0.00565245
0.060080621 0.065757312 0.0053350031
0.059695203 0.065686092 0.0050197691
0.059305917 0.065615907 0.0047087595
0.058932018 0.065541878 0.0043806806
0.058533434 0.065473944 0.0040800273
0.058102492 0.065413922 0.0038155243
0.057646606 0.065359898 0.0035787746
0.057185058 0.065307334 0.0033484772
0.056713436 0.065257274 0.0031292886
0.056222755 0.065211743 0.0029313564
0.055741739 0.065164059 0.0027227327
0.055307649 0.065104708 0.0024617836
0.054895155 0.065040171 0.002176635
0.054475091 0.064977482 0.0018999875
0.054067221 0.064911738 0.0016097575
0.053646609 0.064849146 0.001333721
0.053207431 0.064791113 0.0010784343
0.052739449 0.064740114 0.00085520744
0.05224378 0.064695865 0.00066293031
0.051741298 0.064653344 0.00047814846
0.051249646 0.064608112 0.00028136373
0.050760262 0.064562306 8.2068145e-05
0.0502505 0.064521618 -9.4644725e-05
0.04970273 0.06449005 -0.00022874027
0.049196795 0.064448334 -0.00040964037
0.048696674 0.064405233 -0.00059710443
0.063720331 0.072990194 0.034705166
0.064081907 0.072735891 0.033556841
0.064031765 0.07258261 0.03286767
0.064096823 0.072401069 0.03205001
0.064010561 0.072256669 0.031401075
0.063812494 0.072139658 0.030876879
0.06379889 0.071977496 0.030146852
0.063869193 0.071794607 0.029323377
0.063711092 0.071667865 0.028754584
0.063643485 0.071518898 0.028084837
0.063522696 0.071382895 0.027474493
0.063282683 0.071276225 0.026996959
0.063005 0.071178764 0.026561569
0.062728956 0.071080945 0.026124243
0.062439401 0.070986405 0.025702041
0.0621504 0.070891723 0.025279123
0.061812337 0.070809126 0.024911128
0.061468828 0.070727855 0.024549156
0.061118331 0.07064826 0.024194852
0.062357154 0.070178717 0.022068184
0.061894719 0.070126675 0.021838807
0.066406652 0.068853989 0.016062014
0.066428319 0.068683058 0.01529276
0.066500038 0.068499967 0.014467716
0.066451505 0.068346262 0.01377666
0.066322207 0.068212435 0.013175756
0.066233367 0.068068616 0.012529735
0.066077873 0.067941174 0.01195801
0.06588392 0.067823231 0.011429224
0.065653935 0.06771411 0.010940526
0.065404639 0.067609712 0.010473404
0.065152183 0.067506015 0.010009874
0.064854503 0.067413494 0.0095967054
0.064542741 0.06732446 0.0091992915
0.064224064 0.067237079 0.0088095143
0.063896149 0.067151979 0.0084301233
0.06357193 0.067065865 0.0080465637
0.063221917 0.066986188 0.0076917559
0.062862679 0.066908769 0.0073472373
0.062505111 0.066830948 0.0070009194
0.062125195 0.066758558 0.0066795014
0.061747123 0.066685781 0.0063559785
0.061369147 0.066612974 0.0060323477
0.060982626 0.06654226 0.0057183057
0.06059685 0.066471249 0.0054034069
0.060206827 0.066401444 0.0050932243
0.059808936 0.066333465 0.0047918558
0.059407774 0.066266313 0.0044941157
0.059025448 0.066194519 0.0041753575
0.058633137 0.066125274 0.0038677752
0.058209736 0.066063516 0.0035947859
0.057745237 0.066011921 0.003367722
0.057259236 0.065965578 0.0031645969
0.056759406 0.065922663 0.0029767826
0.056238618 0.065884918 0.0028125048
0.055763047 0.065835997 0.0025978386
0.055348214 0.065772206 0.0023152158
0.054949161 0.065704584 0.0020151511
0.054549951 0.065636888 0.0017151758
0.054164108 0.065566018 0.0014003441
0.053763941 0.06549859 0.0011015162
0.053341124 0.065436751 0.00082793832
0.052901108 0.065379195 0.00057350099
0.052412346 0.065333493 0.00037353486
0.051941246 0.065283574 0.00015377998
0.051484998 0.065229908 -8.2522631e-05
0.051017523 0.065179005 -0.00030639023
0.050530478 0.065132946 -0.00050833821
0.050029572 0.065090232 -0.000694938
0.049498007 0.065055147 -0.00084713101
0.048986442 0.065015115 -0.0010218099
0.04849029 0.064971253 -0.0012135878
0.047952641 0.064937584 -0.0013591051
0.047434576 0.064899117 -0.0015264899
0.064699903 0.07376007 0.035001568
0.064753249 0.073581159 0.034197111
0.06494686 0.073367774 0.033236019
0.064928666 0.073206462 0.032511272
0.064816087 0.073068477 0.031891681
0.064773515 0.072913244 0.031194009
0.064629585 0.072782904 0.030609388
0.064635426 0.072615713 0.02985787
0.064761624 0.072418921 0.028971978
0.064642757 0.072282434 0.02835951
0.064494714 0.072153091 0.027779423
0.064367965 0.072018608 0.027175643
0.064155936 0.071905114 0.026666969
0.063906476 0.071800798 0.026200138
0.063637584 0.071701229 0.025754876
0.063349515 0.071606413 0.025330886
0.063038841 0.071517132 0.024932265
0.062719837 0.071430013 0.02454289
0.062423352 0.071337268 0.02412843
0.063528121 0.070899479 0.022151366
0.063236669 0.07080546 0.021731324
0.062826037 0.070740849 0.02144409
0.062286574 0.070707954 0.021300532
0.066798151 0.069431186 0.015524663
0.06690529 0.069239028 0.014660027
0.06690833 0.069072552 0.013911534
0.066799149 0.068933725 0.013288174
0.066721633 0.068787053 0.012629502
0.06658946 0.068653911 0.012031801
0.066397935 0.068535239 0.011500258
0.066151336 0.068430245 0.011030145
0.065896496 0.068327233 0.010569245
0.065613016 0.068231285 0.010140244
0.065316558 0.068138637 0.0097256675
0.06498757 0.068053812 0.0093474686
0.064653561 0.067970365 0.0089748055
0.064321488 0.067886412 0.0086000115
0.063986793 0.067803048 0.0082281828
0.063638926 0.067722969 0.0078709573
0.063278928 0.067645833 0.0075273104
0.062909424 0.067571163 0.0071942583
0.062537462 0.067497037 0.0068638884
0.062150497 0.067426562 0.0065502971
0.061771903 0.067353994 0.0062274374
0.061404657 0.067278758 0.0058918148
0.061018687 0.067208037 0.0055771023
0.060623858 0.067139521 0.0052722991
0.060229119 0.067070961 0.0049673542
0.059832249 0.067002907 0.0046648011
0.059418064 0.06693922 0.00438153
0.05902255 0.066870883 0.0040775388
0.058626737 0.066802613 0.0037737861
0.058200326 0.066741824 0.0035042018
0.057711836 0.066696405 0.0033038184
0.05719367 0.066658273 0.0031365305
0.056662705 0.0666233 0.0029834509
0.056165967 0.066579863 0.0027923435
0.055733908 0.066520423 0.0025289506
0.055332493 0.066453591 0.0022315308
0.05494044 0.06638442 0.0019235238
0.054573294 0.066309094 0.0015878603
0.054212652 0.06623207 0.0012449101
0.053824116 0.066162035 0.00093313307
0.053420823 0.066095598 0.00063780695
0.052985907 0.06603694 0.00037766248
0.052508481 0.065988772 0.00016492605
0.052067026 0.065931782 -8.79094e-05
0.05164123 0.065870836 -0.00035823137
0.051208157 0.06581182 -0.00062037259
0.050755009 0.065757595 -0.00086016953
0.050267015 0.065712087 -0.0010611266
0.049763583 0.065670319 -0.0012449622
0.049276214 0.065624602 -0.0014464408
0.048776373 0.065581933 -0.0016342029
0.048233312 0.065549865 -0.0017738044
0.047706399 0.065513909 -0.0019312948
0.047202997 0.065472163 -0.0021150336
0.046649422 0.065442652 -0.0022428334
0.065637156 0.07453949 0.035345316
0.06543754 0.074422874 0.034822874
0.065657526 0.074202619 0.033832412
0.065935999 0.073967844 0.032776788
0.065912619 0.073807672 0.032057896
0.06581971 0.073664755 0.031416334
0.065835059 0.073495083 0.030654132
0.065678984 0.07336767 0.030083112
0.06557849 0.073226601 0.029450074
0.065612778 0.073052242 0.02866666
0.065510422 0.072911575 0.02803582
0.065278739 0.072803013 0.027549081
0.065082788 0.07268548 0.027022474
0.064859167 0.072574809 0.026526704
0.064599961 0.072472915 0.026070666
0.064321116 0.072375976 0.025636442
0.06405811 0.072275013 0.025184698
0.063824654 0.072166793 0.02469983
0.063529253 0.072073922 0.024284132
0.064512163 0.071665078 0.022443172
0.064337954 0.071542233 0.021892335
0.064053714 0.071446493 0.021464135
0.063698694 0.071368396 0.02111489
0.06327647 0.07130684 0.0208406
0.06713362 0.070187598 0.015794776
0.067275107 0.069986716 0.014891896
0.067284569 0.069818459 0.014136288
0.067245573 0.069662198 0.013434701
0.06714496 0.069521062 0.012801789
0.067041129 0.06938082 0.01217249
0.066866457 0.069258049 0.011622149
0.066606566 0.069156423 0.011166841
0.066322565 0.069060698 0.010738432
0.066015929 0.068970546 0.010335244
0.065685347 0.068886325 0.0099587366
0.065358743 0.06880112 0.0095778927
0.065020978 0.068718687 0.0092094243
0.064668983 0.06863977 0.0088568181
0.064309508 0.068562746 0.008512523
0.063967958 0.068481222 0.0081482232
0.063617975 0.068401746 0.0077934228
0.063248888 0.068327114 0.0074598789
0.062884822 0.068251118 0.0071207769
0.062511012 0.06817767 0.0067924894
0.062120687 0.068108156 0.0064826049
0.06174897 0.068034127 0.0061520338
0.061371576 0.067961484 0.0058277585
0.060983803 0.067891449 0.005515039
0.060589988 0.067822844 0.0052090213
0.060187016 0.067756474 0.0049132705
0.059778426 0.067691609 0.0046238303
0.059362348 0.067628518 0.0043426007
0.058955032 0.06756328 0.00405173
0.058532473 0.067501739 0.0037778243
0.058054622 0.067453921 0.0035655424
0.057513956 0.067421697 0.0034232736
0.056959171 0.067392841 0.0032967553
0.056487795 0.067343429 0.0030773357
0.056062657 0.067282662 0.0028062239
0.055659939 0.067216188 0.0025102571
0.055267181 0.067147404 0.0022031218
0.05488234 0.067076534 0.0018870384
0.054533601 0.066996813 0.001530841
0.054178629 0.066918686 0.001181528
0.053793866 0.066847786 0.00086543709
0.053397357 0.066779986 0.00056263059
0.052996971 0.06671302 0.00026390702
0.052559756 0.066655137 6.2733889e-06
0.052117955 0.0665984 -0.00024608523
0.051702309 0.066535234 -0.00052779913
0.051285416 0.066472366 -0.00080803782
0.050857071 0.066412285 -0.0010754466
0.050400358 0.066359207 -0.0013112947
0.04994126 0.06630677 -0.001544565
0.049475823 0.066255912 -0.0017706975
0.048985541 0.066211179 -0.0019690469
0.048464332 0.066174105 -0.0021329969
0.047931489 0.06613984 -0.0022839308
0.047411852 0.066102341 -0.0024496391
0.046850342 0.066075243 -0.0025685132
0.046303667 0.06604436 -0.0027040318
0.045714431 0.066024065 -0.0027921647
0.045163423 0.065994397 -0.0029229
0.016006608 0.062523894 -0.018522047
0.066551909 0.075157434 0.034969039
0.06693837 0.074895538 0.033793151
0.066911057 0.07473623 0.033078626
0.066900551 0.074572682 0.032345101
0.066816598 0.074427426 0.031693675
0.066679105 0.074295476 0.031101897
0.066581577 0.074153587 0.030465581
0.06650652 0.074006081 0.029804174
0.06645143 0.073853627 0.029120501
0.066337913 0.073715746 0.028502069
0.066262096 0.073568441 0.027841553
0.066046715 0.073455773 0.027336612
0.065846175 0.07333947 0.026815198
0.065647811 0.073222563 0.026291288
0.065425217 0.073111728 0.025794413
0.065167144 0.073009588 0.025337029
0.064920157 0.072904751 0.024867363
0.065006837 0.07271722 0.024025556
0.06515716 0.072513834 0.023113005
0.065175802 0.072343141 0.022347111
0.065047413 0.072208866 0.021745194
0.064812139 0.072101131 0.021262422
0.064507321 0.072010696 0.0208572
0.064138547 0.071936034 0.020523276
0.067394033 0.070962384 0.01614859
0.067559108 0.070755392 0.015219495
0.067623481 0.070573308 0.014402688
0.067611039 0.070410311 0.013671432
0.067538649 0.070262238 0.013007101
0.067414284 0.070126966 0.012400683
0.067232713 0.070005871 0.011858068
0.066983297 0.06990163 0.011391073
0.066696569 0.06980671 0.01096566
0.066374481 0.069720566 0.010579739
0.066030458 0.069639757 0.010218259
0.06567657 0.069561459 0.0098677576
0.065328762 0.069481671 0.0095104352
0.064977914 0.06940262 0.0091565363
0.064620674 0.069325067 0.0088097826
0.064249545 0.06925109 0.0084784925
0.063885793 0.069175176 0.0081390291
0.06352964 0.069097519 0.0077910013
0.063162446 0.069022477 0.007455349
0.062804028 0.068945274 0.0071099401
0.062435988 0.068870455 0.0067751743
0.06205323 0.068799309 0.0064568333
0.061684448 0.068724692 0.0061229579
0.061299596 0.068654127 0.0058069713
0.060902137 0.068586618 0.0055050999
0.060492616 0.068522096 0.0052165687
0.060082454 0.068457678 0.0049287975
0.059678856 0.068391755 0.0046337396
0.059274662 0.068325967 0.0043392926
0.058824416 0.068271533 0.0040961951
0.058301266 0.068235166 0.0039344504
0.057738166 0.068208843 0.0038171783
0.05721065 0.068173602 0.0036602691
0.056734305 0.06812565 0.0034463555
0.056325313 0.068061039 0.0031572431
0.055940215 0.067990378 0.0028415322
0.055560101 0.067918576 0.002520293
0.055179588 0.067846894 0.0021993741
0.054807659 0.067773074 0.0018690974
0.054445028 0.067696884 0.0015283003
0.054077636 0.067622028 0.0011928156
0.053709399 0.067547277 0.00085826218
0.053319182 0.067477971 0.00054834783
0.052941598 0.067405522 0.00022426993
0.052529212 0.067341775 -6.0983002e-05
0.052108862 0.06727989 -0.00033739209
0.051712714 0.067212045 -0.00064083934
0.051310211 0.06714581 -0.00093713403
0.050894339 0.067082867 -0.0012184978
0.05046105 0.06702432 -0.001480557
0.050038729 0.066963017 -0.0017546341
0.049617413 0.066901363 -0.0020300746
0.049149435 0.066851407 -0.0022533312
0.048649222 0.066809371 -0.0024406686
0.048131697 0.066771686 -0.0026087463
0.047600277 0.066737406 -0.0027613714
0.047068875 0.066703126 -0.0029139146
0.046515163 0.066674381 -0.0030416176
0.04599328 0.066637725 -0.0032048672
0.045449022 0.066606656 -0.0033430681
0.044887308 0.066579893 -0.0034619197
0.044311445 0.066556633 -0.0035648495
0.022125147 0.063391924 -0.01778695
0.021664632 0.063338093 -0.01803223
0.018293748 0.063325942 -0.018121548
0.017833611 0.063272059 -0.018367268
0.017466566 0.063195601 -0.018712081
0.016983146 0.063147351 -0.018932968
0.016468152 0.063106589 -0.019120269
0.015961709 0.063063771 -0.019316584
0.015416702 0.063030243 -0.019471988
0.014910428 0.062987454 -0.019668505
0.067647666 0.075895503 0.035136234
0.068031281 0.075633757 0.033963598
0.068000302 0.075475164 0.033252966
0.067867771 0.075341888 0.032655783
0.0678114 0.075189725 0.031973597
0.067847282 0.075014435 0.03118841
0.067670211 0.074892275 0.030640844
0.067559719 0.074753545 0.030019008
0.067457438 0.074612729 0.029387984
0.067415789 0.074456833 0.028689258
0.067251772 0.074331418 0.028127193
0.067109659 0.074200571 0.027540512
0.067003474 0.074060746 0.026913904
0.066785231 0.073948801 0.026412014
0.066582203 0.073833063 0.025893427
0.066452742 0.073698997 0.025292717
0.066441879 0.07353542 0.024559747
0.066373825 0.073386118 0.023890577
0.066305563 0.073236883 0.023221582
0.066161647 0.073106445 0.022637092
0.065951556 0.072992459 0.022126094
0.065808579 0.072861783 0.021540552
0.065586597 0.072750792 0.021042954
0.065324336 0.072649837 0.020590253
0.065030828 0.072556674 0.020172447
0.064649224 0.072485439 0.019852839
0.067828253 0.071527697 0.015563697
0.067890897 0.071345836 0.014748737
0.067917794 0.071172863 0.013973713
0.067870066 0.071018577 0.013281856
0.067748755 0.070882455 0.012672104
0.067550138 0.070765629 0.012148425
0.067310721 0.070658959 0.011670355
0.067025959 0.070563622 0.011242721
0.066704839 0.070477284 0.010855712
0.066345438 0.070400536 0.010511305
0.065992936 0.070321999 0.010159243
0.065624997 0.070247337 0.0098243654
0.065250918 0.07017418 0.0094963498
0.064890757 0.070097618 0.0091528408
0.064528227 0.070021555 0.0088120028
0.064169586 0.069944628 0.0084667914
0.063796133 0.069871314 0.0081380121
0.063443318 0.069792911 0.0077863634
0.063079089 0.069717273 0.0074473321
0.06273289 0.069637194 0.00708827
0.062368233 0.069561727 0.0067497678
0.061987828 0.069490224 0.0064287893
0.061611157 0.069417723 0.0061037056
0.061220441 0.069348685 0.0057942271
0.060827959 0.069280207 0.0054867268
0.060402971 0.069219649 0.0052154735
0.059969697 0.069161311 0.0049534291
0.059529003 0.069104731 0.0046997145
0.059069712 0.069052808 0.0044666901
0.058527786 0.069021471 0.0043258369
0.057953868 0.068998069 0.0042206198
0.057457853 0.068955362 0.0040285215
0.057014424 0.068899415 0.0037778467
0.056606885 0.068834633 0.0034870803
0.056216959 0.068765417 0.0031768084
0.055857819 0.068688557 0.0028320849
0.055519979 0.068606466 0.0024636984
0.055148941 0.068532556 0.0021322593
0.054758608 0.068463475 0.0018224344
0.054358222 0.068396837 0.0015237257
0.053982619 0.068324126 0.0011973605
0.053630423 0.068245523 0.00084508955
0.053261984 0.068171009 0.00051066279
0.052899376 0.068094984 0.00016993284
0.052507367 0.068026319 -0.00013806671
0.052096982 0.067962244 -0.00042560697
0.051705945 0.067893304 -0.00073477626
0.051304463 0.067826986 -0.0010321885
0.050904535 0.067760274 -0.0013313591
0.05050534 0.067693397 -0.001631327
0.050097559 0.067628749 -0.0019217357
0.049674124 0.067567796 -0.0021948367
0.049233053 0.067511365 -0.0024481639
0.048760168 0.067462839 -0.0026659593
0.048276681 0.067416959 -0.0028720349
0.047760885 0.067379117 -0.0030420795
0.047255948 0.067338571 -0.0032241568
0.04675046 0.067298122 -0.0034056082
0.046245333 0.06725762 -0.0035875067
0.045744892 0.067215934 -0.0037747249
0.045224063 0.067179345 -0.0039390251
0.044644311 0.067157418 -0.0040378049
0.044031352 0.067143723 -0.0040995106
0.043489102 0.067112491 -0.0042400509
0.042948637 0.067080796 -0.0043826103
0.023138117 0.064334132 -0.016765147
0.022879723 0.064231664 -0.017225586
0.022689501 0.064112723 -0.017758489
0.022438355 0.064008556 -0.018226601
0.022097882 0.063925795 -0.018599674
0.02173307 0.063849047 -0.018946834
0.021314673 0.06378518 -0.019236848
0.020787053 0.063747548 -0.019410849
0.019782674 0.063824952 -0.019077383
0.01897615 0.063854575 -0.018954493
0.018407175 0.063827001 -0.019084357
0.017960344 0.063770026 -0.019344278
0.017480893 0.063720815 -0.019569539
0.01698162 0.063676387 -0.019773521
0.016502202 0.063627198 -0.019998692
0.016046904 0.063572198 -0.020249575
0.015548717 0.063527577 -0.020454787
0.015015166 0.063491389 -0.02062241
0.068774387 0.076791018 0.036014102
0.068852752 0.076604992 0.035181686
0.068717107 0.076472417 0.034587741
0.068765819 0.076293886 0.033788458
0.068789169 0.076121539 0.03301746
0.06879966 0.075952515 0.032260753
0.068715483 0.075807132 0.031609546
0.068763688 0.075628661 0.030810751
0.068623543 0.075497195 0.03022198
0.068455383 0.075372785 0.029664323
0.068361729 0.075229734 0.029023711
0.06824708 0.075091973 0.028406542
0.068113044 0.074958995 0.027810924
0.067913651 0.074842468 0.027288154
0.067792043 0.074706391 0.026678763
0.067630425 0.074580319 0.026113804
0.067448527 0.074459337 0.025571514
0.067328125 0.074323006 0.024960652
0.06724152 0.074178219 0.024312243
0.067142889 0.07403636 0.023677196
0.066973552 0.073912293 0.023120847
0.066839665 0.073779255 0.022525083
0.06665054 0.073660135 0.021990951
0.066496909 0.07353209 0.021417148
0.066308543 0.073412746 0.020882051
0.06604293 0.073312648 0.020433113
0.065800592 0.073206767 0.019958217
0.06553562 0.073106542 0.019508623
0.067885607 0.072352931 0.016143896
0.068093508 0.07213451 0.015167102
0.06816785 0.071949497 0.014339224
0.068113059 0.071796834 0.01365523
0.06802161 0.071653165 0.013012141
0.067837134 0.071532875 0.012472764
0.067571387 0.071432814 0.01202397
0.067275345 0.071340397 0.011608962
0.066987276 0.071245916 0.011185035
0.066652402 0.071163103 0.010813333
0.066279426 0.071089938 0.010484111
0.065914452 0.071014665 0.010145884
0.065545753 0.070940316 0.0098119117
0.065169916 0.070867807 0.00948577
0.064797401 0.070794448 0.0091560259
0.064439446 0.070717469 0.0088100806
0.064087793 0.070638835 0.008457046
0.063715085 0.070565552 0.0081274882
0.063349158 0.070490561 0.0077903755
0.062980801 0.070416152 0.0074559599
0.062631339 0.07033699 0.007100489
0.062262986 0.070262581 0.0067660734
0.061881129 0.070191652 0.0064467676
0.061487 0.070123672 0.0061410628
0.061084975 0.07005766 0.0058441982
0.06068385 0.069991395 0.0055463463
0.060244564 0.0699348 0.005291
0.059764389 0.069888294 0.0050812587
0.05923989 0.069852903 0.0049208552
0.058711711 0.069818452 0.0047646612
0.058191638 0.069781929 0.0045993701
0.05770101 0.069738135 0.0044013113
0.057270911 0.069679081 0.0041356832
0.056872878 0.069612071 0.0038344115
0.056497451 0.069539525 0.0035078302
0.056139547 0.069462523 0.0031618103
0.055803087 0.06938009 0.0027917922
0.055467647 0.069297537 0.0024207905
0.055100802 0.069222763 0.002084665
0.054709904 0.069153965 0.0017753169
0.054290291 0.069092304 0.001498051
0.05391258 0.069020331 0.0011741295
0.053564329 0.068940893 0.00081725419
0.053206496 0.068863899 0.00047120452
0.052843451 0.068788096 0.00013089925
0.052464649 0.068716303 -0.00019191951
0.052073024 0.068647698 -0.00050039589
0.051672634 0.068581358 -0.00079906732
0.051267304 0.068516195 -0.0010922104
0.050875973 0.068447456 -0.0014010891
0.050495137 0.068376228 -0.0017215535
0.050086454 0.068311915 -0.0020109564
0.049676005 0.068248011 -0.0022985116
0.049252175 0.068187475 -0.0025710091
0.048804827 0.068132758 -0.0028173625
0.048355386 0.068078667 -0.003061451
0.047876608 0.068031862 -0.0032726079
0.047379225 0.067989737 -0.0034633353
0.046899553 0.067943141 -0.0036735833
0.046428792 0.067894325 -0.0038937926
0.045965206 0.067843705 -0.0041220561
0.045455724 0.067804553 -0.0042991042
0.044899721 0.067777038 -0.0044244155
0.044335026 0.067751743 -0.0045398101
0.043772388 0.0677258 -0.0046577528
0.043222923 0.067696661 -0.0047902688
0.042730607 0.067653306 -0.004986465
0.042213347 0.067616001 -0.0051549301
0.023420442 0.065122649 -0.016436614
0.023274025 0.064993188 -0.01701618
0.023154316 0.064857215 -0.017624021
0.023002645 0.06472908 -0.018197961
0.022759816 0.064622924 -0.01867491
0.022448037 0.064533323 -0.019078501
0.022085961 0.064455867 -0.019428663
0.021637257 0.064399421 -0.019686513
0.021139441 0.064354792 -0.019892171
0.020438811 0.064359106 -0.019882023
0.019714639 0.064369231 -0.019846894
0.019041624 0.064366862 -0.019866154
0.018443914 0.064346395 -0.019965664
0.017951574 0.064300478 -0.020177118
0.017487856 0.064247623 -0.020418949
0.017000876 0.064200342 -0.020636164
0.0164876 0.064159438 -0.020825349
0.015955139 0.064123154 -0.020994224
0.015406709 0.064090841 -0.021146059
0.069147065 0.077708125 0.036987428
0.069206551 0.077526644 0.036176011
0.069350854 0.077323772 0.035270154
0.069404364 0.077143736 0.034465473
0.069556415 0.076939091 0.033551063
0.069548562 0.076774403 0.032814786
0.069563419 0.076604106 0.03205321
0.069495723 0.076454476 0.031383641
0.069366857 0.076320209 0.030782331
0.069387391 0.076148391 0.030014388
0.069227204 0.076022021 0.029447988
0.069089592 0.075889885 0.028856281
0.068957269 0.075756513 0.028258838
0.068788379 0.07563217 0.027702074
0.068638355 0.07550317 0.027124144
0.068486989 0.075374529 0.026548006
0.068365112 0.075238533 0.025938816
0.068220913 0.075108066 0.025354549
0.068041161 0.074986503 0.024809882
0.067906901 0.074853644 0.024214536
0.067810044 0.074711248 0.023577325
0.067648202 0.074585214 0.023012854
0.067495421 0.07445699 0.022438135
0.067318648 0.074334681 0.021890156
0.067152098 0.074209869 0.021330718
0.066981927 0.074085914 0.020775411
0.066741243 0.073979616 0.020298675
0.066503197 0.073872745 0.019819066
0.066276655 0.073762931 0.019326542
0.068067282 0.073147327 0.016585529
0.068243876 0.072936401 0.015643716
0.068325385 0.072749406 0.014807794
0.068369135 0.072571829 0.014014058
0.068257704 0.072433114 0.013393201
0.06807211 0.07231313 0.012855038
0.067834675 0.072206035 0.012374759
0.067541286 0.072112992 0.011956736
0.067220494 0.072026849 0.011569284
0.066903785 0.071939647 0.011177294
0.066553965 0.071860731 0.010822251
0.066172943 0.071789645 0.010501895
0.065790102 0.07171908 0.010183673
0.065440953 0.07164 0.0098278038
0.065089345 0.07156156 0.009474799
0.064718232 0.071487978 0.0091433711
0.064358473 0.071411587 0.00879943
0.064008981 0.071332626 0.0084439591
0.063629389 0.071261227 0.0081220269
0.063265234 0.071185976 0.0077829733
0.062889904 0.071113385 0.0074563511
0.062522545 0.071038887 0.0071208179
0.06216779 0.070961341 0.0067712031
0.061783601 0.070891067 0.0064544901
0.061363969 0.070829615 0.006177187
0.060934532 0.070770726 0.0059108101
0.060491744 0.070715159 0.0056594089
0.060027402 0.070664927 0.0054319799
0.059564319 0.070614412 0.0052031577
0.059053008 0.070576042 0.0050280616
0.058543082 0.070537344 0.0048514679
0.058086935 0.070485055 0.0046149194
0.057644743 0.070429333 0.0043627322
0.057215508 0.070370384 0.0040962175
0.05681758 0.070303544 0.003794767
0.056449551 0.070229225 0.0034599677
0.056113441 0.070146866 0.0030895695
0.055769872 0.070066422 0.0027275309
0.055391129 0.069994792 0.00240466
0.055010699 0.069923609 0.0020836964
0.054630354 0.069852382 0.0017626211
0.054235023 0.069784857 0.0014582723
0.053860255 0.069712274 0.0011310205
0.05349515 0.069637194 0.00079312921
0.05313246 0.069561578 0.0004523471
0.052772079 0.069485292 0.00010900944
0.052389394 0.06941466 -0.00020940602
0.051989798 0.069348216 -0.00050909072
0.051584642 0.069283277 -0.00080244243
0.051190343 0.069215477 -0.0011078715
0.050800256 0.069146708 -0.001418069
0.050414924 0.069076717 -0.0017337203
0.050035905 0.069005124 -0.0020561814
0.049652658 0.068934582 -0.0023739785
0.049251579 0.06886863 -0.0026719421
0.048819769 0.068810239 -0.002935648
0.048366569 0.068757355 -0.0031754151
0.0479226 0.068701982 -0.0034256428
0.047455549 0.068652481 -0.0036499798
0.04699748 0.068600804 -0.0038844422
0.046542335 0.068548352 -0.0041220784
0.046092961 0.068494357 -0.0043661073
0.04560085 0.068451151 -0.0045627356
0.045075193 0.068416327 -0.0047217682
0.044536814 0.068384767 -0.0048666522
0.044016715 0.068348587 -0.005031839
0.043510284 0.068308987 -0.0052123889
0.042949796 0.06828288 -0.0053326935
0.042432599 0.068246007 -0.005501166
0.041917924 0.068208367 -0.0056725517
0.023818308 0.065883227 -0.016230889
0.023646412 0.065759979 -0.016783327
0.023555474 0.065617047 -0.017421797
0.023447845 0.065478183 -0.018042661
0.023277659 0.065354392 -0.01859691
0.023031583 0.065249026 -0.019070379
0.022704979 0.065163091 -0.019458152
0.022339314 0.06508664 -0.019804522
0.021931704 0.06502033 -0.020106144
0.021504425 0.064958781 -0.020386964
0.020966379 0.064924031 -0.020549819
0.020329984 0.064913049 -0.020608149
0.019646514 0.064913429 -0.020616353
0.01898866 0.064907715 -0.020651855
0.018449018 0.064873308 -0.020812996
0.017921623 0.064835981 -0.020987384
0.017385587 0.064800695 -0.02115237
0.016847862 0.064765841 -0.021315508
0.016270688 0.064740561 -0.02143696
0.015694339 0.064715035 -0.021559097
0.069581836 0.078442961 0.037146505
0.069581643 0.078276202 0.036401726
0.069813415 0.078051172 0.035398431
0.069978565 0.077842809 0.034469366
0.070049167 0.077658311 0.033645719
0.070082232 0.0774832 0.032863781
0.070167363 0.077294961 0.032023899
0.070168525 0.077127881 0.031277619
0.07009469 0.076979741 0.030614946
0.069991678 0.076838873 0.02998472
0.069872513 0.076702103 0.029372633
0.069689915 0.076581284 0.028831113
0.069569588 0.076444715 0.02822027
0.069415867 0.076316588 0.027646516
0.06930235 0.076178469 0.027028039
0.069155917 0.076048538 0.026446201
0.069023058 0.075915173 0.025849372
0.068849653 0.075792015 0.025297653
0.068711475 0.075660035 0.024706677
0.068553686 0.075532943 0.024137508
0.06845209 0.075391777 0.023505762
0.06830509 0.075261965 0.022924632
0.068126991 0.075139984 0.022378165
0.067965031 0.075013943 0.021813631
0.067812771 0.074885517 0.021238327
0.06763871 0.074762508 0.020687371
0.067419544 0.074650846 0.020186607
0.067187101 0.074542597 0.01970074
0.066996232 0.07442385 0.019168422
0.068163425 0.073963374 0.017122522
0.068387583 0.073740192 0.016127709
0.068492472 0.07354705 0.01526574
0.068525374 0.073371924 0.014484115
0.068504751 0.073210388 0.013762064
0.068353996 0.073081575 0.013185069
0.068103328 0.072977811 0.012719516
0.067803398 0.072886556 0.012308791
0.067480743 0.072800964 0.011923403
0.067156896 0.072715633 0.01153934
0.066810384 0.072636083 0.011180561
0.066454515 0.072558828 0.010832231
0.066072345 0.072488278 0.010513164
0.065690309 0.072417639 0.010194063
0.065346882 0.072337314 0.0098318048
0.065016046 0.072253689 0.0094555728
0.064654708 0.072177857 0.0091133006
0.064280093 0.072105415 0.0087858438
0.06391716 0.072029889 0.008445356
0.063522771 0.071962416 0.0081399418
0.063160345 0.0718868 0.0077988692
0.062795147 0.071811929 0.0074609332
0.06241734 0.071740285 0.007137049
0.062042538 0.07166779 0.006809786
0.06165849 0.071597666 0.0064928383
0.061246548 0.071534544 0.0062069967
0.06082825 0.071473032 0.0059282072
0.060399864 0.071414068 0.0056607276
0.059957076 0.071358651 0.0054092184
0.059511874 0.071303897 0.0051604584
0.059039984 0.071255893 0.0049414411
0.058571164 0.071207128 0.004719004
0.058128629 0.071151651 0.004467234
0.057679001 0.071098 0.0042233169
0.05724347 0.071040846 0.0039638206
0.056833353 0.070977345 0.003675878
0.056440871 0.070909284 0.0033683479
0.056071546 0.070835434 0.0030349791
0.055696245 0.070763126 0.0027083009
0.055300511 0.070695981 0.0024044439
0.054901991 0.070629448 0.0021035299
0.054543491 0.070552863 0.0017581657
0.054177735 0.070478112 0.0014208928
0.053797405 0.070407093 0.0010997504
0.053429216 0.0703329 0.00076506287
0.053063866 0.070258096 0.0004273206
0.052687202 0.070186123 0.00010225922
0.052300572 0.070116639 -0.00021185726
0.051901914 0.070050187 -0.00051252544
0.051513903 0.069980994 -0.000825122
0.051116586 0.069914252 -0.0011271983
0.050718579 0.069847599 -0.001428701
0.050329857 0.069778651 -0.0017403364
0.049967039 0.069703162 -0.0020809993
0.049598511 0.069629177 -0.0024151802
0.049212717 0.06955947 -0.0027301833
0.048803996 0.069495544 -0.0030196682
0.048368201 0.069438338 -0.0032789484
0.047932222 0.069381341 -0.0035378858
0.047472492 0.06933026 -0.0037705824
0.047050465 0.069269598 -0.0040452406
0.046616387 0.069212139 -0.0043062791
0.046175878 0.06915617 -0.0045604557
0.045700531 0.069109067 -0.0047755912
0.045195967 0.069069266 -0.0049581751
0.044681754 0.069031894 -0.0051300004
0.044184342 0.068990216 -0.0053204894
0.043707222 0.068943538 -0.0055337921
0.04318998 0.068906859 -0.0057023987
0.042678833 0.068868771 -0.0058775619
0.042197097 0.068823203 -0.0060856417
0.041687209 0.068784721 -0.0062622577
0.041072652 0.068772599 -0.0063223466
0.024491813 0.066741943 -0.01558312
0.024242848 0.066637278 -0.016053632
0.02409156 0.066509008 -0.016627878
0.023988832 0.06636893 -0.017253838
0.023887413 0.06622842 -0.017881237
0.023730846 0.066101454 -0.018449925
0.023521433 0.06598714 -0.01896248
0.023266749 0.065883853 -0.019426785
0.022927893 0.065801024 -0.019801594
0.022568336 0.065723196 -0.020154439
0.022159155 0.06565731 -0.020454496
0.021739934 0.065593883 -0.020743795
0.021297546 0.065536089 -0.021008603
0.020771904 0.065498441 -0.02118472
0.020192698 0.06547378 -0.021303937
0.019567722 0.065460294 -0.02137439
0.018923543 0.065451294 -0.021424539
0.018328825 0.065430492 -0.021527201
0.017740017 0.06540814 -0.021636091
0.017153541 0.065385193 -0.021747626
0.016573433 0.065360852 -0.021865837
0.070095867 0.079157516 0.037217386
0.070114821 0.078985736 0.036451407
0.070361122 0.078756601 0.035431735
0.070611373 0.078526475 0.034407943
0.070738062 0.078327492 0.03352179
0.070884913 0.078123465 0.032613043
0.070894524 0.077954151 0.031857368
0.070846066 0.077799425 0.031166408
0.070763007 0.077653423 0.030514061
0.07066372 0.077511564 0.029879671
0.070532054 0.077377826 0.029281415
0.070407972 0.077242248 0.028674737
0.070224568 0.077121645 0.028134119
0.070111588 0.076983213 0.027515057
0.069977567 0.076850072 0.026919477
0.069829628 0.076720521 0.026339401
0.069653124 0.076598145 0.025791142
0.069479555 0.076475054 0.025239587
0.069333002 0.076345071 0.024657905
0.06921351 0.076208271 0.024046063
0.069062486 0.076079488 0.023469411
0.068923682 0.075947613 0.022879176
0.068777844 0.075817436 0.02229663
0.068612143 0.075692326 0.021736383
0.068433926 0.075570397 0.021190051
0.068286464 0.07544075 0.020609379
0.068079695 0.075325966 0.02009486
0.067854881 0.075215839 0.019600414
0.067619428 0.07510829 0.019117896
0.067474097 0.074978068 0.018534839
0.068472236 0.074559048 0.016677503
0.068600029 0.074359842 0.015790045
0.068685919 0.074171215 0.01494934
0.068682581 0.074005112 0.014208056
0.068571627 0.073866136 0.013586722
0.068365172 0.07375136 0.013071869
0.068089858 0.073653862 0.0126337
0.06776163 0.073569879 0.012254491
0.067411721 0.073491305 0.011899494
0.067058757 0.073413461 0.011547901
0.066696331 0.073338039 0.011206806
0.066321954 0.073265597 0.010879111
0.065962151 0.073189519 0.010535125
0.065599188 0.073114321 0.010194711
0.065263748 0.073032022 0.0098235421
0.064930066 0.072949372 0.0094504915
0.064571828 0.072872885 0.009104684
0.064184308 0.072803773 0.0087916516
0.063805506 0.072732463 0.0084688328
0.063403711 0.07266707 0.0081716143
0.063029692 0.072594494 0.007843513
0.062660769 0.072520718 0.007509701
0.062278312 0.072450399 0.0071909353
0.061907072 0.072377175 0.0068597235
0.061536629 0.072303765 0.0065276437
0.061154198 0.072233431 0.0062088594
0.060743254 0.072170243 0.0059218779
0.060352188 0.072102055 0.0056127459
0.059948396 0.072037108 0.0053177923
0.059521321 0.071978018 0.0050487518
0.059088361 0.07192038 0.0047863424
0.058649447 0.071864255 0.0045304596
0.05821703 0.07180649 0.0042674989
0.057784129 0.071748927 0.0040049106
0.057339188 0.071694329 0.0037558228
0.056912545 0.071635127 0.0034863204
0.056484032 0.071576416 0.0032189861
0.056046512 0.071519971 0.0029615462
0.055618282 0.071461141 0.002693817
0.055216059 0.071395718 0.0023972318
0.054818686 0.071329162 0.0020950362
0.054448422 0.071255654 0.0017627999
0.054076526 0.071182713 0.0014322028
0.053700179 0.0711108 0.001106672
0.053313266 0.071041569 0.00079293549
0.052940138 0.070968851 0.00046373159
0.052568331 0.070895754 0.00013314188
0.052211169 0.070819058 -0.00021373481
0.051823888 0.070749842 -0.00052714348
0.051436797 0.070680648 -0.00084070116
0.051024258 0.070618004 -0.0011258423
0.050624792 0.07055191 -0.0014256462
0.05024657 0.070480362 -0.0017491579
0.049874917 0.070407301 -0.0020799115
0.049509775 0.070332639 -0.0024178848
0.049140368 0.070258975 -0.0027511641
0.048744932 0.07019189 -0.0030554533
0.048328821 0.070130005 -0.0033367425
0.047885608 0.070075028 -0.0035876706
0.047447156 0.070018798 -0.0038440377
0.047038183 0.069955111 -0.00413315
0.04662732 0.069891885 -0.004420273
0.046175793 0.069838934 -0.0046621189
0.045724165 0.069786072 -0.0049036518
0.04527298 0.069733031 -0.0051458254
0.044792347 0.069687501 -0.0053552017
0.044305522 0.069643497 -0.0055574402
0.043826167 0.069597587 -0.0057682768
0.04336226 0.069547802 -0.0059961677
0.042895626 0.069498703 -0.0062211677
0.042401273 0.069456577 -0.0064151585
0.041877866 0.069421858 -0.0065767691
0.04127384 0.069407433 -0.0066486225
0.040699903 0.069385499 -0.0067538396
0.040143281 0.069358997 -0.0068786144
0.025075424 0.067622289 -0.014839686
0.024841335 0.067514077 -0.015325941
0.02473798 0.06737408 -0.015951253
0.024578568 0.067247666 -0.016516812
0.024428867 0.067118965 -0.017092966
0.024325173 0.066979058 -0.017717876
0.024193723 0.066845886 -0.018313274
0.023990653 0.066730112 -0.018832505
0.023752006 0.066623047 -0.019313902
0.023494424 0.066520467 -0.019775264
0.023187334 0.066429883 -0.020183809
0.022852886 0.066345938 -0.020563416
0.022475109 0.066272639 -0.020896912
0.022044187 0.066212133 -0.021173723
0.021611677 0.066152111 -0.021449089
0.021138264 0.066101916 -0.021680869
0.020634467 0.066059083 -0.021880202
0.020055439 0.066034593 -0.021999635
0.019377178 0.066034153 -0.022013642
0.018697146 0.066034108 -0.022025593
0.018029135 0.066031218 -0.022050478
0.017395556 0.066019922 -0.022111811
0.016808482 0.065997288 -0.022222795
0.070821628 0.079817846 0.037052315
0.070797309 0.079656914 0.03633447
0.070955411 0.079449654 0.035413235
0.07128261 0.079199657 0.034303732
0.071489602 0.078980073 0.033328105
0.071596444 0.078785881 0.032464005
0.071552917 0.078629799 0.03176754
0.071521878 0.07847061 0.031057291
0.071395695 0.078335389 0.030452821
0.071347728 0.078180477 0.029761367
0.071180254 0.078055814 0.029202983
0.071046397 0.077922583 0.028607234
0.070892468 0.077794492 0.028033882
0.070726812 0.077669337 0.027473435
0.070603117 0.077533521 0.026866354
0.070418715 0.077413186 0.026326776
0.070272118 0.077283241 0.02574531
0.0701271 0.077152863 0.02516187
0.069974154 0.077024475 0.024587337
0.069867715 0.076884314 0.023961015
0.069677696 0.076765388 0.023427811
0.06953977 0.076633155 0.022836469
0.069390848 0.076503791 0.022257578
0.069271401 0.076366991 0.021645717
0.06911613 0.076239184 0.021073841
0.068962604 0.076110959 0.020499829
0.068790615 0.075987428 0.019946609
0.068548024 0.075881824 0.019471925
0.068295911 0.075778604 0.019008014
0.068049163 0.07567396 0.018537976
0.068110064 0.075491451 0.01772514
0.068623066 0.075194307 0.016408473
0.068755403 0.07499361 0.015516005
0.068816468 0.074811071 0.014703047
0.068757281 0.074658915 0.014023975
0.068594545 0.074533015 0.013460413
0.068329066 0.074433155 0.013011284
