# .PCD v0.7 - Point Cloud Data file format
VERSION 0.7
FIELDS x y z
SIZE 4 4 4
TYPE F F F
COUNT 1 1 1
WIDTH 1330
HEIGHT 1
VIEWPOINT 0 0 0 1 0 0 0
POINTS 1330
DATA ascii
0.08650104 0.098918058 0.016570922
0.086204551 0.098959222 0.016167339
0.085899934 0.09899912 0.015769962
0.085585512 0.09903723 0.015380314
0.08523719 0.099069782 0.015016964
0.084866278 0.099098481 0.014671234
0.08448974 0.099126287 0.014329836
0.084064931 0.099145956 0.014026033
0.08361768 0.099161923 0.01373964
0.083119333 0.099169254 0.013492959
0.082542971 0.099163525 0.013307061
0.081939548 0.099153332 0.013142144
0.081349209 0.099145338 0.012967017
0.080768332 0.099138841 0.012784582
0.073122635 0.098493882 0.014291497
0.072572038 0.098492511 0.014085513
0.071947269 0.098478742 0.013937242
0.068230048 0.099491507 0.0054121586
0.068066187 0.099554911 0.0049053617
0.06821347 0.099670522 0.0041565886
0.068292536 0.099774644 0.003460844
0.068245634 0.099857621 0.0028631296
0.068153501 0.099933073 0.00230058
0.067918912 0.099984631 0.001848795
0.06756907 0.10001688 0.0014866632
0.067134969 0.10003496 0.0011900254
0.066844419 0.10007715 0.00078177219
0.066650189 0.10013551 0.00029864535
0.066568963 0.10021273 -0.00027241372
0.066635415 0.10031482 -0.00095839053
0.066869833 0.10044491 -0.0017749029
0.06699343 0.10055647 -0.0025051995
0.067204759 0.10068283 -0.0033038976
0.067269579 0.10078453 -0.0039885528
0.067412093 0.10089922 -0.0047335997
0.067757525 0.10104797 -0.0056365011
0.068002492 0.10117991 -0.0064612627
0.068084538 0.10128453 -0.0071592629
0.068143502 0.10138532 -0.0078393593
0.068150744 0.10147738 -0.0084792878
0.068114132 0.10156216 -0.0090850126
0.068085425 0.1016482 -0.0096969325
0.067976989 0.10172091 -0.010246771
0.067877814 0.10179512 -0.010803926
0.067733064 0.10186175 -0.01132552
0.067549028 0.1019218 -0.011816604
0.067295685 0.10197015 -0.012253813
0.0670802 0.10202496 -0.012720456
0.06685181 0.10207758 -0.013177057
0.066698216 0.10214268 -0.013691857
0.066562563 0.10221089 -0.014220566
0.066409253 0.10227601 -0.014735536
0.066267736 0.10234321 -0.015259723
0.066060528 0.10239928 -0.015732765
0.065841347 0.10245349 -0.016196553
0.065587819 0.10250183 -0.016633619
0.065326199 0.10254891 -0.017064361
0.065055922 0.10259447 -0.017488401
0.064766079 0.10263682 -0.017897194
0.064448312 0.1026744 -0.018284276
0.064110368 0.10270863 -0.01865568
0.063784041 0.10274491 -0.019036099
0.063456193 0.1027808 -0.019415293
0.063126259 0.10281638 -0.019792948
0.062800564 0.10285272 -0.020173859
0.062458474 0.10288621 -0.020542007
0.062083669 0.1029143 -0.02088473
0.061693724 0.1029399 -0.021215685
0.061299555 0.10296471 -0.021543309
0.060892664 0.10298739 -0.021861106
0.06044054 0.10300255 -0.022143729
0.06000654 0.10302063 -0.022440413
0.059620026 0.10304677 -0.022773981
0.059251443 0.10307583 -0.023121549
0.058854733 0.10310029 -0.023447277
0.058438223 0.10312133 -0.023757501
0.057993043 0.10313761 -0.024045497
0.0575439 0.10315328 -0.024330409
0.057042845 0.10316022 -0.024574986
0.056545407 0.10316774 -0.024822297
0.056045536 0.10317478 -0.025067758
0.055471413 0.10316562 -0.025274482
0.054858573 0.10314924 -0.02545427
0.05429367 0.10314132 -0.025669314
0.05365039 0.10311954 -0.025826685
0.05298201 0.10309345 -0.025965605
0.052302212 0.1030653 -0.02609607
0.051643874 0.10304091 -0.026242452
0.050910883 0.10300339 -0.0263338
0.05021967 0.10297318 -0.026455915
0.023968972 0.10063805 -0.022911839
0.023693871 0.10068113 -0.023339957
0.023494147 0.10073763 -0.023823591
0.023407705 0.10081398 -0.024390483
0.023388498 0.10090222 -0.025006827
0.023370467 0.10099071 -0.025624037
0.023302497 0.10107041 -0.026204597
0.023211429 0.10114602 -0.026768109
0.023174278 0.10123106 -0.027371254
0.023049599 0.10130073 -0.02790999
0.022961518 0.10137682 -0.028475739
0.022834286 0.10144606 -0.029012702
0.022663929 0.10150772 -0.029517906
0.022430692 0.10155822 -0.029976787
0.022234963 0.10161532 -0.030463314
0.022039039 0.10167252 -0.030949801
0.021845119 0.10172991 -0.031437695
0.02165002 0.10178717 -0.03192471
0.021428658 0.10183977 -0.032392316
0.021196319 0.10189047 -0.032851927
0.020925647 0.10193439 -0.033283375
0.020660046 0.10197923 -0.033718556
0.020450091 0.10203391 -0.034194615
0.020220373 0.10208507 -0.034656204
0.019962134 0.10213124 -0.035096645
0.019694263 0.10217565 -0.035530202
0.019367412 0.10220968 -0.0359203
0.019005956 0.10223762 -0.036284868
0.018576071 0.10225344 -0.036599215
0.018091621 0.10225976 -0.036873527
0.017627228 0.10226957 -0.037162356
0.017174233 0.10228137 -0.037459742
0.016743982 0.10229716 -0.037773836
0.016360506 0.10232127 -0.038122203
0.015949376 0.10234039 -0.038450368
0.015510256 0.10235467 -0.038757861
0.015049562 0.10236508 -0.039049536
0.014545009 0.10236786 -0.039309032
0.014038396 0.1023702 -0.039566837
0.013510602 0.10236883 -0.039809164
0.012947265 0.10236117 -0.040025435
0.012342399 0.10234618 -0.040210988
0.011804646 0.1023431 -0.040445961
0.011323653 0.10234996 -0.040722787
0.010873967 0.10236236 -0.041022442
0.010378653 0.10237126 -0.041301761
0.0097892527 0.10236504 -0.041516215
0.0091913594 0.10235738 -0.041724633
0.0084560122 0.10232718 -0.041836783
0.0077058249 0.10229455 -0.041938562
0.0068984143 0.1022526 -0.042000175
0.00603932 0.10220208 -0.042025659
0.0053788102 0.10218418 -0.042190231
0.0048406287 0.10218631 -0.042440578
0.0041982774 0.10217146 -0.042617887
-0.0016089575 0.10176123 -0.042313274
-0.028736703 0.099480025 -0.03836276
-0.028913576 0.09954156 -0.038866248
-0.029119585 0.099598378 -0.039349269
-0.029332623 0.099653922 -0.039827477
-0.029563133 0.099706665 -0.040293325
-0.029764138 0.099764183 -0.040779892
-0.029977258 0.099819817 -0.041257981
-0.030193478 0.099874862 -0.041733917
-0.030433282 0.09992601 -0.04219332
-0.030699395 0.099972934 -0.042634163
-0.030992754 0.10001534 -0.043056041
-0.031251319 0.10006339 -0.043502312
-0.031556163 0.100104 -0.043916199
-0.031830009 0.10014957 -0.044351626
-0.032104056 0.10019513 -0.044787023
-0.032425657 0.10023294 -0.045189176
-0.032777738 0.10026565 -0.045569781
-0.033139493 0.10029678 -0.045943778
-0.033466186 0.10033377 -0.04634228
-0.0337497 0.1003777 -0.046771001
-0.034037683 0.10042103 -0.04719666
-0.034355622 0.10045935 -0.047601249
-0.034713738 0.10049113 -0.047977779
-0.035058718 0.10052503 -0.048363414
-0.035388224 0.10056155 -0.048759904
-0.035683464 0.1006038 -0.049182229
-0.035901025 0.10065921 -0.049661584
-0.035778426 0.10076918 -0.050368864
-0.035697371 0.10087306 -0.051053006
-0.035737008 0.10095713 -0.05165273
-0.035706598 0.10105275 -0.052301474
-0.035831016 0.10112283 -0.052841723
-0.035863258 0.1012082 -0.053446509
-0.035955057 0.10128361 -0.054009523
-0.036234658 0.10132834 -0.054440998
-0.036420181 0.10138843 -0.054938424
-0.036650643 0.10144129 -0.055405896
-0.036805972 0.1015067 -0.055926729
-0.037051901 0.10155749 -0.05638716
-0.037254632 0.10161535 -0.056876369
-0.037425786 0.10167811 -0.057386611
-0.037783727 0.10171111 -0.057772387
-0.038150899 0.10174256 -0.058151927
-0.038699251 0.10174499 -0.058410648
-0.039245237 0.10174792 -0.058670994
-0.039756805 0.10175622 -0.058954176
0.085804112 0.097486787 0.031157561
0.086030141 0.097614408 0.030347332
0.086703196 0.097817712 0.029189538
0.087265626 0.09800221 0.028117884
0.087605365 0.098149955 0.027219374
0.087776326 0.098269694 0.026452139
0.087816581 0.098366477 0.0257865
0.087875471 0.098467238 0.025106525
0.087965876 0.098573387 0.024401926
0.088103786 0.098687597 0.023660455
0.088167891 0.098788925 0.022976272
0.088161275 0.098878704 0.022347238
0.088126808 0.098963521 0.021739759
0.088136226 0.099056005 0.021098271
0.08812619 0.099145427 0.020471875
0.088059269 0.099224783 0.019889567
0.087958761 0.099298544 0.019333513
0.087832294 0.099368542 0.018797657
0.087658264 0.099430457 0.018298887
0.087424673 0.099482007 0.017846325
0.087178975 0.099532276 0.017403247
0.086921133 0.09957926 0.016969483
0.086662382 0.099627145 0.016536504
0.086385794 0.099672116 0.01611745
0.086101018 0.09971521 0.015704744
0.085814416 0.099758111 0.01529341
0.085484572 0.09979441 0.014915735
0.085124746 0.099824511 0.014561413
0.084744073 0.099852361 0.014223322
0.084340714 0.099875808 0.01390289
0.083878145 0.099888958 0.013628315
0.083378091 0.099896073 0.013383096
0.082852364 0.099899463 0.013157833
0.082221642 0.099885657 0.01301427
0.08154805 0.099863268 0.012903925
0.080890484 0.099844597 0.012781162
0.073136613 0.099277601 0.013738792
0.068981029 0.10021888 0.0055549797
0.068621367 0.10024968 0.0052005248
0.068510562 0.10032196 0.0046524107
0.068565227 0.10042186 0.0039757453
0.068545178 0.10050932 0.0033570752
0.068493664 0.10059161 0.0027628532
0.06842038 0.10067018 0.0021856269
0.068239026 0.10073073 0.0016924115
0.067965426 0.1007759 0.001271084
0.067600973 0.1008059 0.00092032831
0.067237794 0.10083605 0.00056857895
0.067053124 0.10089612 7.7967066e-05
0.067033619 0.10098364 -0.00054108445
0.067197278 0.10110181 -0.0013026986
0.06737639 0.10122238 -0.0020761997
0.067535028 0.10133971 -0.0028338693
0.067736275 0.10146406 -0.0036246246
0.067853644 0.1015745 -0.0043501714
0.068048321 0.10169774 -0.0051358417
0.068300948 0.10183068 -0.0059665777
0.068413071 0.10194024 -0.0066880714
0.068430081 0.10203384 -0.0073354961
0.068463631 0.10213032 -0.0079958765
0.068446815 0.10221832 -0.0086170528
0.068414241 0.10230362 -0.0092259431
0.068332747 0.10238082 -0.0097967833
0.068275578 0.10246211 -0.010386566
0.068177223 0.1025365 -0.010944253
0.068046883 0.10260557 -0.011477117
0.067850307 0.1026636 -0.01195846
0.067649327 0.10272083 -0.012436348
0.06745401 0.10277909 -0.012918697
0.067260146 0.10283759 -0.013402127
0.067081869 0.10289865 -0.013897678
0.066874936 0.10295486 -0.014370936
0.066691533 0.10301508 -0.014862532
0.066504881 0.10307475 -0.015351581
0.066282794 0.10312854 -0.015813068
0.066042893 0.10317931 -0.01626067
0.065774858 0.10322542 -0.016686428
0.065503672 0.10327098 -0.017109729
0.065214112 0.10331346 -0.017518761
0.064899698 0.10335179 -0.017908411
0.064573094 0.10338814 -0.018288584
0.064228386 0.10342144 -0.018654693
0.063885398 0.10345502 -0.019022094
0.063542843 0.10348867 -0.019389875
0.063208319 0.10352365 -0.019763928
0.062873155 0.10355859 -0.020137489
0.062532872 0.10359256 -0.020507015
0.062173836 0.10362355 -0.020861946
0.061807681 0.10365327 -0.021211371
0.061416209 0.10367877 -0.021541102
0.060985897 0.10369775 -0.021840611
0.060566772 0.1037186 -0.022148799
0.06015322 0.10374046 -0.022461344
0.059740473 0.10376241 -0.022774559
0.059328817 0.10378448 -0.023088578
0.058920491 0.1038072 -0.023405164
0.058486037 0.10382552 -0.023701508
0.058020052 0.10383857 -0.023973212
0.057553053 0.10385145 -0.024244271
0.057041921 0.103857 -0.02448092
0.056547187 0.10386529 -0.024730286
0.056023885 0.10386875 -0.024957452
0.05542808 0.10385589 -0.025149031
0.054787155 0.10383497 -0.025308089
0.054174319 0.10381899 -0.025487822
0.053514354 0.10379464 -0.025632925
0.052843083 0.10376843 -0.025769573
0.052152865 0.10373881 -0.025892371
0.051437173 0.10370474 -0.025996476
0.050671834 0.10366194 -0.026063971
0.050029002 0.10364071 -0.026221642
0.024315652 0.1013246 -0.022439368
0.024026591 0.10136536 -0.022857236
0.023842815 0.10142468 -0.023352586
0.023739778 0.10149816 -0.023907363
0.023712061 0.10158493 -0.024517369
0.023688763 0.10167238 -0.025130831
0.023624336 0.10175267 -0.025713909
0.023574688 0.10183553 -0.026307836
0.023545597 0.10192199 -0.026916955
0.023462953 0.10199904 -0.027486693
0.023357393 0.10207213 -0.028039493
0.023257984 0.10214619 -0.028596908
0.023116443 0.10221298 -0.029123288
0.022908943 0.10226807 -0.029601095
0.022690184 0.10232126 -0.030070763
0.022472251 0.10237461 -0.030540951
0.022248253 0.10242686 -0.031006658
0.022075258 0.10248806 -0.031509973
0.021869745 0.10254356 -0.031989269
0.021638138 0.10259452 -0.032449365
0.021405533 0.1026452 -0.03290873
0.021157775 0.10269335 -0.033357084
0.020913299 0.10274202 -0.033807714
0.020648792 0.10278716 -0.03424364
0.020410469 0.10283685 -0.034698874
0.020187018 0.10288925 -0.035164952
0.019913357 0.10293276 -0.035594158
0.019592658 0.10296803 -0.035988823
0.019232381 0.10299637 -0.036354233
0.018815279 0.10301469 -0.036677904
0.018325305 0.10302025 -0.036948092
0.017818585 0.10302289 -0.037205834
0.017344479 0.10303123 -0.037487619
0.016920131 0.10304832 -0.037805934
0.016524768 0.10307053 -0.038145646
0.0161268 0.10309216 -0.038483303
0.015669541 0.10310352 -0.038777526
0.015177045 0.10310859 -0.039045747
0.014649039 0.1031075 -0.039287899
0.014115691 0.10310546 -0.039526083
0.013589458 0.10310464 -0.0397695
0.013011673 0.10309477 -0.039974932
0.01240762 0.10308039 -0.040161137
0.011837309 0.10307181 -0.040372156
0.011332687 0.10307477 -0.040631413
0.010862766 0.10308383 -0.040916204
0.010367515 0.10309309 -0.041195992
0.0098027885 0.10309123 -0.041427605
0.0092157694 0.10308562 -0.041643675
0.0085069388 0.10306019 -0.041774441
0.0077518653 0.10302709 -0.041872766
0.0069501814 0.10298639 -0.041938372
0.0060784742 0.10293425 -0.041954953
0.0053998702 0.10291372 -0.042106837
0.0048391372 0.10291246 -0.042341348
0.0042339149 0.1029039 -0.042544656
-0.028930038 0.10019135 -0.038127698
-0.029117752 0.10025115 -0.038623597
-0.029298902 0.10031195 -0.03912406
-0.02950329 0.10036903 -0.039608315
-0.029733874 0.10042188 -0.040074036
-0.029960029 0.10047536 -0.04054302
-0.030176323 0.10053049 -0.041018836
-0.030404486 0.10058367 -0.041486427
-0.030654393 0.10063327 -0.041938737
-0.030918512 0.10068057 -0.042381074
-0.031197473 0.10072546 -0.042812929
-0.031475451 0.10077046 -0.043245643
-0.031768259 0.10081311 -0.043667879
-0.032064613 0.10085513 -0.044087611
-0.032350596 0.10089883 -0.044514645
-0.032656416 0.10093923 -0.044927698
-0.032987665 0.10097559 -0.045323025
-0.033371091 0.10100331 -0.04568173
-0.033731569 0.10103483 -0.046056587
-0.034074023 0.10106932 -0.046444077
-0.034379654 0.10110982 -0.046857245
-0.034698427 0.10114818 -0.047261298
-0.035034392 0.10118375 -0.047653224
-0.035370193 0.10121927 -0.048045397
-0.035699971 0.10125645 -0.04844686
-0.036101557 0.10128264 -0.048803449
-0.036460675 0.10131555 -0.049188338
-0.03667184 0.10137203 -0.049672026
-0.036728147 0.10145323 -0.050258808
-0.036721613 0.1015444 -0.050887663
-0.036413923 0.10168364 -0.051717371
-0.036472715 0.10176442 -0.052302588
-0.036596656 0.1018348 -0.052844305
-0.036672197 0.10191284 -0.053418394
-0.036860462 0.10197302 -0.053917211
-0.037046365 0.10203353 -0.054417688
-0.037280586 0.1020864 -0.054885902
-0.037455581 0.10214859 -0.055393569
-0.037633792 0.10221029 -0.055899173
-0.037882652 0.10226083 -0.056357648
-0.03817331 0.10230459 -0.056788135
-0.03856045 0.10233302 -0.057154439
-0.039051689 0.10234487 -0.057451144
-0.039541479 0.10235696 -0.057748869
-0.039963577 0.10237989 -0.058091864
-0.040332381 0.10241118 -0.058470249
0.085733734 0.098249696 0.030669365
0.086164504 0.098412149 0.029700086
0.087087616 0.098656155 0.028347638
0.087496027 0.098814234 0.027395558
0.087694295 0.098937891 0.026607018
0.087752365 0.099038579 0.025927581
0.087798364 0.099136963 0.025257561
0.087896101 0.099243879 0.024547333
0.088000394 0.099352494 0.023832014
0.088095061 0.099458098 0.023124026
0.088115931 0.099552803 0.02247359
0.088153787 0.099649362 0.021809718
0.088178448 0.099744461 0.021156393
0.088162094 0.0998322 0.020534839
0.088111579 0.099915318 0.019939952
0.08800827 0.099988766 0.019386031
0.087895133 0.10006019 0.018839702
0.087703079 0.1001192 0.018354904
0.087474525 0.10017227 0.017898586
0.087213181 0.10021988 0.017467711
0.086980738 0.10027157 0.017014176
0.086746871 0.1003231 0.016561858
0.086506031 0.10037389 0.016114922
0.086246133 0.10042165 0.015682915
0.085958458 0.10046443 0.015272455
0.085655555 0.1005056 0.014873961
0.08532159 0.10054044 0.014499487
0.084944159 0.10056865 0.014158895
0.084569186 0.10059711 0.013816424
0.084144376 0.1006173 0.013512587
0.083660185 0.10062709 0.013255039
0.083153464 0.10063352 0.013014957
0.082572669 0.10062804 0.012832541
0.08188583 0.10060521 0.012732789
0.081239067 0.1005877 0.012601547
0.0805507 0.10056472 0.012502937
0.073787145 0.10007638 0.013325024
0.073392093 0.10010169 0.012998242
0.070032001 0.10090447 0.0060985032
0.069851115 0.10096468 0.0056048697
0.069560394 0.10100712 0.0051968778
0.069171444 0.1010331 0.0048652384
0.069010198 0.10109739 0.0043564178
0.068926796 0.10117397 0.0037870388
0.068829879 0.10124912 0.0032282583
0.068724327 0.10132235 0.0026760921
0.068650648 0.10140098 0.0020991336
0.068493381 0.10146569 0.0015872931
0.068259411 0.10151722 0.0011349963
0.067972548 0.10156009 0.00072390586
0.067708582 0.10160742 0.00029503135
0.067572653 0.10167539 -0.00023349095
0.067635134 0.10177655 -0.00091632083
0.067781344 0.10189164 -0.0016642828
0.067988992 0.10201729 -0.0024600495
0.068157375 0.10213574 -0.0032253163
0.068297811 0.10224921 -0.00396882
0.068511754 0.10237554 -0.0047695842
0.06859912 0.10248136 -0.0054717194
0.068718553 0.1025916 -0.0061989799
0.068724819 0.10268375 -0.0068380218
0.068756133 0.10277959 -0.007496655
0.068741664 0.10286754 -0.0081197154
0.068713509 0.10295402 -0.0087320078
0.068660304 0.10303582 -0.0093248459
0.068608545 0.10311779 -0.0099188471
0.068564162 0.10320154 -0.010518544
0.068478152 0.10327785 -0.011085896
0.068349704 0.10334764 -0.011620148
0.06816864 0.10340781 -0.01211359
0.0680198 0.10347342 -0.012632174
0.067844145 0.10353516 -0.013129746
0.067625597 0.10359031 -0.013593826
0.067400292 0.10364278 -0.014052913
0.067152441 0.10369281 -0.014494274
0.066928029 0.10374634 -0.01495392
0.066680551 0.10379542 -0.015395693
0.06642127 0.10384326 -0.015828226
0.066183053 0.10389433 -0.016277188
0.065910727 0.10393975 -0.016699515
0.065638721 0.1039862 -0.017122075
0.065350145 0.1040289 -0.017531838
0.065028965 0.10406613 -0.01791626
0.064696237 0.10410111 -0.018291706
0.064364687 0.1041372 -0.01866797
0.064002678 0.10416806 -0.019020546
0.063637346 0.10419756 -0.019370615
0.063301191 0.10423218 -0.019743402
0.062973335 0.10426868 -0.020122565
0.062649444 0.10430561 -0.020504812
0.062319871 0.10434194 -0.020882655
0.061952371 0.1043712 -0.021231018
0.061564326 0.10439827 -0.021563252
0.06114627 0.10441916 -0.021872334
0.060700279 0.10443605 -0.022159576
0.060264565 0.10445405 -0.02245491
0.059813891 0.10447004 -0.022738546
0.059375733 0.10448798 -0.023031928
0.058935981 0.10450562 -0.023323962
0.058466379 0.10451841 -0.023592886
0.057972174 0.10452706 -0.023842696
0.057494119 0.10453832 -0.02410499
0.056989998 0.10454533 -0.024347138
0.056488592 0.10455282 -0.02459128
0.055933796 0.1045507 -0.024797015
0.055312254 0.10453355 -0.02497034
0.054646052 0.10450854 -0.025110673
0.053975217 0.1044828 -0.02524773
0.053281192 0.10445289 -0.025367631
0.05259541 0.10442453 -0.025493614
0.05190466 0.10439525 -0.025615878
0.051171929 0.10435863 -0.025707347
0.050478727 0.10432892 -0.025827859
0.024719302 0.10202074 -0.022009028
0.024348697 0.10204743 -0.022366818
0.024148073 0.10210383 -0.022849714
0.024067966 0.10218134 -0.023421321
0.024077028 0.10227445 -0.024058487
0.024037877 0.10235909 -0.024660248
0.023994215 0.10244306 -0.025258537
0.02394627 0.10252612 -0.025853828
0.023905044 0.10261044 -0.026453983
0.023832003 0.10268915 -0.027030818
0.023713574 0.10275996 -0.027574155
0.0236206 0.10283527 -0.028136285
0.023489203 0.10290377 -0.028670147
0.023331083 0.10296766 -0.029184312
0.02310944 0.10302043 -0.029651746
0.022885539 0.10307279 -0.030117456
0.022675483 0.10312755 -0.030593483
0.022468876 0.10318296 -0.031072006
0.022286745 0.10324262 -0.031568486
0.022087105 0.10329923 -0.032052219
0.021867914 0.10335244 -0.032521412
0.021622807 0.10340106 -0.032971546
0.021374516 0.10344913 -0.033419408
0.021121968 0.10349648 -0.033864163
0.020856101 0.1035416 -0.034299061
0.02062222 0.10359214 -0.034757532
0.020400494 0.10364491 -0.035224855
0.020115409 0.10368656 -0.035645671
0.019788291 0.10372088 -0.036035486
0.019435793 0.10375072 -0.036406711
0.019036449 0.10377242 -0.036743425
0.01855546 0.10377987 -0.037020069
0.018031877 0.10377981 -0.037265431
0.017532598 0.103784 -0.037528522
0.017075174 0.10379552 -0.037822496
0.016672198 0.10381657 -0.038156588
0.016284179 0.10384022 -0.038501646
0.015846152 0.10385521 -0.038809832
0.015348567 0.10385968 -0.039074373
0.014802698 0.10385577 -0.039303292
0.01422739 0.10384668 -0.039510537
0.01368764 0.10384377 -0.039743949
0.013071384 0.10382754 -0.039921042
0.012475265 0.10381482 -0.040112957
0.011862771 0.10379917 -0.040292904
0.011328954 0.10379738 -0.04053067
0.010846587 0.10380449 -0.040806331
0.010326549 0.10381014 -0.041069251
0.0097244121 0.10380236 -0.041274671
0.0091333408 0.10379648 -0.041487902
0.0084658116 0.10377801 -0.041647568
0.0077328235 0.10374895 -0.041761264
0.0068835435 0.10370085 -0.041793469
0.0060106236 0.1036489 -0.041809216
0.0053434893 0.10363058 -0.041969135
0.0047707269 0.10362755 -0.042195156
0.0041540489 0.10361749 -0.042390443
-0.029007897 0.10092162 -0.037973601
-0.029224206 0.10097684 -0.038449407
-0.029430576 0.10103362 -0.038932171
-0.029637516 0.10109037 -0.039414648
-0.029849079 0.10114623 -0.039893761
-0.030090712 0.10119732 -0.04035186
-0.030341983 0.10124688 -0.040803146
-0.030565761 0.10130078 -0.041273773
-0.030828789 0.10134841 -0.041716848
-0.03110265 0.10139418 -0.042152345
-0.031388275 0.10143803 -0.042579629
-0.031708777 0.10147624 -0.042982511
-0.031995568 0.10151996 -0.043408912
-0.032261413 0.101567 -0.043849986
-0.032538019 0.10161242 -0.044283576
-0.032842666 0.10165313 -0.044697478
-0.033160973 0.10169174 -0.045101874
-0.033522639 0.10172315 -0.045475848
-0.033892866 0.10175323 -0.045843862
-0.034250516 0.10178544 -0.046220604
-0.034598522 0.10181907 -0.046604175
-0.034933317 0.10185498 -0.046996959
-0.035285592 0.10188801 -0.047377493
-0.03566682 0.10191718 -0.047744825
-0.03604031 0.10194796 -0.048120096
-0.036481507 0.10196791 -0.048450194
-0.036863782 0.10199729 -0.048819687
-0.037156735 0.10204084 -0.049248617
-0.037405588 0.10209146 -0.049707085
-0.037643004 0.10214382 -0.05017313
-0.037568282 0.10224576 -0.050847456
-0.037321802 0.10237507 -0.051636249
-0.037246626 0.10247704 -0.052310843
-0.037315674 0.10255618 -0.052889265
-0.037477605 0.1026206 -0.053405732
-0.037605926 0.10269028 -0.053944506
-0.037785966 0.10275181 -0.054448821
-0.038063921 0.10279776 -0.054887835
-0.038389653 0.10283614 -0.055295087
-0.0386535 0.10288437 -0.05574346
-0.039072022 0.10290791 -0.056088772
-0.039436258 0.10294022 -0.056470189
-0.039735984 0.10298266 -0.056894638
-0.040099952 0.1030149 -0.057276305
0.085462295 0.098888665 0.030971956
0.085797444 0.099034913 0.030076921
0.08672832 0.099279739 0.028718464
0.087280169 0.099461131 0.027654681
0.087533951 0.099593714 0.026822921
0.087641761 0.099702708 0.026104851
0.087714247 0.099804938 0.025414065
0.087809637 0.0999116 0.024705697
0.087916382 0.10002049 0.023988402
0.088042565 0.10013146 0.023255881
0.088105701 0.10023268 0.022572555
0.08821205 0.1003415 0.021855608
0.088264994 0.10044066 0.02118003
0.088278458 0.10053358 0.020535309
0.088227145 0.1006156 0.019941017
0.088108726 0.10068644 0.019398913
0.087979078 0.10075609 0.018865546
0.087780811 0.10081343 0.018385476
0.087534681 0.10086364 0.01794276
0.087272786 0.10091119 0.017512361
0.087042056 0.10096405 0.017057594
0.086825207 0.10101841 0.016591968
0.086611442 0.10107407 0.016124196
0.086353235 0.10112201 0.01569083
0.086075194 0.10116684 0.015272805
0.085780591 0.10120887 0.01486782
0.085451759 0.10124429 0.014489351
0.085091464 0.10127631 0.014135569
0.084738724 0.10130816 0.013775673
0.084366798 0.10133696 0.013430726
0.083936684 0.10135654 0.013131218
0.083443649 0.10136643 0.012880575
0.082957014 0.10137598 0.012624903
0.082386069 0.10137253 0.012434993
0.081727058 0.1013537 0.012313452
0.081010841 0.10132673 0.012236532
0.08029262 0.10129858 0.01216108
0.074107625 0.10081945 0.013167975
0.07368201 0.10083952 0.012864863
0.073312536 0.10086955 0.012518173
0.070273876 0.10154565 0.0066371206
0.070227057 0.10162815 0.0060392311
0.070184663 0.10171209 0.0054379851
0.070056587 0.10178191 0.0049034795
0.06980975 0.10183106 0.0044612456
0.069543414 0.10187814 0.0040341355
0.069318652 0.10193163 0.0035748417
0.069149837 0.10199411 0.0030719573
0.069025427 0.10206434 0.0025343788
0.068927348 0.10213835 0.0019764481
0.068789437 0.10220711 0.0014495663
0.068596214 0.10226499 0.00096560922
0.068365574 0.10231787 0.00051082252
0.06817919 0.10237747 2.1535903e-05
0.06817662 0.10246767 -0.00061072595
0.068305701 0.10257994 -0.0013453625
0.068476602 0.10269867 -0.0021126196
0.068694338 0.10282539 -0.0029162588
0.068762675 0.10292718 -0.0036037955
0.068857692 0.10303382 -0.0043119509
0.068913803 0.10313428 -0.0049897749
0.069041073 0.10324536 -0.0057231449
0.069096074 0.10334571 -0.0064001232
0.069106124 0.10343828 -0.0070421705
0.069114812 0.1035297 -0.0076833311
0.069091707 0.10361674 -0.0082995547
0.069022372 0.10369582 -0.0088799233
0.068976372 0.1037794 -0.0094782859
0.068928942 0.10386182 -0.010075681
0.068889514 0.10394611 -0.010679268
0.068796739 0.10402169 -0.011241313
0.068672344 0.10409192 -0.011778764
0.068535253 0.10415976 -0.012306391
0.068381846 0.10422489 -0.012821293
0.068181217 0.10428198 -0.013299501
0.067925252 0.10433114 -0.013734528
0.067649573 0.10437621 -0.014154273
0.067356244 0.1044184 -0.014560252
0.067094252 0.10446493 -0.014990779
0.066839457 0.10451422 -0.015426714
0.066564232 0.10455934 -0.015846804
0.066297561 0.10460538 -0.016273633
0.066025659 0.10465086 -0.016696388
0.06573683 0.1046945 -0.017105805
0.065447077 0.10473707 -0.017514627
0.065128148 0.10477453 -0.017900778
0.064805694 0.10481259 -0.018284041
0.064471804 0.10484745 -0.018658571
0.064123303 0.10488076 -0.019021688
0.063781664 0.10491479 -0.019390127
0.063480027 0.10495608 -0.01978961
0.063164517 0.10499391 -0.020178448
0.062843144 0.10503209 -0.020562589
0.062490236 0.10506392 -0.020922316
0.062087055 0.1050884 -0.02124279
0.061689273 0.10511243 -0.02156765
0.061283387 0.10513659 -0.021885976
0.060833793 0.1051531 -0.022170387
0.060350947 0.10516308 -0.022429103
0.059899196 0.10517935 -0.022711819
0.059415273 0.1051902 -0.022969497
0.058921795 0.10519901 -0.023219805
0.05841887 0.10520682 -0.023462646
0.057912778 0.10521329 -0.023703225
0.057404708 0.10522056 -0.023942064
0.056884374 0.10522452 -0.02417157
0.056361791 0.10522925 -0.024399191
0.05578969 0.1052229 -0.024597585
0.055148315 0.10520302 -0.024756122
0.05450803 0.10518324 -0.024915431
0.053804841 0.10515212 -0.02502865
0.053086992 0.10511849 -0.025130924
0.052359443 0.10508289 -0.025226129
0.051676646 0.10505582 -0.025354242
0.050922632 0.10501555 -0.025430009
0.050265323 0.10499303 -0.025576709
0.024816699 0.10275457 -0.021983761
0.024518847 0.10279413 -0.022395106
0.024399426 0.10286473 -0.022937704
0.024383284 0.10295341 -0.023556409
0.02437849 0.10304402 -0.024183366
0.024315141 0.10312442 -0.024767315
0.024286501 0.10321093 -0.025376804
0.024246819 0.10329549 -0.025978083
0.024194896 0.10337785 -0.026570398
0.02408272 0.10344979 -0.027118336
0.023980593 0.10352347 -0.027673744
0.023864238 0.10359469 -0.028218674
0.023695335 0.1036567 -0.028724872
0.023498777 0.10371393 -0.029210847
0.023294728 0.10376976 -0.029691136
0.023097362 0.1038269 -0.030176483
0.02289873 0.10388372 -0.030660864
0.022704095 0.10394131 -0.031148113
0.022529025 0.10400231 -0.031649806
0.02231607 0.10405667 -0.0321237
0.022091988 0.10410909 -0.032589268
0.02184106 0.10415681 -0.033035241
0.021585077 0.10420372 -0.033477362
0.021326091 0.10425002 -0.033917367
0.021075463 0.10429785 -0.03436337
0.020827806 0.1043461 -0.034811724
0.020574177 0.10439344 -0.035255589
0.020294163 0.10443613 -0.03568013
0.019972669 0.10447149 -0.036074046
0.019604133 0.10449881 -0.036433406
0.01919592 0.10451911 -0.036763508
0.018750001 0.10453291 -0.037065919
0.018230857 0.10453399 -0.037314478
0.017706096 0.10453402 -0.037558932
0.017230909 0.10454275 -0.037839781
0.016817259 0.10456208 -0.038165901
0.016423535 0.10458495 -0.038506698
0.015981779 0.10459946 -0.038812216
0.015514651 0.10460952 -0.039099053
0.014953027 0.10460319 -0.039316233
0.014372434 0.10459347 -0.039519574
0.013782785 0.10458221 -0.03971618
0.013148452 0.10456315 -0.039880004
0.012546366 0.10454974 -0.040067509
0.011922605 0.10453253 -0.040239062
0.01138675 0.10453072 -0.040475283
0.01087819 0.10453359 -0.040731594
0.010314627 0.10453198 -0.040962845
0.0096779373 0.10451888 -0.041144077
0.0090371855 0.1045051 -0.041322518
0.0083544962 0.10448448 -0.041471429
0.0076042274 0.10445294 -0.041573048
0.006758274 0.10440578 -0.041607589
0.0058544409 0.10434923 -0.041601565
0.005192305 0.1043321 -0.04176496
0.0045806528 0.10432303 -0.04196376
0.0039782897 0.10431553 -0.042169005
-0.028746571 0.10161667 -0.037429661
-0.029092029 0.10165095 -0.037814971
-0.029310253 0.1017059 -0.038289491
-0.029500417 0.10176545 -0.038783606
-0.029717732 0.10182048 -0.039258767
-0.029922649 0.1018776 -0.039742529
-0.030161176 0.10192928 -0.04020277
-0.030440979 0.1019742 -0.040634189
-0.030707289 0.10202131 -0.04107498
-0.031003542 0.10206361 -0.041494686
-0.031282149 0.10210875 -0.041926876
-0.031558849 0.10215415 -0.042360451
-0.031825706 0.10220122 -0.042800847
-0.032092925 0.10224813 -0.043241017
-0.032385007 0.10229115 -0.043663725
-0.032687746 0.10233235 -0.044078987
-0.033005867 0.10237106 -0.044483397
-0.033314072 0.10241133 -0.044894859
-0.033645686 0.10244785 -0.045289896
-0.033983938 0.10248332 -0.045680266
-0.034336124 0.10251644 -0.046060804
-0.034696154 0.10254832 -0.046435989
-0.035053439 0.10258067 -0.046812978
-0.035439651 0.10260861 -0.047172036
-0.035860814 0.10263201 -0.047515523
-0.036241442 0.10266172 -0.04788604
-0.036676228 0.10268296 -0.048220336
-0.037076533 0.10270967 -0.048577767
-0.037437208 0.10274262 -0.048961595
-0.037806485 0.10277418 -0.049339663
-0.03813586 0.10281208 -0.049744364
-0.03832753 0.10287187 -0.050240971
-0.038351908 0.102958 -0.050849125
-0.03814204 0.10308136 -0.051613595
-0.038082041 0.10318083 -0.052277986
-0.038095914 0.10326874 -0.052893266
-0.038262777 0.10333239 -0.05340641
-0.038574681 0.10337301 -0.05382276
-0.03879251 0.10342858 -0.054301854
-0.039049048 0.10347799 -0.054755196
-0.03938438 0.10351496 -0.055155922
-0.039713938 0.10355288 -0.055560492
-0.040065452 0.10358725 -0.055950355
0.085802279 0.099719353 0.030164544
0.086383782 0.099905908 0.029077731
0.086903743 0.1000829 0.028038874
0.087305211 0.10023925 0.02709214
0.087469362 0.10035723 0.026330231
0.08759968 0.10046866 0.025594369
0.087720297 0.10057902 0.024866216
0.087829009 0.1006881 0.024147507
0.087987103 0.10080448 0.023390096
0.088088542 0.10091178 0.022676993
0.088238336 0.10102726 0.021926166
0.088328302 0.10113237 0.021221807
0.088358715 0.1012281 0.020563893
0.088325784 0.10131308 0.019955179
0.088218592 0.10138613 0.019404361
0.088072404 0.101453 0.018883932
0.087851852 0.10150699 0.018421181
0.087597795 0.10155634 0.017984699
0.087360583 0.10160752 0.017535005
0.08715184 0.10166374 0.017063156
0.0869378 0.10171936 0.016595529
0.086716995 0.1017733 0.016133018
0.08648321 0.10182585 0.015680727
0.086218975 0.10187212 0.015252057
0.085923098 0.10191403 0.014847971
0.085590921 0.10195007 0.014472252
0.085241981 0.10198332 0.014109502
0.084897906 0.10201709 0.013742998
0.084573194 0.10205492 0.013361456
0.084213987 0.10208608 0.01300667
0.083783664 0.10210563 0.012707284
0.083324082 0.10212108 0.012430718
0.082842499 0.10213217 0.012171198
0.082293071 0.10213201 0.011964481
0.081688233 0.10212295 0.011800963
0.080977589 0.10209659 0.011719672
0.073828496 0.10155398 0.01284329
0.073456027 0.10158274 0.012498733
0.073079877 0.10161208 0.012157276
0.072718427 0.10164297 0.01180434
0.070499159 0.10218304 0.0071885437
0.070389539 0.10225582 0.0066396054
0.070461407 0.10235897 0.0059495503
0.070503995 0.10245602 0.0052820481
0.070501313 0.10254623 0.0046498012
0.070396565 0.10261954 0.0040971022
0.070092231 0.10266054 0.0036997274
0.069742829 0.10269373 0.0033373507
0.069477975 0.10273996 0.0029091826
0.069303758 0.10280187 0.0024104416
0.069195226 0.10287477 0.0018606307
0.069069475 0.10294483 0.0013242625
0.068907946 0.10300909 0.00081568118
0.068704724 0.10306589 0.00033957697
0.068633288 0.10314476 -0.00023923116
0.06880635 0.10326372 -0.0010081264
0.069034368 0.10339253 -0.0018197228
0.069108039 0.10349489 -0.0025113872
0.069161162 0.10359406 -0.003186997
0.069170102 0.1036865 -0.0038282154
0.069296673 0.1037975 -0.0045610443
0.069388807 0.10390383 -0.0052669505
0.069484636 0.10400955 -0.0059758425
0.06951765 0.10410557 -0.0066358633
0.069521949 0.10419751 -0.0072733527
0.06950523 0.10428522 -0.0078946352
0.069434091 0.10436411 -0.0084735481
0.069372326 0.10444502 -0.0090596713
0.069329396 0.10452792 -0.009660624
0.069276713 0.1046098 -0.010253956
0.069231525 0.10469346 -0.010852998
0.06911622 0.10476465 -0.011397582
0.068996876 0.10483541 -0.011939025
0.068835013 0.1048996 -0.012447231
0.068625554 0.10495575 -0.01291851
0.068390504 0.10500816 -0.013369847
0.068134278 0.1050563 -0.013804773
0.067847073 0.10509914 -0.014215556
0.067532718 0.10513808 -0.014605209
0.067258485 0.10518429 -0.015025971
0.066984147 0.1052295 -0.015446769
0.066715054 0.10527527 -0.015871672
0.066441253 0.10532154 -0.01629279
0.066158801 0.10536489 -0.016707387
0.065861955 0.10540671 -0.017110627
0.065574184 0.10545048 -0.017520886
0.065256238 0.10548804 -0.017907843
0.064922534 0.10552391 -0.018282373
0.064594857 0.10556042 -0.018661678
0.064270064 0.10559825 -0.019043051
0.063954823 0.1056361 -0.019432135
0.063658416 0.10567795 -0.019835714
0.063331641 0.10571555 -0.020215575
0.062991254 0.10574972 -0.020585034
0.062617451 0.10577831 -0.020928465
0.062195335 0.10579975 -0.021234175
0.061782327 0.10582216 -0.021547101
0.061344724 0.10584095 -0.021840759
0.06089576 0.10585752 -0.022125669
0.060423005 0.10587054 -0.022392008
0.059951525 0.10588371 -0.02265935
0.059441376 0.10588977 -0.022896742
0.058910605 0.10589359 -0.023117792
0.058358293 0.10589314 -0.023322264
0.057840582 0.10589837 -0.023553642
0.057301953 0.10590038 -0.023768803
0.05678685 0.1059059 -0.024002288
0.056235433 0.10590554 -0.024207497
0.055636071 0.10589413 -0.024391074
0.055027872 0.10588059 -0.024573861
0.054383859 0.10585946 -0.024730626
0.053618714 0.10581901 -0.024797833
0.052881468 0.10578243 -0.024885833
0.052086134 0.10573498 -0.024931183
0.051440045 0.10571462 -0.025086194
0.050767314 0.10568956 -0.025221635
0.025167722 0.10344085 -0.021514658
0.024904296 0.10348651 -0.021951396
0.024756949 0.10355242 -0.022473512
0.024710465 0.1036357 -0.023069818
0.024707478 0.1037266 -0.023698147
0.024675403 0.10381246 -0.024305038
0.024650577 0.10389952 -0.024917291
0.02459738 0.10398166 -0.02550872
0.024515912 0.10405892 -0.026079331
0.024437528 0.10413678 -0.026652178
0.024330422 0.10420954 -0.027203867
0.024196673 0.10427771 -0.027735973
0.02408269 0.10434937 -0.02828254
0.023880795 0.10440575 -0.028764529
0.023670658 0.10446069 -0.029240415
0.023505108 0.10452334 -0.029749094
0.023304936 0.10457999 -0.030232336
0.023119535 0.10463923 -0.03072642
0.022941468 0.10469973 -0.031225976
0.022746021 0.10475723 -0.031712599
0.022546578 0.10481397 -0.03219635
0.022353565 0.10487194 -0.032684818
0.022112159 0.10492142 -0.033137765
0.021842396 0.10496602 -0.033569772
0.021564575 0.10500921 -0.033995815
0.021296088 0.10505404 -0.034428701
0.021047533 0.10510229 -0.034876302
0.020771602 0.10514579 -0.035303824
0.020474382 0.10518561 -0.035715643
0.020138742 0.10521877 -0.036099169
0.019765679 0.10524542 -0.036455154
0.019360729 0.10526654 -0.036787599
0.018904746 0.10527882 -0.037082613
0.018404555 0.10528342 -0.037344996
0.017891582 0.10528581 -0.037598018
0.017385222 0.10528939 -0.037855901
0.016963577 0.10530765 -0.038176212
0.016549658 0.10532715 -0.03850206
0.016109906 0.10534225 -0.038808934
0.015635615 0.10535139 -0.039090481
0.015107603 0.10535116 -0.039332423
0.014520391 0.10534064 -0.039530747
0.013920941 0.10532801 -0.039720189
0.013287609 0.10530953 -0.039884601
0.012649545 0.10529018 -0.040045526
0.012039396 0.10527576 -0.040227104
0.011497388 0.10527311 -0.040458705
0.010974145 0.10527368 -0.040704135
0.010369359 0.10526465 -0.040903185
0.0096849333 0.10524407 -0.041051008
0.0089838617 0.10522086 -0.041187074
0.0082211141 0.10518762 -0.041279927
0.0074405535 0.10515147 -0.041360278
0.0065492378 0.10509743 -0.041362915
0.0056282287 0.10503853 -0.041344915
0.0049756821 0.10502312 -0.041514996
0.0043982402 0.10501993 -0.04173765
0.0038011316 0.10501356 -0.041946638
-0.028795835 0.10235168 -0.037295524
-0.029123351 0.102389 -0.037693448
-0.029340014 0.10244419 -0.038168993
-0.029508155 0.10250736 -0.038678631
-0.029718731 0.10256363 -0.039158456
-0.029943328 0.10261757 -0.039628532
-0.030179307 0.10266971 -0.04009055
-0.030476294 0.10271204 -0.040509723
-0.030770659 0.10275466 -0.040930904
-0.031067468 0.1027969 -0.041350219
-0.03137932 0.10283682 -0.041759122
-0.031662852 0.10288128 -0.042187877
-0.031897105 0.10293368 -0.042651143
-0.032140639 0.10298459 -0.043107852
-0.032448929 0.10302494 -0.043519188
-0.032759059 0.10306513 -0.04392935
-0.033058416 0.10310694 -0.044346895
-0.033373192 0.10314639 -0.044753779
-0.033709079 0.10318229 -0.045145772
-0.034040503 0.10321893 -0.045540933
-0.034376293 0.10325494 -0.045932937
-0.034733497 0.10328738 -0.046310011
-0.035112292 0.10331645 -0.046672031
-0.035529699 0.10333979 -0.047012128
-0.035938963 0.10336527 -0.047363527
-0.036356553 0.1033894 -0.047709312
-0.036799029 0.10340962 -0.048038453
-0.037227053 0.10343208 -0.04837732
-0.037628449 0.10345878 -0.048733965
-0.038047977 0.10348263 -0.049078573
-0.038435642 0.10351148 -0.049444325
-0.038763363 0.10354975 -0.04985005
-0.039007649 0.10360121 -0.050311569
-0.039026726 0.10368823 -0.050923303
-0.038807329 0.10381284 -0.051694091
-0.038786247 0.10390617 -0.052332692
-0.038963534 0.10396815 -0.05283881
-0.039318439 0.10400222 -0.053226449
-0.039677478 0.10403563 -0.053611387
-0.039955419 0.10408175 -0.054050285
-0.040382996 0.10410427 -0.054389518
0.086029083 0.10053198 0.029445212
0.08642903 0.10068816 0.028499622
0.086938985 0.10086209 0.027468447
0.087298743 0.10101099 0.026554096
0.087461166 0.10112881 0.02579345
0.087629698 0.10124727 0.02502805
0.087737329 0.10135526 0.024309982
0.087881356 0.10146912 0.023563523
0.088018924 0.10158231 0.022822175
0.088167273 0.10169763 0.022072475
0.088294007 0.10180866 0.021339472
0.08834713 0.10190782 0.020663869
0.088343218 0.10199789 0.020032711
0.088252358 0.10207368 0.019469194
0.088100739 0.10213898 0.018952873
0.087892458 0.10219525 0.018480651
0.087664701 0.10224845 0.018023621
0.087498136 0.10231213 0.017519016
0.087320402 0.10237366 0.017023124
0.08711113 0.10242982 0.016551657
0.086879767 0.10248261 0.016097486
0.086634636 0.10253293 0.015654022
0.086349048 0.10257595 0.015241934
0.086035438 0.10261496 0.014851768
0.085690081 0.10264959 0.014486292
0.085349344 0.10268372 0.014117176
0.085026525 0.10272176 0.013734136
0.084719405 0.10276147 0.013338864
0.084402815 0.10280017 0.012950961
0.084038295 0.10283074 0.012600495
0.083649687 0.10285775 0.012268633
0.083179645 0.10287108 0.01200016
0.082676537 0.10287986 0.011757581
0.082140431 0.10288212 0.011540517
0.08155378 0.10287701 0.011362849
0.073537648 0.10228629 0.0125276
0.073114291 0.1023076 0.012222875
0.072702169 0.10233109 0.011909336
0.070566252 0.10288603 0.0072288979
0.070574135 0.10297837 0.0065885503
0.070723757 0.10309283 0.0058377236
0.070809856 0.10319751 0.0051364619
0.070851356 0.10329543 0.0044699591
0.070758849 0.10337006 0.0039075585
0.070503905 0.10341932 0.0034718178
0.070116669 0.10344648 0.0031389501
0.069821961 0.10348853 0.0027339798
0.069640353 0.10354963 0.0022410871
0.069505408 0.10361771 0.0017118049
0.069379866 0.10368779 0.0011753114
0.069253013 0.10375776 0.00063970732
0.069129363 0.10382804 0.00010171765
0.069254927 0.10393894 -0.00063030655
0.069412917 0.10405531 -0.0013875994
0.069477931 0.10415673 -0.0020725192
0.069519967 0.10425372 -0.0027395398
0.069587961 0.10435547 -0.0034267232
0.069629446 0.10445338 -0.0040931879
0.069775939 0.10456751 -0.0048415028
0.069856167 0.10467155 -0.0055382056
0.069974706 0.10478071 -0.0062648999
0.069989525 0.10487378 -0.0069106789
0.069971651 0.10496136 -0.0075310254
0.069925092 0.10504488 -0.0081289969
0.069791414 0.1051131 -0.0086593097
0.069712706 0.10519121 -0.0092322826
0.069683567 0.10527656 -0.0098439008
0.069623865 0.10535771 -0.010431703
0.069521099 0.10543121 -0.010985998
0.069357589 0.10549526 -0.011493003
0.069191664 0.10555805 -0.011998202
0.068998337 0.1056169 -0.012482022
0.068786368 0.10567276 -0.012951308
0.068538874 0.10572284 -0.013392952
0.068275452 0.10577022 -0.013822206
0.067995161 0.10581478 -0.014238317
0.067706883 0.1058585 -0.014648143
0.067436591 0.10590415 -0.015072164
0.067160904 0.1059502 -0.015491812
0.066898376 0.10599769 -0.015921758
0.066638924 0.10604548 -0.016354103
0.066358551 0.10609004 -0.016770158
0.066079989 0.10613479 -0.017187646
0.065790154 0.10617735 -0.017596424
0.065443918 0.10621189 -0.017961118
0.065097585 0.10624541 -0.018325843
0.064762324 0.10628112 -0.018699255
0.064443849 0.10631961 -0.019085616
0.064132482 0.10635886 -0.019477561
0.063809231 0.10639586 -0.019860322
0.063436687 0.10642559 -0.02020457
0.063051239 0.10645294 -0.020538907
0.062661298 0.1064798 -0.020869665
0.062234864 0.10650077 -0.021171987
0.061811764 0.10652112 -0.021477068
0.061362259 0.10653862 -0.021761419
0.060911596 0.10655501 -0.022044962
0.060433969 0.10656753 -0.022307495
0.059948433 0.10657818 -0.022563862
0.059422612 0.10658255 -0.022788888
0.058865882 0.10658162 -0.022989873
0.058270767 0.10657459 -0.023160966
0.057730269 0.10657638 -0.023374537
0.057186328 0.10657781 -0.023585478
0.056654371 0.10658153 -0.023805741
0.056111883 0.10658312 -0.024017805
0.055493072 0.10656741 -0.02419218
0.054882418 0.10655362 -0.024373187
0.054215122 0.10652912 -0.024512673
0.053484228 0.10649417 -0.024605224
0.052722517 0.1064541 -0.02467506
0.051979642 0.10641694 -0.024758888
0.051288724 0.10638902 -0.024880741
0.050660212 0.10637144 -0.025048744
0.025191965 0.10416171 -0.021435788
0.025031403 0.10422527 -0.02194809
0.0250015 0.10431144 -0.022556607
0.024976393 0.1043984 -0.023168728
0.024976667 0.10448982 -0.023799434
0.024951193 0.10457675 -0.0244113
0.024911147 0.1046612 -0.025012335
0.024831139 0.1047387 -0.025583962
0.024735725 0.10481354 -0.02614424
0.024654619 0.10489084 -0.026715104
0.024518151 0.10495864 -0.027245203
0.024390757 0.10502793 -0.027781926
0.024255646 0.10509587 -0.028313035
0.024053104 0.10515229 -0.028794609
0.023858286 0.10520987 -0.029281724
0.023695271 0.10527308 -0.029792257
0.023503622 0.10533128 -0.030281724
0.023328289 0.10539234 -0.030783165
0.023165988 0.10545562 -0.031294309
0.022975981 0.10551409 -0.031784918
0.022788411 0.10557301 -0.032277383
0.02260717 0.10563298 -0.032774568
0.022382626 0.10568555 -0.033239841
0.022127174 0.10573272 -0.033682428
0.021839932 0.10577445 -0.034101471
0.021543989 0.1058146 -0.034514159
0.021247033 0.10585466 -0.034926184
0.020948088 0.10589432 -0.035336737
0.020630769 0.1059308 -0.03573361
0.020275548 0.10596066 -0.036102772
0.01989824 0.10598679 -0.036455512
0.019494899 0.10600848 -0.03678925
0.019055974 0.10602397 -0.037096612
0.018553596 0.10602845 -0.037357442
0.018046606 0.10603215 -0.0376148
0.017526571 0.10603363 -0.037862558
0.017060352 0.10604437 -0.038149953
0.01664171 0.10606331 -0.038472377
0.016210478 0.10608017 -0.038785454
0.015744347 0.10609091 -0.039072961
0.015225766 0.10609263 -0.039321732
0.014635127 0.10608187 -0.039517611
0.014056881 0.10607328 -0.039722484
0.013430307 0.10605628 -0.039891839
0.012754811 0.10603083 -0.040025163
0.012152227 0.10601807 -0.040212199
0.011592085 0.10601259 -0.040430415
0.011061801 0.10601223 -0.040670685
0.010468841 0.10600443 -0.040874995
0.0097697228 0.10598183 -0.041012414
0.0089223832 0.10593525 -0.041045941
0.0081809778 0.10590585 -0.041153666
0.0073168022 0.10585663 -0.041175421
0.0061926213 0.10576534 -0.041014828
0.0054013743 0.10572784 -0.041087661
0.0048150043 0.10572351 -0.041304074
0.0042406814 0.10572102 -0.041528959
0.0037041884 0.1057247 -0.041780382
-0.02881968 0.10309075 -0.037179224
-0.029096641 0.10313632 -0.037612531
-0.029292922 0.10319498 -0.038102441
-0.029491462 0.10325321 -0.038590625
-0.029717896 0.10330708 -0.039059408
-0.029946856 0.10336037 -0.039526347
-0.030172821 0.10341418 -0.039995413
-0.030457083 0.10345866 -0.040423647
-0.030749165 0.10350178 -0.040846337
-0.031045076 0.10354435 -0.041266371
-0.031365748 0.10358289 -0.04166897
-0.031655457 0.10362643 -0.042093303
-0.031912662 0.10367524 -0.042540498
-0.032166041 0.10372459 -0.04299036
-0.032441821 0.10377039 -0.043424439
-0.03273692 0.10381301 -0.043845087
-0.033040017 0.10385448 -0.044260059
-0.033379916 0.10388989 -0.044649247
-0.033709072 0.10392705 -0.04504602
-0.034052789 0.10396188 -0.045432448
-0.034393512 0.10399712 -0.045821127
-0.034753088 0.10402944 -0.046196528
-0.035130326 0.10405887 -0.046559554
-0.035553221 0.10408158 -0.046896629
-0.035967883 0.10410637 -0.047244318
-0.036413379 0.10412631 -0.047571491
-0.036870413 0.10414442 -0.047890987
-0.037340444 0.10416052 -0.048201773
-0.037813202 0.10417614 -0.048510667
-0.038282044 0.10419236 -0.048822336
-0.038728543 0.10421211 -0.049148776
-0.039135147 0.10423823 -0.049501833
-0.039507631 0.10426959 -0.049877793
-0.039866205 0.10430323 -0.05026298
-0.040125854 0.10435235 -0.050714139
-0.040411498 0.10439739 -0.051147997
-0.040267229 0.10451001 -0.051868726
-0.040275604 0.10459862 -0.052487627
-0.040664829 0.10462745 -0.052852336
0.085739784 0.10116802 0.029761638
0.08593104 0.10128993 0.028978545
0.086397827 0.10145626 0.027980771
0.087023944 0.10164957 0.026859201
0.087315321 0.10178718 0.025998134
0.087491453 0.10190646 0.025226759
0.087625913 0.10201931 0.024487788
0.087748863 0.10212994 0.023757771
0.08791741 0.10224742 0.022992238
0.088027656 0.1023557 0.022272062
0.088179626 0.1024714 0.021519508
0.088240772 0.10257142 0.020837653
0.088261433 0.10266612 0.020187348
0.088208079 0.10274791 0.019594681
0.088077091 0.10281643 0.019062188
0.087920517 0.10288121 0.018549737
0.087767296 0.10294735 0.018034803
0.08764822 0.10301812 0.01749319
0.087481834 0.10308184 0.016988471
0.087264903 0.10313617 0.016522955
0.087036438 0.1031893 0.016066533
0.086773463 0.10323771 0.015637042
0.086464696 0.10327724 0.01524302
0.086137019 0.10331476 0.014863838
0.085792668 0.10334851 0.014497474
0.085462384 0.10338473 0.014120264
0.085144535 0.10342329 0.013733452
0.084831372 0.10346334 0.013343055
0.084525041 0.10350315 0.012947056
0.084191225 0.10354 0.012572721
0.083831042 0.10357103 0.012218785
0.083417304 0.10359436 0.011906598
0.082929514 0.10360479 0.011651943
0.08241684 0.10361157 0.011416718
0.081878491 0.10361458 0.011201542
0.081397094 0.10362668 0.010942026
0.073129475 0.10300107 0.012303457
0.072682485 0.10301786 0.012016932
0.072247684 0.10303792 0.011721283
0.070703551 0.10359953 0.0072145564
0.070735931 0.10369547 0.0065550357
0.07096675 0.10382362 0.0057410719
0.071059778 0.10393003 0.0050344625
0.071094885 0.10402528 0.0043726908
0.071018614 0.10410362 0.0037978366
0.070807181 0.10415953 0.0033282032
0.070489146 0.10419809 0.002941425
0.070143431 0.10423266 0.0025763065
0.069925889 0.10428695 0.0021112943
0.069781929 0.10435406 0.0015891134
0.069696568 0.10443044 0.0010212441
0.06965135 0.10451411 0.00042213639
0.06967935 0.10460859 -0.00023393799
0.069810763 0.10472111 -0.00097043905
0.069898203 0.10482594 -0.0016729082
0.069890067 0.10491456 -0.0023008366
0.069948763 0.10501532 -0.0029807761
0.070029996 0.10511848 -0.0036783181
0.070121579 0.10522376 -0.004383971
0.070237592 0.10533363 -0.0051085316
0.070346862 0.10544178 -0.0058278656
0.070396818 0.10554062 -0.0065010535
0.070400834 0.10563153 -0.0071384879
0.070367441 0.10571647 -0.0077467803
0.070263408 0.10578987 -0.0083001275
0.070149109 0.10586214 -0.0088453796
0.070059218 0.10593804 -0.0094097136
0.069993675 0.10601754 -0.0099929795
0.069863424 0.10608712 -0.010525827
