# .PCD v0.7 - Point Cloud Data file format
VERSION 0.7
FIELDS x y z
SIZE 4 4 4
TYPE F F F
COUNT 1 1 1
WIDTH 1347
HEIGHT 1
VIEWPOINT 0 0 0 1 0 0 0
POINTS 1347
DATA ascii
0.095469564 0.12758647 0.00807581
0.095051952 0.12770547 0.0077328002
0.094626851 0.12782231 0.007414951
0.094207093 0.12794027 0.0070789075
0.093773976 0.12805602 0.0067880778
0.093340352 0.12817171 0.0064993789
0.092899397 0.12828632 0.0062355669
0.092474513 0.12840414 0.0059179273
0.092093781 0.12852678 0.0054468093
0.091721267 0.12865151 0.004948603
0.091309696 0.12877059 0.0045844717
0.090863131 0.12888409 0.0043399967
0.090417653 0.12899864 0.0040922472
0.08997044 0.12911309 0.0038506128
0.089506611 0.12922432 0.003665355
0.089044735 0.12933655 0.0034739142
0.08858373 0.12944879 0.0032796934
0.088129357 0.1295612 0.0030615916
0.087716065 0.12968023 0.0027037216
0.08733654 0.12980387 0.002229332
0.086892597 0.12991841 0.0019762497
0.08641991 0.13002846 0.0018216334
0.085944764 0.13013849 0.0016756179
0.085454516 0.13024724 0.0015818542
0.084963642 0.13035502 0.0014898693
0.0844739 0.13046275 0.001393972
0.083986901 0.13057159 0.0012889057
0.083499297 0.13068037 0.0011860421
0.08302702 0.13079049 0.0010300055
0.082555547 0.13090156 0.00087140687
0.082095332 0.13101383 0.00067449082
0.081668034 0.13113062 0.00036410987
0.081225544 0.13124518 0.00010605156
0.080777116 0.13135867 -0.00013217144
0.080304854 0.13146973 -0.00028735679
0.079844147 0.13158101 -0.00048391614
0.079388484 0.13169435 -0.00069633778
0.078919992 0.13180549 -0.00086523872
0.078471638 0.13191897 -0.0011033909
0.078039229 0.13203567 -0.0013956474
0.077611193 0.13215247 -0.0017032553
0.077202626 0.13227162 -0.0020782575
0.076792054 0.13239071 -0.002446013
0.076370202 0.13250765 -0.0027754451
0.075955838 0.1326267 -0.0031300448
0.075549126 0.13274588 -0.0035114465
0.075137489 0.13286495 -0.0038755033
0.074748725 0.13298741 -0.0043175514
0.074348941 0.13310769 -0.0047229803
0.073930971 0.13322566 -0.0050653522
0.073523812 0.13334581 -0.0054442678
0.073113844 0.13346496 -0.0058143642
0.07270918 0.13358416 -0.0062029483
0.072301961 0.13370429 -0.0065817935
0.071899779 0.13382453 -0.0069784112
0.07149446 0.13394377 -0.0073648579
0.071073905 0.13406166 -0.0076979185
0.070661537 0.13418074 -0.0080593433
0.070263967 0.13430205 -0.0084715337
0.069856122 0.13442121 -0.0088490257
0.06945207 0.13454142 -0.0092389798
0.069046833 0.13466062 -0.009625623
0.06863486 0.13477971 -0.0099884756
0.068221383 0.13489875 -0.010345975
0.067805901 0.13501677 -0.010697335
0.067385852 0.13513473 -0.01103242
0.066950306 0.13525039 -0.011314209
0.066513442 0.13536602 -0.011591575
0.066086754 0.13548289 -0.011904011
0.065671489 0.13560091 -0.012256136
0.065256946 0.13571994 -0.0126098
0.064845756 0.13583902 -0.012975372
0.064422883 0.13595594 -0.013301342
0.063994318 0.13607275 -0.013607125
0.063553199 0.13618731 -0.013870115
0.063104875 0.1363018 -0.01410781
0.062662363 0.13641639 -0.014366024
0.062207799 0.13652876 -0.014583068
0.061752688 0.13664208 -0.014797589
0.061294053 0.13675439 -0.015000351
0.06085125 0.13686897 -0.015257467
0.06041107 0.13698451 -0.015522894
0.05996846 0.13709909 -0.015780784
0.059521582 0.1372126 -0.016024444
0.059064608 0.13732591 -0.016232282
0.058606047 0.13743822 -0.016435124
0.058143925 0.1375495 -0.016626507
0.0576634 0.13765939 -0.016753543
0.057180684 0.13776828 -0.016873652
0.056687828 0.137876 -0.016958799
0.056201499 0.13798481 -0.017066134
0.055726554 0.13809484 -0.017212786
0.055257615 0.13820596 -0.017380059
0.054805446 0.13831939 -0.017604794
0.054334182 0.13843048 -0.017763756
0.053847712 0.1385383 -0.017871493
0.0533561 0.13864604 -0.017960999
0.052861217 0.13875373 -0.018038921
0.052365404 0.13886139 -0.018113453
0.051869009 0.13896808 -0.01818686
0.051355604 0.1390734 -0.018200818
0.050845284 0.13917886 -0.018225972
0.050333533 0.1392833 -0.018246792
0.049801569 0.1393863 -0.018196668
0.04926471 0.13948734 -0.018131249
0.04873113 0.13958935 -0.018076431
0.048195947 0.13969138 -0.018016063
0.047651913 0.13979222 -0.017925056
0.047116201 0.13989422 -0.0178627
0.04655369 0.13999182 -0.017709056
0.045981742 0.14008915 -0.017521581
0.045393903 0.14018331 -0.017280921
0.044804074 0.14027743 -0.017033011
0.044203322 0.14037031 -0.016747285
0.043587778 0.14046098 -0.016410932
0.042987164 0.14055386 -0.016125638
0.042420592 0.14065135 -0.015957564
0.041871283 0.14075115 -0.015848711
0.041297514 0.14084752 -0.015656181
0.040694036 0.14094035 -0.015360855
0.040091828 0.14103323 -0.015069726
0.039483391 0.14112404 -0.014758613
0.038896512 0.1412192 -0.01452023
0.03833947 0.14131786 -0.014385074
0.037817489 0.14142205 -0.014369781
0.037313685 0.14152761 -0.014417404
0.036807496 0.14163409 -0.014456498
0.036296695 0.14173852 -0.014480447
0.035776645 0.14184275 -0.014471768
0.035247803 0.14194585 -0.014432942
0.034711402 0.14204691 -0.014369159
0.034166634 0.14214773 -0.014275665
0.033641376 0.1422509 -0.014249492
0.033179376 0.14236315 -0.01444023
0.032787386 0.14248458 -0.014872033
0.032335043 0.14259796 -0.015096112
0.031816587 0.14270225 -0.015093117
0.030108493 0.14352155 -0.019895006
0.029699981 0.14364068 -0.020270083
0.029303215 0.14376201 -0.020684969
0.028885182 0.14387999 -0.021026988
0.028402165 0.14398885 -0.021146134
0.027937014 0.1441001 -0.021326978
0.027510446 0.1442169 -0.021639567
0.027137604 0.14434165 -0.022136845
0.026795194 0.1444699 -0.022739135
0.026428398 0.14459471 -0.023257252
0.026073277 0.14472178 -0.02381539
0.02583091 0.14486468 -0.024760555
0.025578331 0.14500543 -0.025671385
0.025293428 0.14514165 -0.026471235
0.025023326 0.14528012 -0.027321704
0.024711244 0.14541285 -0.028027724
0.024399031 0.14554562 -0.028733443
0.024055094 0.14567386 -0.029330257
0.023700241 0.14580089 -0.02988939
0.023334835 0.14592575 -0.030412693
0.022963453 0.14605051 -0.030914951
0.022573818 0.14617294 -0.031354088
0.022166766 0.14629214 -0.031734563
0.021750528 0.14641014 -0.032083049
0.021326382 0.14652799 -0.032403596
0.020891346 0.14664367 -0.0326874
0.020460039 0.14675944 -0.032984406
0.020030018 0.14687622 -0.033285189
0.019600399 0.14699301 -0.033587251
0.019163221 0.14710769 -0.033864219
0.018717811 0.14722219 -0.03411204
0.018276442 0.14733678 -0.034374289
0.017832231 0.14745133 -0.034626372
0.01737456 0.1475646 -0.034831684
0.016904265 0.14767472 -0.034995113
0.016423207 0.14778459 -0.035119876
0.015934389 0.14789242 -0.035219468
0.015461597 0.14800346 -0.03537295
0.015016555 0.14811704 -0.035623182
0.014572405 0.14823157 -0.035875339
0.014120714 0.14834496 -0.036102116
0.013661697 0.14845723 -0.0363033
0.013196633 0.14856942 -0.036483232
0.012723683 0.14867951 -0.036637276
0.012249998 0.14878953 -0.036788411
0.011769271 0.14889947 -0.036914662
0.011295057 0.14900951 -0.037064232
0.010814131 0.14911941 -0.0371897
0.010320663 0.14922711 -0.037272662
0.0098286616 0.14933486 -0.037360873
0.0093281297 0.14944145 -0.037419513
0.0088194655 0.14954692 -0.037450433
0.0083112055 0.14965236 -0.037482489
0.0077857533 0.14975554 -0.037455678
0.0072624916 0.14985876 -0.037436474
0.0067392336 0.14996198 -0.037417408
0.0062238583 0.15006731 -0.037424508
0.0057201115 0.15017284 -0.037472919
0.005218056 0.15027939 -0.037525948
0.0047100587 0.1503849 -0.037559412
0.0041842731 0.15048806 -0.03753126
0.003652635 0.15059112 -0.037482619
0.0031203208 0.15069318 -0.037432138
0.0025805281 0.15079413 -0.037356485
0.0020333519 0.15089394 -0.037255034
0.0014909273 0.15099479 -0.037169736
0.0009458838 0.15109566 -0.037075382
0.00040477607 0.1511966 -0.036994897
-0.0001467485 0.1512963 -0.036878284
-0.00073896628 0.15139034 -0.036621701
-0.0013552373 0.15148275 -0.036293261
-0.0020119818 0.15157688 -0.035886806
-0.0026387284 0.15167393 -0.035574745
-0.0032202695 0.15177575 -0.035405312
-0.0038029412 0.15187761 -0.035232235
-0.0043905536 0.15197851 -0.035043959
0.1194385 0.11944571 0.049035501
0.11908752 0.11957283 0.048462722
0.11876321 0.1197034 0.04779816
0.11842309 0.11983268 0.047188617
0.11809234 0.11996213 0.046546161
0.11775373 0.12009143 0.045931011
0.11742057 0.12022083 0.045297086
0.11708277 0.12035017 0.04467937
0.11674295 0.12047849 0.044067923
0.1163823 0.1206044 0.043528758
0.11602379 0.12073138 0.042982634
0.11566034 0.1208563 0.04245244
0.11530127 0.12098227 0.041907452
0.11496566 0.12111163 0.041282129
0.11466263 0.12124555 0.040544551
0.11438908 0.12138394 0.039706316
0.11413313 0.12152366 0.038806573
0.11382659 0.12165751 0.038081583
0.11350925 0.12178916 0.03739341
0.11317325 0.12191853 0.036769371
0.11281058 0.12204445 0.036237039
0.11243692 0.12216817 0.03574203
0.11205523 0.12229173 0.03527553
0.11164877 0.12241094 0.034893133
0.11124299 0.1225311 0.034509029
0.11082456 0.12264908 0.034168292
0.11040647 0.12276705 0.033826344
0.10997103 0.12288273 0.033543974
0.1095466 0.12299962 0.033223432
0.10910444 0.1231142 0.032964166
0.1086553 0.12322864 0.032729428
0.10821633 0.12334327 0.032458786
0.10778624 0.12346002 0.032158349
0.1073581 0.12357683 0.03185131
0.10691845 0.12369146 0.031582948
0.10645451 0.12380365 0.031398829
0.10596533 0.12391242 0.03130151
0.10545745 0.12401788 0.031268027
0.10492455 0.12411996 0.031320434
0.10436966 0.12421961 0.031449046
0.10378311 0.12431475 0.031686079
0.10322466 0.12441336 0.031826429
0.10273187 0.1245211 0.031741057
0.10234136 0.1246435 0.031304978
0.10226002 0.12480716 0.029804938
0.10200037 0.12494683 0.028918281
0.10168242 0.1250785 0.028232176
0.10134628 0.12520784 0.027608562
0.10098937 0.12533483 0.027056888
0.1006405 0.12546197 0.026476715
0.10030341 0.12559131 0.025856514
0.10072763 0.12582447 0.022619471
0.10061997 0.1259847 0.021210074
0.10034188 0.12612204 0.020387042
0.1002986 0.12629133 0.018756974
0.10016942 0.12644915 0.017422143
0.099974491 0.12659787 0.016313329
0.099679925 0.12673293 0.015546818
0.099346511 0.12686235 0.014913608
0.099019572 0.12699285 0.014258285
0.098853081 0.12714507 0.013051429
0.098549321 0.12727897 0.012316768
0.098192409 0.12740594 0.011765099
0.097807556 0.12752852 0.011308619
0.097428031 0.12765211 0.010834367
0.097028323 0.12777242 0.010428869
0.096623622 0.12789261 0.01004121
0.096242093 0.12801521 0.0095732147
0.095933266 0.12814803 0.0088556176
0.095574796 0.12827401 0.0083085736
0.095171824 0.12839425 0.0079146521
0.094747283 0.12851211 0.0075953892
0.094330706 0.1286301 0.0072481064
0.093896538 0.12874582 0.0069614025
0.09346474 0.12886254 0.0066669453
0.093022503 0.12897711 0.0064078895
0.092591271 0.12909292 0.0061105257
0.092204884 0.1292154 0.0056596622
0.091848761 0.12934239 0.0051052896
0.091448709 0.12946269 0.0047011347
0.09100689 0.12957728 0.0044403775
0.090562135 0.12969178 0.0041904235
0.090110578 0.12980522 0.0039632246
0.089653783 0.12991852 0.0037548589
0.089195296 0.13003083 0.0035516853
0.088738002 0.13014317 0.0033439649
0.088287793 0.13025758 0.0031129196
0.087885424 0.13037778 0.0027170833
0.087507509 0.13050145 0.0022371458
0.087061279 0.130615 0.0019911798
0.086598396 0.13072719 0.001803359
0.086120203 0.13083713 0.0016684318
0.085635401 0.13094603 0.0015556198
0.085158393 0.13105598 0.0014162846
0.084673986 0.13116485 0.0013020486
0.084186859 0.13127366 0.001197408
0.083702855 0.13138252 0.0010820339
0.083245784 0.13149582 0.0008746637
0.082783312 0.13160804 0.00068542361
0.082348213 0.13172376 0.00040170457
0.081928365 0.13184071 6.5161847e-05
0.08149375 0.13195738 -0.00021934602
0.081037864 0.13206975 -0.00043183006
0.080574326 0.13218193 -0.00061709154
0.080109373 0.13229316 -0.00079857651
0.079648033 0.13240537 -0.0009915866
0.079178222 0.13251647 -0.0011558048
0.078737199 0.13263106 -0.0014189808
0.078292385 0.13274559 -0.0016690046
0.077859633 0.13286233 -0.0019601886
0.077450588 0.13298148 -0.0023335558
0.077034816 0.13309945 -0.0026835403
0.076619722 0.13321847 -0.0030352301
0.07621035 0.13333762 -0.0034072413
0.075800844 0.13345672 -0.0037788353
0.075401388 0.13357702 -0.0041851914
0.075002104 0.1336983 -0.0045911223
0.074604377 0.13381867 -0.0050037294
0.074193604 0.13393776 -0.0053708428
0.073785648 0.13405788 -0.0057469141
0.073374197 0.13417597 -0.0061123231
0.072967239 0.13429613 -0.0064920168
0.072558932 0.13441527 -0.0068677356
0.072139025 0.13453323 -0.0072036358
0.071730241 0.13465236 -0.0075777182
0.071306095 0.13477023 -0.007898408
0.070891716 0.13488828 -0.0082534365
0.070486411 0.13500845 -0.008639033
0.070085362 0.13512874 -0.0090395659
0.069674052 0.13524783 -0.0094048344
0.069255032 0.13536577 -0.0097435052
0.068832301 0.13548267 -0.010069905
0.068410605 0.1356006 -0.010399197
0.067989409 0.13571848 -0.010730241
0.06755551 0.1358342 -0.011018089
0.067113519 0.13594878 -0.011278024
0.066667557 0.13606331 -0.011524008
0.066242799 0.13618016 -0.011843334
0.06582664 0.13629913 -0.01219119
0.065404989 0.13641609 -0.012521553
0.064995691 0.13653618 -0.012892958
0.064564906 0.13665195 -0.013191819
0.064135425 0.13676873 -0.013494303
0.063689597 0.13688324 -0.013740858
0.063238561 0.13699669 -0.013969637
0.062791057 0.13711016 -0.014210858
0.062335279 0.13722347 -0.01442296
0.061871652 0.13733572 -0.014608036
0.061404448 0.13744685 -0.014781401
0.060956698 0.13756034 -0.015021886
0.06051084 0.13767484 -0.015268049
0.060074937 0.13779049 -0.015548798
0.059636686 0.13790613 -0.01582112
0.059183564 0.1380195 -0.016042599
0.05872437 0.13813181 -0.016243411
0.058253977 0.13824287 -0.016405402
0.057776909 0.13835286 -0.016544657
0.057293799 0.13846177 -0.016663479
0.056804907 0.13857052 -0.016761623
0.05631284 0.13867827 -0.016849475
0.055834543 0.13878822 -0.016984366
0.055365939 0.13889936 -0.017152838
0.054906081 0.13901164 -0.017351227
0.054431837 0.13912164 -0.017500401
0.053942595 0.13923042 -0.017597485
0.053456392 0.13933925 -0.017705265
0.052965973 0.13944702 -0.017799035
0.052466575 0.13955462 -0.017860901
0.05195846 0.13966008 -0.017893653
0.051444944 0.13976544 -0.017907292
0.050924141 0.13986868 -0.017896693
0.050391514 0.13997173 -0.017844573
0.049848069 0.1400726 -0.017755769
0.04930095 0.14017242 -0.01765481
0.048781309 0.14027667 -0.017647406
0.048267793 0.14038205 -0.017661192
0.047723483 0.14048287 -0.017569192
0.047171447 0.14058261 -0.017450742
0.046599507 0.14068 -0.017263688
0.046017341 0.14077523 -0.017042153
0.045433111 0.14087039 -0.016813301
0.044840168 0.14096443 -0.016554087
0.044222049 0.141056 -0.016207721
0.043619774 0.1411489 -0.015916802
0.043035418 0.14124404 -0.015687238
0.042480968 0.14134274 -0.015560967
0.041927535 0.14144246 -0.015437755
0.041363914 0.14154097 -0.015279214
0.040765289 0.14163391 -0.015001157
0.040159095 0.1417267 -0.014695952
0.039562225 0.14182064 -0.014423166
0.038982719 0.14191595 -0.014211156
0.03844136 0.14201783 -0.014128681
0.03793456 0.14212334 -0.014166137
0.037445832 0.14223212 -0.014264946
0.036947228 0.14233872 -0.014330627
0.036439989 0.14244518 -0.014365459
0.035926782 0.1425496 -0.0143813
0.035395619 0.14265263 -0.014333873
0.034856912 0.14275455 -0.014261211
0.034311194 0.14285441 -0.014165013
0.033778097 0.14295743 -0.014111258
0.033304218 0.14306746 -0.014261472
0.032887314 0.14318548 -0.014607824
0.032449361 0.14330113 -0.01488138
0.030709259 0.14411493 -0.019573927
0.030286677 0.1442318 -0.019900875
0.029922299 0.1443577 -0.020426951
0.029550843 0.14448243 -0.020929139
0.029152527 0.14460278 -0.021339264
0.028683051 0.14471388 -0.021504542
0.028195463 0.14482263 -0.021607269
0.027759969 0.14493833 -0.021889567
0.027381849 0.14506198 -0.022368722
0.027041297 0.1451903 -0.022977687
0.026709437 0.14532071 -0.023615524
0.0264192 0.14545582 -0.024397179
0.026155096 0.1455954 -0.025268123
0.025870599 0.14573163 -0.026069257
0.025578763 0.14586674 -0.02684522
0.025297653 0.14600302 -0.027658507
0.024994232 0.14613692 -0.028394379
0.024677299 0.1462696 -0.029083543
0.024330083 0.1463968 -0.029669613
0.023967832 0.14652269 -0.030203227
0.023589443 0.14664635 -0.03068167
0.023188666 0.14676663 -0.031083331
0.022783104 0.14688678 -0.031467795
0.022359263 0.14700365 -0.031790122
0.021937903 0.14712159 -0.03212091
0.021503143 0.14723729 -0.032405552
0.021057863 0.14735179 -0.032653801
0.020622902 0.14746751 -0.032937948
0.020191722 0.14758328 -0.033235386
0.019763496 0.14770006 -0.033542361
0.019336868 0.1478169 -0.03385501
0.018897124 0.14793248 -0.034121819
0.018464152 0.14804824 -0.034413215
0.018020801 0.14816277 -0.034668215
0.017566063 0.14827615 -0.034883901
0.017100703 0.14838733 -0.035063967
0.016630497 0.14849839 -0.035226341
0.016153492 0.14860839 -0.035366099
0.015679434 0.1487194 -0.035515096
0.015220745 0.14883171 -0.035717778
0.014758539 0.14894393 -0.035907872
0.014294916 0.14905517 -0.036093764
0.013822519 0.14916621 -0.036248665
0.01334671 0.14927623 -0.036392406
0.012865783 0.14938614 -0.03651816
0.012383041 0.14949501 -0.036637876
0.011902175 0.14960493 -0.036763985
0.011420966 0.14971386 -0.036889307
0.010937226 0.14982274 -0.037005682
0.010442761 0.14993042 -0.037085157
0.009946703 0.15003808 -0.03715894
0.0094513791 0.15014575 -0.037235215
0.0089532407 0.15025242 -0.037302673
0.008438264 0.15035769 -0.037310775
0.0079107573 0.15046082 -0.037276641
0.007376709 0.15056285 -0.037220184
0.0068452051 0.15066594 -0.037172116
0.0063204831 0.15076911 -0.037147652
0.0058078347 0.15087448 -0.037164353
0.0052985111 0.15097994 -0.037192993
0.0047893813 0.15108538 -0.037222132
0.0042731883 0.15118973 -0.037227381
0.003748822 0.1512939 -0.037203413
0.0032115178 0.15139584 -0.037135236
0.0026643435 0.15149568 -0.037034061
0.0021101804 0.15159534 -0.036907934
0.0015570065 0.15169503 -0.036785573
0.0010014428 0.1517937 -0.036655698
0.00045771804 0.15189458 -0.03656574
-0.00013402198 0.15198959 -0.036310222
-0.00078003015 0.1520773 -0.035876974
-0.0014027655 0.15217532 -0.03557729
-0.0020111166 0.15227523 -0.035322651
-0.002572028 0.15237905 -0.035218425
-0.0031404076 0.15248284 -0.035090167
0.1192348 0.12027185 0.048556473
0.11888911 0.12040003 0.047965776
0.11856899 0.12053165 0.047287278
0.11826555 0.12066554 0.046551403
0.11793333 0.120795 0.045913648
0.11759792 0.12092435 0.045287687
0.11727178 0.1210549 0.044629525
0.11692919 0.12118316 0.044028014
0.11656752 0.12130906 0.043492336
0.11621019 0.12143511 0.042941105
0.11584006 0.12155986 0.042434644
0.11549866 0.12168812 0.041828737
0.11517404 0.1218187 0.041165382
0.11489972 0.12195612 0.040328771
0.11464535 0.12209685 0.039424274
0.1143631 0.12223312 0.038615029
0.11402915 0.12236249 0.037983947
0.11368382 0.12249072 0.037392046
0.11333001 0.12261677 0.036828507
0.11294876 0.12274039 0.036360234
0.11256966 0.12286398 0.035884563
0.11218375 0.12298651 0.035432067
0.11177357 0.12310562 0.03506289
0.11136732 0.12322482 0.034679711
0.1109498 0.12334283 0.034335557
0.11053512 0.12346184 0.033982459
0.11009797 0.12357747 0.033706199
0.10966088 0.12369312 0.033429582
0.10922453 0.12380879 0.033150479
0.1087755 0.12392227 0.032914609
0.10832736 0.12403668 0.032676671
0.10789559 0.12415247 0.032381151
0.1074743 0.12427037 0.032050427
0.1070376 0.12438604 0.031772539
0.10658492 0.12449943 0.031549525
0.10610651 0.12460937 0.031415101
0.10560525 0.12471597 0.031358805
0.10507149 0.12481893 0.031415258
0.10452046 0.12491869 0.031530216
0.10393839 0.12501489 0.031752396
0.10337364 0.1251134 0.031914849
0.10286332 0.12521881 0.031889834
0.10244162 0.12533672 0.031560678
0.10224539 0.12548445 0.030455485
0.10208657 0.12563778 0.029222254
0.10179859 0.125773 0.028432641
0.10148644 0.12590574 0.027726699
0.1011437 0.12603399 0.027125623
0.1007871 0.12616004 0.026571896
0.10044023 0.12628819 0.025985319
0.10032331 0.12644726 0.024607982
0.10061677 0.12666127 0.021819398
0.10036237 0.12680104 0.020913903
0.10015871 0.12694861 0.019835293
0.10017104 0.12712483 0.018013202
0.099946633 0.1272691 0.017005052
0.099711239 0.12741217 0.016035222
0.099415071 0.12754622 0.015273687
0.099077396 0.12767553 0.014655546
0.098795228 0.12781179 0.013846097
0.098598465 0.12795953 0.012742893
0.098265588 0.12808895 0.012107831
0.097887531 0.12821257 0.011628463
0.097513825 0.12833734 0.011134096
0.09712711 0.12845981 0.010684588
0.096726663 0.12858009 0.010282
0.096342146 0.12870263 0.0098244557
0.0960216 0.12883423 0.0091472389
0.095674641 0.12896143 0.008560448
0.095295474 0.12908506 0.0080847079
0.09488643 0.12920418 0.0077116219
0.094481461 0.12932436 0.0073249573
0.094050623 0.12944016 0.0070263064
0.093616739 0.12955685 0.0067393193
0.093171246 0.12967038 0.0064908573
0.092740424 0.12978712 0.0061931992
0.092335522 0.12990732 0.0058060372
0.091957606 0.13003099 0.0053259619
0.09156815 0.13015245 0.0048851967
0.091140456 0.13026926 0.0045765219
0.090702839 0.13038489 0.0043017576
0.090253867 0.13049836 0.0040656673
0.089803673 0.13061279 0.0038346266
0.08935412 0.13072623 0.003600738
0.088905573 0.13084069 0.0033637946
0.088464946 0.13095526 0.0030991947
0.088051781 0.13107432 0.002740615
0.087661587 0.1311958 0.0023021996
0.087233499 0.13131261 0.0019946601
0.086772352 0.13142486 0.001800729
0.086296104 0.13153583 0.0016594734
0.085820697 0.13164583 0.0015145941
0.085357629 0.13175802 0.0013275547
0.084886685 0.13186914 0.001167112
0.084413275 0.13197918 0.0010149824
0.083942868 0.13209027 0.00085311383
0.083485067 0.13220356 0.00064808782
0.083021246 0.13231477 0.00046297256
0.08259549 0.13243259 0.00014797132
0.082186386 0.13255173 -0.00022490136
0.081756771 0.13266851 -0.00052710716
0.081297748 0.13278078 -0.00072843488
0.080830529 0.13289192 -0.00090153702
0.080365673 0.13300413 -0.0010825265
0.079904318 0.13311636 -0.0012756772
0.079438776 0.13322759 -0.0014548181
0.078999095 0.13334315 -0.0017221207
0.078549065 0.13345656 -0.0019542323
0.078112587 0.13357225 -0.0022330475
0.077693418 0.13369019 -0.0025711576
0.077265657 0.133807 -0.0028797626
0.076864213 0.13392726 -0.003279007
0.07645572 0.13404737 -0.0036532329
0.076043531 0.1341655 -0.0040165684
0.075636573 0.13428564 -0.0043961275
0.075235337 0.1344059 -0.004796016
0.074829705 0.13452609 -0.0051805442
0.074421652 0.13464522 -0.0055571157
0.074010946 0.13476433 -0.0059244409
0.073594905 0.13488233 -0.0062737111
0.073193125 0.13500258 -0.0066718897
0.072786905 0.13512275 -0.007054219
0.072363198 0.13523965 -0.0073769717
0.071956433 0.13535978 -0.0077574477
0.071535408 0.13547769 -0.0080891587
0.071118377 0.13559569 -0.0084348014
0.070705809 0.13571477 -0.0087957317
0.070297681 0.1358339 -0.0091719544
0.069887653 0.13595305 -0.0095418226
0.069468111 0.136071 -0.0098786391
0.069043741 0.13618787 -0.010199254
0.068613246 0.13630465 -0.010498265
0.068180442 0.13642035 -0.010789916
0.067741275 0.13653597 -0.011059089
0.067295089 0.13665044 -0.011304173
0.066843815 0.13676392 -0.011532221
0.066413641 0.13688065 -0.011832324
0.065993562 0.13699858 -0.012167277
0.065570317 0.13711548 -0.012491813
0.065158203 0.13723457 -0.012854245
0.064718693 0.13735014 -0.013122081
0.064285725 0.13746589 -0.013413195
0.063836038 0.13757932 -0.013646791
0.063385725 0.13769375 -0.013877383
0.062927485 0.13780607 -0.014081561
0.062466521 0.13791831 -0.014276022
0.061998982 0.13802946 -0.014448198
0.061531749 0.1381416 -0.014620496
0.061081868 0.13825503 -0.014853443
0.060626324 0.13836837 -0.015066429
0.060178507 0.13848189 -0.015306551
0.059740361 0.13859746 -0.015579189
0.059290033 0.1387109 -0.015810492
0.05882382 0.13882309 -0.015986521
0.05834401 0.138933 -0.016116049
0.057868708 0.13904302 -0.016261529
0.057383846 0.13915187 -0.016374124
0.056897115 0.13926068 -0.016479902
0.056409273 0.13936947 -0.016581897
0.055937711 0.13948055 -0.016739886
0.05547579 0.13959278 -0.016930945
0.055007946 0.1397039 -0.017102022
0.054523472 0.13981374 -0.017215088
0.054033007 0.13992152 -0.017308477
0.053541619 0.14003025 -0.017398056
0.053045232 0.14013688 -0.017471317
0.052539263 0.14024338 -0.017510895
0.052018996 0.14034764 -0.017501457
0.051497448 0.14045185 -0.01748755
0.05096991 0.14055498 -0.017453305
0.050422955 0.14065577 -0.017351918
0.049881596 0.14075767 -0.017269585
0.049355339 0.14086081 -0.017239934
0.048845422 0.14096625 -0.017266374
0.048323575 0.14107044 -0.017251506
0.047780294 0.1411723 -0.017162137
0.047221396 0.14127089 -0.017020017
0.046645585 0.14136818 -0.016819175
0.046061035 0.14146337 -0.016589111
0.045481216 0.1415596 -0.016375042
0.044882953 0.14165354 -0.016097348
0.044276487 0.14174633 -0.015791431
0.04367175 0.14183913 -0.015491487
0.04308686 0.14193431 -0.015260071
0.042532168 0.14203399 -0.015132519
0.04199088 0.14213584 -0.015050265
0.041420989 0.14223327 -0.014870389
0.040816054 0.14232609 -0.014569806
0.040220514 0.14242005 -0.014301566
0.039630044 0.14251511 -0.014050534
0.03905876 0.14261249 -0.013865615
0.038532503 0.14271568 -0.013836099
0.038041726 0.1428244 -0.01392745
0.037572779 0.14293551 -0.01409472
0.037091106 0.14304444 -0.014218411
0.036590457 0.14315197 -0.014276061
0.036078148 0.14325738 -0.014293967
0.035540909 0.14335932 -0.014225996
0.034995008 0.14346014 -0.014128594
0.034452431 0.14356099 -0.014042706
0.033914071 0.14366299 -0.013970961
0.033424675 0.14377172 -0.014067357
0.032986928 0.14388737 -0.014341552
0.032553162 0.14400308 -0.014629968
0.030888129 0.14482614 -0.019581504
0.030478951 0.14494529 -0.01995416
0.030133598 0.14507255 -0.02054706
0.029784076 0.14520065 -0.021123968
0.029399626 0.1453232 -0.021581724
0.028956268 0.14543773 -0.021836869
0.028472658 0.14554662 -0.021953663
0.028027449 0.14566113 -0.02220241
0.027643993 0.14578368 -0.022663362
0.027312927 0.14591414 -0.023304185
0.027035225 0.14605145 -0.024128636
0.02676025 0.14618884 -0.024962544
0.026463471 0.14632291 -0.025722153
0.026150335 0.14645565 -0.026424464
0.025872733 0.14659202 -0.027250197
0.025605492 0.14673054 -0.02811069
0.025304861 0.14686447 -0.028856516
0.024956543 0.14699264 -0.029437825
0.024589948 0.14711747 -0.029956866
0.024208345 0.14724009 -0.030424926
0.02382157 0.14736257 -0.030874226
0.023411669 0.14748172 -0.031244531
0.022995312 0.14760065 -0.031591605
0.022563603 0.14771643 -0.031887196
0.022128981 0.14783216 -0.03217255
0.021682963 0.14794666 -0.032418311
0.02122895 0.14805999 -0.03263649
0.020789277 0.14817561 -0.032903787
0.020358305 0.14829138 -0.033201862
0.019935083 0.14840925 -0.033525825
0.019521434 0.14852729 -0.03388349
0.019097481 0.14864516 -0.034204815
0.018664382 0.1487609 -0.034495506
0.0182187 0.1488754 -0.034742467
0.017757155 0.14898767 -0.034934837
0.017297737 0.14909992 -0.035135027
0.01683281 0.14921211 -0.035315242
0.016364597 0.14932325 -0.035485279
0.015885465 0.1494332 -0.035617076
0.015409985 0.1495432 -0.035762034
0.014939114 0.1496543 -0.035922408
0.014463532 0.14976522 -0.036065795
0.013977929 0.14987409 -0.03617591
0.013488517 0.1499819 -0.036273155
0.013002281 0.15009168 -0.036379714
0.012511474 0.15019944 -0.036472056
0.01202275 0.15030822 -0.036571011
0.011535951 0.15041701 -0.036676716
0.011048426 0.15052582 -0.036779508
0.010557019 0.15063357 -0.036869928
0.010060758 0.15074122 -0.036943074
0.0095664365 0.15084891 -0.037022829
0.0090661263 0.1509565 -0.037081689
0.0085497303 0.1510608 -0.037085876
0.0080276942 0.15116502 -0.037070084
0.0075003812 0.15126814 -0.037036594
0.0069604171 0.15137005 -0.036959171
0.0064193895 0.15147193 -0.036878191
0.0058932779 0.15157513 -0.03684881
0.0053838165 0.15168053 -0.036876746
0.0048693055 0.1517859 -0.036887188
0.0043462021 0.15189007 -0.036867563
0.0038171662 0.15199319 -0.03682781
0.0032883333 0.15209626 -0.036789007
0.0027342597 0.15219595 -0.036663394
0.002167399 0.15229343 -0.036494303
0.0016117105 0.15239306 -0.036362842
0.0010450659 0.15249152 -0.036193531
0.00045647938 0.15258658 -0.035949212
-0.00018052291 0.15267491 -0.03553848
-0.00081124343 0.15277277 -0.035211492
-0.0013859933 0.15287562 -0.03506336
-0.0019368501 0.15298134 -0.034990169
-0.0025026314 0.1530851 -0.034870096
0.12058038 0.12060997 0.049869224
0.12021685 0.12073587 0.049339805
0.11984657 0.12085965 0.048833065
0.11948273 0.12098554 0.04830486
0.11912073 0.12111147 0.047770116
0.11879736 0.12124204 0.047102142
0.11848684 0.12137482 0.046390656
0.11814973 0.1215032 0.045769598
0.11781718 0.1216326 0.045133613
0.11748604 0.12176304 0.044493008
0.11713544 0.12189016 0.043918807
0.11677957 0.12201618 0.043362726
0.11641838 0.12214214 0.042825136
0.11606996 0.1222693 0.042243462
0.11575241 0.122401 0.041555654
0.11545038 0.12253491 0.040814742
0.11517385 0.12267134 0.039985318
0.11486964 0.12280519 0.039252285
0.11454634 0.12293578 0.038584098
0.11419939 0.12306298 0.037997026
0.11383219 0.12318781 0.037480053
0.11346208 0.12331259 0.036973312
0.11307557 0.12343511 0.036522735
0.11268818 0.12355759 0.036075648
0.11229628 0.12367901 0.035643626
0.11189103 0.1237992 0.035257533
0.11147793 0.12391727 0.034898166
0.11105987 0.12403525 0.034555726
0.11064705 0.1241543 0.034196217
0.11021776 0.12427109 0.033892661
0.10977314 0.1243856 0.033642281
0.10933419 0.12450123 0.033372208
0.10888543 0.12461471 0.03313534
0.1084369 0.12472916 0.032898534
0.10799082 0.12484364 0.032652851
0.10757557 0.1249617 0.03230102
0.10715043 0.12507953 0.031983811
0.10670322 0.12519398 0.031742178
0.10623248 0.12530506 0.031581651
0.10573569 0.1254127 0.031510357
0.1052085 0.12551583 0.031543426
0.10466849 0.12561776 0.03162092
0.10409747 0.12571514 0.031804986
0.1035268 0.1258135 0.031988557
0.10300649 0.12591773 0.031998228
0.10257986 0.12603459 0.031685431
0.10233379 0.12617548 0.030751716
0.1021421 0.12632428 0.029631305
0.10187344 0.1264618 0.028774723
0.10159341 0.1265991 0.027958591
0.10127251 0.12672974 0.027282014
0.10092358 0.12685689 0.026701774
0.10056923 0.12698393 0.026141066
0.10035829 0.12712939 0.025086556
0.10055105 0.12732975 0.022643555
0.10036456 0.12747864 0.02150495
0.10011108 0.12761842 0.020596471
0.10014832 0.12779713 0.018688083
0.099916585 0.12794025 0.017705094
0.099695176 0.12808457 0.016686495
0.099469051 0.1282288 0.015684597
0.099181794 0.128364 0.014892348
0.098852724 0.12849447 0.014244565
0.09859699 0.12863421 0.013343905
0.09832342 0.12877163 0.012504953
0.097973011 0.12889877 0.011930109
0.097613737 0.12902474 0.01138577
0.097240686 0.12914845 0.010888836
0.096858308 0.12927201 0.010424607
0.096475452 0.12939459 0.0099613043
0.096124709 0.12952171 0.0093876729
0.095795408 0.12965123 0.0087398207
0.095444679 0.12977834 0.0081663253
0.095053844 0.12990077 0.0077311741
0.094654925 0.13002107 0.007322968
0.094229691 0.13013794 0.0070055509
0.093797609 0.13025464 0.0067120874
0.093355186 0.13036923 0.0064535365
0.092919566 0.13048488 0.0061720852
0.092494681 0.13060272 0.0058540227
0.092080027 0.13072079 0.0054995697
0.091679186 0.13084105 0.0050985431
0.091266759 0.13096011 0.0047373297
0.09084899 0.13107809 0.0043941773
0.09041664 0.13119482 0.0041017067
0.089979626 0.13131049 0.0038250275
0.08954519 0.13142619 0.0035390304
0.08910358 0.13154174 0.0032784855
0.088670015 0.13165745 0.0029895725
0.088234596 0.13177316 0.0027072011
0.087814428 0.1318911 0.0023722956
0.087397926 0.13200909 0.0020249439
0.086946189 0.13212347 0.0017992314
0.086487167 0.13223574 0.0015979037
0.086030513 0.13234907 0.0013889717
0.085586421 0.13246359 0.0011366028
0.085132219 0.13257696 0.00091906544
0.084659398 0.13268703 0.00076473411
0.084187798 0.13279811 0.00060684886
0.083716057 0.13290916 0.00044966582
0.083257064 0.13302241 0.00024905056
0.082832828 0.1331393 -7.2136521e-05
0.082426809 0.13325946 -0.00045496132
0.081998773 0.13337629 -0.00076285563
0.081542805 0.13348864 -0.00097512547
0.081077673 0.13360079 -0.00115484
0.080620408 0.13371406 -0.001361574
0.080169067 0.13382751 -0.0015894133
0.079723246 0.13394201 -0.0018356722
0.079267375 0.1340553 -0.0020473069
0.078808486 0.13416761 -0.0022492004
0.078374989 0.13428333 -0.0025386093
0.077940188 0.13440001 -0.0028220485
0.077520087 0.13451797 -0.0031573111
0.077128902 0.13463937 -0.0035918187
0.07671766 0.13475847 -0.0039572972
0.076298498 0.13487642 -0.0042954097
0.07588239 0.13499446 -0.0046446011
0.075459175 0.13511235 -0.0049684178
0.075042926 0.13523035 -0.0053170519
0.074627839 0.13534936 -0.0056687356
0.074215323 0.13546744 -0.0060304459
0.073793165 0.13558531 -0.0063579613
0.073399656 0.13570674 -0.0067844354
0.073000334 0.135827 -0.0071913628
0.072587632 0.13594608 -0.0075517213
0.07218267 0.13606626 -0.0079382462
0.071764633 0.13618425 -0.0082806852
0.071335614 0.13630101 -0.0085846689
0.07091631 0.13641903 -0.0089226337
0.070501588 0.13653801 -0.0092755044
0.070091121 0.13665709 -0.0096438378
0.069677189 0.13677517 -0.01000053
0.069251239 0.13689202 -0.010315454
0.068817869 0.13700871 -0.010604315
0.06838122 0.13712436 -0.010882459
0.06794817 0.13724013 -0.011173219
0.067497127 0.13735451 -0.011401188
0.067042395 0.13746689 -0.011617819
0.066606559 0.13758352 -0.011897825
0.066176929 0.13769934 -0.012200581
0.065757751 0.13781729 -0.012538846
0.065338291 0.13793524 -0.012875996
0.064894445 0.13805076 -0.01312855
0.064451747 0.1381653 -0.013385984
0.063999161 0.13827874 -0.013609451
0.063546747 0.13839209 -0.013833317
0.063083336 0.1385043 -0.014019148
0.062614605 0.13861541 -0.014187044
0.062147301 0.13872755 -0.014359137
0.061679918 0.13883869 -0.014531852
0.061220173 0.13895099 -0.014730687
0.060765821 0.13906433 -0.014947808
0.06031451 0.13917872 -0.015174776
0.059863951 0.13929217 -0.015405188
0.059403162 0.1394044 -0.015600447
0.058939058 0.13951658 -0.015783882
0.058462705 0.13962661 -0.015925651
0.057982903 0.13973652 -0.016055182
0.057499994 0.1398464 -0.016173679
0.057010774 0.13995515 -0.01627088
0.056523595 0.14006394 -0.016375154
0.056049969 0.14017497 -0.016525686
0.055585634 0.14028618 -0.016709074
0.055113953 0.14039724 -0.016866621
0.054628227 0.14050704 -0.016975194
0.054133225 0.14061472 -0.017052541
0.053634513 0.14072135 -0.017117761
0.053129163 0.14082785 -0.017159525
0.052623022 0.14093432 -0.01719843
0.052099932 0.14103849 -0.017178942
0.051566321 0.14114152 -0.017123174
0.051035021 0.14124456 -0.017075609
0.050500993 0.14134757 -0.017018307
0.049956288 0.14144839 -0.016925026
0.049427394 0.14155151 -0.016885843
0.048915271 0.14165686 -0.016904254
0.048389707 0.141761 -0.016876163
0.047843877 0.14186184 -0.016778972
0.047286723 0.14196147 -0.016642395
0.046713386 0.14205879 -0.016450154
0.046145506 0.14215721 -0.016276542
0.045561563 0.14225337 -0.016047973
0.044951651 0.14234608 -0.015729684
0.04434672 0.1424389 -0.015429099
0.043742336 0.14253269 -0.015129512
0.043134678 0.14262544 -0.014819469
0.042570729 0.14272395 -0.014659438
0.042039756 0.14282702 -0.01461336
0.041476801 0.14292553 -0.014456951
0.040870804 0.14301832 -0.014152667
0.040278271 0.14311332 -0.013894315
0.039696537 0.14320956 -0.013673348
0.039140578 0.14330916 -0.013540899
0.038615745 0.14341334 -0.01351544
0.038130943 0.14352217 -0.013627973
0.03768735 0.1436377 -0.013881548
0.037225869 0.14374994 -0.014074134
0.036734596 0.14385769 -0.01416484
0.0362253 0.14396411 -0.014192626
0.03568726 0.14406605 -0.014122096
0.035133962 0.14416575 -0.01399917
0.034593139 0.14426762 -0.013918406
0.034055721 0.14437057 -0.013849508
0.033560861 0.14447825 -0.013927418
0.03149255 0.14541961 -0.019273292
0.031055797 0.14553526 -0.019550977
0.030668814 0.14565778 -0.01999991
0.030347846 0.14578842 -0.020676274
0.030016564 0.14591786 -0.021317162
0.029634058 0.14604139 -0.021780539
0.029222757 0.14616048 -0.022145804
0.028772 0.14627394 -0.022375848
0.028319716 0.14638737 -0.022600276
0.027926069 0.14650871 -0.023026183
0.027618378 0.14664158 -0.023747694
0.027388036 0.14678471 -0.02473544
0.027075816 0.14691746 -0.025441315
0.026759595 0.14704916 -0.026133534
0.026459895 0.14718316 -0.026882906
0.026212435 0.14732403 -0.027811721
0.025919247 0.14745814 -0.028583702
0.025585897 0.14758755 -0.029217407
0.025212858 0.14771226 -0.029713493
0.024838328 0.147836 -0.030205578
0.024455473 0.14795856 -0.030668877
0.024056107 0.14807986 -0.031074595
0.023648657 0.14819901 -0.031453509
0.023230825 0.14831699 -0.03179631
0.022793602 0.14843263 -0.032072354
0.022346798 0.14854711 -0.032315131
0.021888662 0.14866041 -0.032519083
0.021432102 0.14877273 -0.032729149
0.020988014 0.14888728 -0.032981809
0.020555601 0.149004 -0.03327392
0.020140957 0.14912204 -0.033628091
0.01972447 0.14924105 -0.033975158
0.019295581 0.14935784 -0.034279715
0.018862415 0.14947356 -0.0345699
0.018408798 0.1495869 -0.034789644
0.017947525 0.14969915 -0.034983009
0.017484255 0.14981134 -0.035169404
0.017021779 0.14992356 -0.035358649
0.016553897 0.15003473 -0.035529748
0.016071513 0.15014461 -0.035650108
0.015587865 0.15025444 -0.035765979
0.015114843 0.1503645 -0.035919532
0.014627249 0.1504733 -0.036022395
0.014135203 0.150582 -0.036109548
0.013640941 0.15068968 -0.036189377
0.013146418 0.15079735 -0.036268495
0.012640505 0.15090387 -0.0363083
0.012135784 0.15101036 -0.036352366
0.011639061 0.151118 -0.036423735
0.011147548 0.15122673 -0.036512736
0.010659824 0.15133554 -0.036615033
0.010164763 0.15144321 -0.036692161
0.0096697034 0.15155086 -0.036769573
0.0091672698 0.15165837 -0.036820609
0.0086573465 0.15176381 -0.036847051
0.0081445621 0.15186918 -0.036863327
0.0076242713 0.15197441 -0.036853075
0.0070801685 0.15207528 -0.036761716
0.0065348698 0.15217607 -0.036666095
0.0060039042 0.15227912 -0.036619585
0.0054815272 0.15238333 -0.036602877
0.004947708 0.15248635 -0.036546346
0.0044232709 0.15259051 -0.036522318
0.0038934471 0.15269358 -0.036479879
0.0033506686 0.15279542 -0.036392335
0.0028034588 0.15289621 -0.036290254
0.002230973 0.15299359 -0.036101203
0.0016509173 0.15308984 -0.035886172
0.0010435609 0.1531826 -0.035577018
0.00039023999 0.15326956 -0.035109483
-0.0002460992 0.15336637 -0.034763422
-0.00081520714 0.15347113 -0.034631941
-0.0013584225 0.1535778 -0.034582686
0.12227556 0.12082095 0.051759522
0.12190837 0.12094577 0.051242404
0.12152769 0.1210684 0.050771497
0.12115352 0.12119308 0.050279189
0.1207857 0.12131794 0.049763992
0.12044764 0.12144627 0.049146421
0.12010249 0.12157447 0.048553869
0.11976454 0.12170286 0.047935735
0.11942108 0.12183105 0.047337566
0.11909395 0.12196061 0.046681967
0.11876962 0.12209117 0.046017621
0.118435 0.12222056 0.045388389
0.11810352 0.12235 0.044748567
0.11775251 0.12247714 0.044175785
0.1173953 0.12260313 0.04362426
0.11703898 0.12273015 0.043070246
0.11668225 0.12285618 0.042517226
0.11635102 0.12298562 0.041876119
0.11602986 0.12311625 0.041200537
0.1157115 0.12324791 0.040515713
0.11538409 0.12337842 0.03986188
0.11504455 0.12350674 0.039249573
0.11470072 0.123634 0.038651627
0.11433652 0.12375984 0.038124908
0.11395547 0.12388249 0.037655141
0.1135731 0.12400603 0.037190914
0.11318138 0.12412745 0.036758255
0.11278747 0.12424882 0.0363332
0.11239707 0.1243703 0.035895426
0.11199032 0.12449045 0.03551523
0.11158107 0.12460959 0.035142638
0.11115451 0.1247264 0.034829918
0.11073977 0.12484545 0.034476735
0.11031418 0.12496228 0.034160379
0.10987383 0.12507692 0.033894505
0.10943134 0.12519243 0.033637155
0.10897647 0.12530579 0.033422038
0.10852586 0.12541921 0.033191711
0.10808198 0.12553379 0.032938268
0.10766207 0.1256517 0.032602657
0.10724124 0.12576963 0.032270301
0.10679839 0.12588517 0.03201424
0.10634022 0.12599747 0.031809997
0.10585551 0.12610729 0.031697955
0.10534228 0.12621266 0.031683318
0.10480551 0.12631558 0.031750221
0.1042475 0.12641518 0.031889714
0.10369048 0.12651478 0.032025862
0.1031623 0.12661791 0.032062408
0.10274101 0.12673584 0.031731553
0.10250513 0.12687789 0.030762646
0.10224147 0.12701651 0.02988936
0.10193405 0.12714934 0.02916671
0.10165147 0.12728564 0.028358541
0.10136024 0.12742075 0.027580373
0.1010336 0.1275503 0.026923135
0.10069007 0.12767854 0.026325043
0.10043626 0.12781832 0.025417488
0.1004819 0.12799817 0.023480237
0.1003698 0.12815635 0.022084918
0.1001601 0.12830189 0.021025792
0.10001317 0.12845545 0.019750547
0.099922873 0.12861703 0.018280368
0.099742368 0.12876703 0.017121285
0.099545129 0.12891379 0.01601873
0.099315718 0.12905696 0.015027714
0.098997101 0.1291886 0.014344023
0.098683462 0.12932037 0.013642351
0.098400094 0.12945661 0.012837161
0.098071866 0.12958613 0.012185615
0.097740248 0.12971558 0.011546076
0.097380251 0.12984152 0.011004497
0.097015299 0.12996642 0.010479138
0.096637525 0.13009006 0.0099989185
0.096266076 0.13021484 0.0094968723
0.095944703 0.13034546 0.0088219279
0.095606156 0.13047382 0.0082058562
0.09521284 0.13059521 0.0077787386
0.094818927 0.13071659 0.0073536849
0.094388574 0.13083334 0.0070542516
0.093961209 0.13095017 0.0067440821
0.093526118 0.13106586 0.0064606452
0.093086317 0.13118143 0.0061937682
0.092649758 0.1312971 0.0059154509
0.09221907 0.13141385 0.0056170812
0.091809429 0.13153297 0.0052462034
0.091399983 0.13165209 0.0048742574
0.091012821 0.13177459 0.0044263816
0.090608917 0.13189483 0.0040355949
0.09018454 0.13201164 0.0037152572
0.089750931 0.13212836 0.0034272689
0.089313917 0.13224401 0.0031505888
0.088874608 0.13235866 0.0028810129
0.088418536 0.13247198 0.002670018
0.087974451 0.13258652 0.002417366
0.087554157 0.13270442 0.002083309
0.087121807 0.13282116 0.0017908402
0.08669471 0.13293797 0.001479676
0.086258896 0.13305363 0.0011988692
0.085822999 0.13316932 0.00091799255
0.085364997 0.1332826 0.00071403291
0.084891744 0.13339363 0.00056204572
0.08442048 0.13350472 0.00040309224
0.08394473 0.13361472 0.000259283
0.083478667 0.13372685 8.2832761e-05
0.083043382 0.13384257 -0.00020024646
0.082631081 0.1339616 -0.00056160334
0.082210116 0.13407953 -0.00089352485
0.081771836 0.13419516 -0.001165871
0.081321076 0.13430858 -0.0013956344
0.080870815 0.13442299 -0.0016264664
0.080427982 0.13453755 -0.0018833126
0.079983756 0.13465209 -0.0021355394
0.079521097 0.13476431 -0.0023238584
0.079057962 0.1348765 -0.0025108261
0.078613207 0.13499103 -0.0027609216
0.078181863 0.13510776 -0.0030567283
0.077778228 0.13522801 -0.0034483681
0.077384964 0.13534939 -0.0038758377
0.076968998 0.13546741 -0.0042253165
0.076539911 0.13558421 -0.0045293756
0.076108687 0.13570094 -0.0048258933
0.075679138 0.13581771 -0.0051280297
0.075251378 0.13593455 -0.00543663
0.074827559 0.1360524 -0.0057585305
0.074405715 0.13616931 -0.0060879644
0.073982097 0.13628718 -0.0064105038
0.073584773 0.13640751 -0.006824255
0.073190533 0.13652889 -0.0072480962
0.072787084 0.13664909 -0.0076400954
0.072385654 0.13676935 -0.0080394847
0.07196635 0.13688733 -0.0083773062
0.071542069 0.13700518 -0.008697425
0.071117431 0.13712204 -0.009017054
0.070694752 0.13723992 -0.0093428474
0.070280284 0.13735797 -0.0096976794
0.0698741 0.13747814 -0.010080107
0.069448307 0.137595 -0.010395701
0.069018528 0.13771173 -0.010697223
0.068583496 0.13782746 -0.010981022
0.0681445 0.13794306 -0.011250719
0.067691661 0.13805646 -0.011473187
0.067249887 0.138172 -0.011733059
0.066800527 0.13828549 -0.011967742
0.066362694 0.13840112 -0.012241587
0.065943293 0.13851903 -0.012578953
0.065515004 0.13863586 -0.012885853
0.065071136 0.13875136 -0.013138301
0.064622059 0.13886482 -0.013374084
0.064167298 0.13897817 -0.013589642
0.063707866 0.13909139 -0.013788732
0.063246816 0.13920365 -0.013983007
0.062777288 0.13931476 -0.014148057
0.062305812 0.13942586 -0.014306113
0.061833989 0.13953692 -0.014463224
0.061371367 0.13964912 -0.014651774
0.060923856 0.13976358 -0.014892318
0.060468692 0.13987692 -0.01510646
0.060009312 0.1399892 -0.015306615
0.059547897 0.14010239 -0.015498588
0.059082326 0.14021359 -0.015677752
0.058605563 0.14032453 -0.015817132
0.058119539 0.1404334 -0.015925573
0.057629604 0.14054213 -0.016020132
0.057140071 0.14065087 -0.016116109
0.056654733 0.14076069 -0.016225977
0.056172673 0.14086962 -0.0163485
0.05570418 0.14098172 -0.016516315
0.055227254 0.14109172 -0.016656131
0.054743987 0.14120156 -0.01677344
0.054251213 0.14131026 -0.016857829
0.053750318 0.14141682 -0.016915295
0.053241584 0.14152323 -0.016944906
0.052723411 0.14162847 -0.016942065
0.052199814 0.14173268 -0.016920961
0.051671598 0.14183579 -0.016884176
0.051136132 0.14193876 -0.016821869
0.050597344 0.14204066 -0.016748458
0.050050471 0.14214244 -0.016646577
0.049508508 0.14224429 -0.016562045
0.048979137 0.14234737 -0.01652123
0.048453446 0.14245154 -0.016492855
0.047915276 0.14255348 -0.016421756
0.047352213 0.14265296 -0.016264351
0.046788126 0.14275146 -0.01610389
0.046216931 0.14284982 -0.015918477
0.045629676 0.1429459 -0.015677821
0.045018561 0.1430386 -0.015355555
0.044416312 0.14313245 -0.015063645
0.043805789 0.14322512 -0.014743298
0.043196872 0.14331788 -0.014428492
0.042609219 0.14341392 -0.014186562
0.042060595 0.14351468 -0.014079279
0.041502845 0.14361426 -0.013940499
0.04091638 0.14371039 -0.013702973
0.040329795 0.14380646 -0.013464596
0.039781772 0.14390723 -0.013359513
0.039232012 0.144008 -0.01324846
0.038705856 0.14411211 -0.013218027
0.038216267 0.14422084 -0.01331378
0.037778981 0.14433652 -0.013589753
0.037344623 0.14445221 -0.013875679
0.036871292 0.14456326 -0.014027454
0.036364052 0.14466973 -0.014062564
0.0358213 0.14477155 -0.013975048
0.035273269 0.14487229 -0.013869967
0.034732517 0.14497419 -0.013789556
0.034189165 0.14507605 -0.013700396
0.032125875 0.14601654 -0.019065039
0.031661469 0.14612871 -0.019247521
0.031247176 0.14624774 -0.019602049
0.030882243 0.14637268 -0.020127272
0.03056974 0.14650443 -0.020832576
0.030230679 0.14663376 -0.021446088
0.02985495 0.14675742 -0.021933775
0.02946078 0.14687882 -0.022357691
0.029031821 0.14699559 -0.022662032
0.028594863 0.14711122 -0.022939075
0.028232649 0.14723617 -0.023473747
0.027970321 0.14737482 -0.024351873
0.027701877 0.1475133 -0.025208242
0.027381118 0.14764394 -0.025885105
0.027078956 0.14777787 -0.026625734
0.026826952 0.1479177 -0.027539473
0.026531637 0.14805177 -0.028304208
0.026189499 0.14818002 -0.028907202
0.025838494 0.14830714 -0.029479988
0.02545324 0.14842966 -0.029934756
0.025075395 0.14855333 -0.030414909
0.024679992 0.1486737 -0.030835554
0.024280902 0.14879498 -0.031242263
0.023874652 0.14891419 -0.031625297
0.023449827 0.14903198 -0.031943575
0.023011219 0.14914761 -0.032214571
0.022570584 0.14926222 -0.03247945
0.022120714 0.14937666 -0.0327117
0.021665443 0.14948998 -0.032925546
0.021217812 0.14960349 -0.033166327
0.020789456 0.14972028 -0.033472728
0.020363051 0.14983808 -0.033785172
0.019931741 0.14995386 -0.034082331
0.019489802 0.15006939 -0.034341525
0.019043323 0.15018389 -0.034585793
0.018589113 0.15029724 -0.034803331
0.018128902 0.15040955 -0.035000667
0.017661508 0.15052164 -0.03517228
0.017193496 0.15063275 -0.035342678
0.016718976 0.15074378 -0.035490192
0.016235769 0.15085267 -0.035608549
0.01574906 0.15096241 -0.035713341
0.015273583 0.15107246 -0.035858426
0.01478714 0.15118225 -0.035964631
0.014292079 0.1512899 -0.036041625
0.013798636 0.15139857 -0.036123872
0.013297706 0.15150517 -0.036181089
0.012783402 0.15161051 -0.036191888
0.012264705 0.15171579 -0.036187328
0.011752455 0.15182115 -0.036205448
0.011253082 0.15192874 -0.036267437
0.010761497 0.15203747 -0.036356084
0.010266968 0.1521451 -0.036435202
0.0097752577 0.15225381 -0.036523286
0.0092792036 0.15236151 -0.036597207
0.0087709641 0.15246792 -0.036628552
0.0082523329 0.15257314 -0.036623932
0.007734281 0.15267746 -0.036622636
0.0072030695 0.15278149 -0.036574293
0.0066615148 0.15288337 -0.036491465
0.0061232103 0.15298529 -0.036419794
0.0055904509 0.15308832 -0.036367111
0.0050488291 0.15319018 -0.036283642
0.0045042885 0.15329199 -0.03618994
0.003970339 0.15339497 -0.03613314
0.0034257984 0.15349583 -0.036040463
0.0028612921 0.15359527 -0.035877679
0.0022700047 0.15369031 -0.035623785
0.0016320338 0.15377954 -0.035208721
0.00096435193 0.15386431 -0.034692168
0.00033557508 0.15396285 -0.034366518
-0.0002436256 0.15406568 -0.034203809
0.12280302 0.12139733 0.052325673
0.12245521 0.12152547 0.051743004
0.12208812 0.12165032 0.051225327
0.12173106 0.12177631 0.050673511
0.12135686 0.12190004 0.050180353
0.12098657 0.12202387 0.049673188
0.12064765 0.12215319 0.049059387
0.1202987 0.12228031 0.048479568
0.1199722 0.12240986 0.04782204
0.11965492 0.12254159 0.047133099
0.11932917 0.1226721 0.04647379
0.11901692 0.1228039 0.04576721
0.11868028 0.12293227 0.045144387
0.11833961 0.12306052 0.044536274
0.11798948 0.12318767 0.043960571
0.11763135 0.12331367 0.043412175
0.11727366 0.12343968 0.042862423
0.11692326 0.12356681 0.042287584
