# .PCD v0.7 - Point Cloud Data file format
VERSION 0.7
FIELDS x y z
SIZE 4 4 4
TYPE F F F
COUNT 1 1 1
WIDTH 1321
HEIGHT 1
VIEWPOINT 0 0 0 1 0 0 0
POINTS 1321
DATA ascii
0.078589223 0.16089411 0.012817813
0.077903204 0.16101688 0.012585154
0.077238724 0.16113132 0.012396587
0.076463059 0.16128758 0.011980642
0.075699747 0.16143858 0.011590181
0.075049184 0.1615483 0.011430038
0.072994135 0.16217245 0.0084391255
0.072368175 0.16227318 0.0083358865
0.071708649 0.16238593 0.0081681181
0.070983216 0.16252224 0.0078741089
0.070300967 0.16264346 0.0076626297
0.069635756 0.16275905 0.0074839778
0.068945266 0.16288294 0.0072567482
0.06759464 0.16324739 0.0057615172
0.06682197 0.16340223 0.0053764563
0.066167578 0.16351332 0.0052185412
0.065545097 0.16361287 0.005122086
0.064890407 0.16372402 0.0049636718
0.064215951 0.16384165 0.0047672782
0.06368655 0.16390771 0.0048494302
0.042039096 0.17160688 -0.035465099
0.041347388 0.17172678 -0.035680965
0.04065514 0.17184688 -0.035897821
0.039988976 0.1719577 -0.036067348
0.039339576 0.17206421 -0.036206849
0.038668722 0.17217754 -0.036385037
0.038012363 0.17228524 -0.036536958
0.037337836 0.17239973 -0.036721811
0.036674246 0.17251076 -0.036886856
0.036027316 0.1726155 -0.037021779
0.035398424 0.17271553 -0.037124194
0.034757379 0.17281841 -0.03724838
0.034136664 0.17291583 -0.037336074
0.033508927 0.17301449 -0.037436202
0.032904994 0.17310561 -0.03749346
0.032267865 0.17320827 -0.037610784
0.031631365 0.17330965 -0.037726715
0.030997053 0.17341143 -0.037838973
0.030319724 0.17352577 -0.038028583
0.02965156 0.17363825 -0.038202092
0.029002205 0.17374475 -0.038341396
0.028364256 0.17384665 -0.038460109
0.027762294 0.17393713 -0.038513694
0.02720058 0.1740149 -0.038494591
0.026668157 0.17408338 -0.038422689
0.026153199 0.17414635 -0.038319264
0.02567476 0.17419672 -0.03814961
0.02523211 0.17423578 -0.037915319
0.024809737 0.17426841 -0.037644546
0.02436563 0.17430791 -0.037412744
0.023902904 0.17435335 -0.037214853
0.023423398 0.17440404 -0.037047081
0.02293288 0.17445928 -0.036899507
0.022458898 0.17450823 -0.036721803
0.021975558 0.17456119 -0.036561206
0.021446975 0.17462744 -0.03648214
0.020923376 0.17469311 -0.036394127
0.020392315 0.17476119 -0.036319833
0.019812271 0.17484471 -0.036333844
0.019060399 0.17498368 -0.036658399
0.017735863 0.17530797 -0.038017791
0.016938543 0.17546237 -0.038424574
0.016239148 0.1755847 -0.038654365
0.015600078 0.17568795 -0.03877528
0.014974641 0.17578588 -0.038871221
0.014369087 0.1758775 -0.038931269
0.013769646 0.1759672 -0.038980477
0.013162876 0.17606027 -0.039042912
0.012540544 0.17615721 -0.039133389
0.011962535 0.1762401 -0.039143719
0.011345638 0.17633535 -0.039224349
0.010712192 0.17643684 -0.039335012
0.010106539 0.17652848 -0.039395258
0.0094822682 0.17662606 -0.039489321
0.0088687055 0.17672122 -0.039563879
0.0082303714 0.17682323 -0.039683197
0.0075953775 0.1769252 -0.039796643
0.0069547109 0.17702793 -0.039920233
0.0063041947 0.17713484 -0.040061727
0.0056599416 0.17723869 -0.040191777
0.0049993377 0.17734879 -0.040351458
0.0043543535 0.17745392 -0.040483005
0.0036687837 0.17757086 -0.040687636
0.0030257367 0.17767538 -0.040815502
0.0023652306 0.17778541 -0.04097499
0.0017050738 0.17789434 -0.041133873
0.0010580532 0.17800012 -0.041269004
0.00037698727 0.17811669 -0.041465774
-0.00031139422 0.17823453 -0.041675471
-0.00099266134 0.17835115 -0.041872457
-0.001654719 0.17846167 -0.042034619
-0.0022863634 0.17856154 -0.042142004
-0.0028916765 0.17865413 -0.042201858
-0.0035339938 0.17875738 -0.042328328
-0.0041523455 0.17885309 -0.042411644
-0.0047826888 0.17895359 -0.042516638
-0.0053790277 0.17904231 -0.042559978
-0.0059801182 0.17913252 -0.042612072
-0.0065863496 0.17922437 -0.042673513
-0.0071990369 0.17931928 -0.042746689
-0.0078032305 0.17941046 -0.042804256
-0.0084158676 0.17950435 -0.042877227
-0.0090240957 0.17959784 -0.042942256
-0.0096183 0.17968589 -0.042981915
-0.01022686 0.17977847 -0.043047525
-0.010832504 0.17987013 -0.043107782
-0.011420404 0.17995615 -0.043136008
-0.011998028 0.18003896 -0.043145739
-0.012588697 0.18012688 -0.043179046
-0.013122612 0.18019484 -0.043109715
-0.013729387 0.18028785 -0.043172058
-0.014274747 0.18035944 -0.043123417
-0.014837432 0.18043751 -0.043106109
-0.015436391 0.18052705 -0.043154322
-0.021624498 0.18117607 -0.040892862
-0.022109009 0.18122938 -0.040734351
-0.022595018 0.18128215 -0.040578321
-0.04223977 0.18378751 -0.037814826
-0.042915784 0.18390252 -0.038002446
-0.043553837 0.18400438 -0.038121164
-0.044206675 0.18411203 -0.038266934
-0.044773627 0.18419141 -0.038257383
-0.045330491 0.18426766 -0.038229525
-0.045908988 0.18435071 -0.038240746
-0.046493676 0.18443576 -0.038263209
-0.047034733 0.18450697 -0.03820692
-0.047581315 0.18457994 -0.038160466
-0.0481163 0.18464822 -0.038093038
-0.048657354 0.18471944 -0.038036641
-0.049177844 0.18478414 -0.037943162
-0.049665205 0.18483734 -0.037789617
-0.050127842 0.18488273 -0.037591528
-0.050555065 0.18491688 -0.037329294
-0.050960764 0.18494427 -0.037028387
-0.051332507 0.18496089 -0.036666036
0.090050735 0.15889113 0.023236161
0.089447446 0.15898377 0.023172634
0.088646337 0.15914862 0.022704782
0.087929279 0.15928188 0.022408923
0.087201506 0.15941986 0.022091018
0.084595695 0.1602439 0.017935371
0.083889119 0.16037467 0.01766059
0.083136305 0.16052112 0.017291555
0.082365826 0.16067456 0.016886396
0.081664525 0.1608025 0.016622728
0.081121936 0.16087356 0.016682981
0.078885145 0.16156217 0.013281571
0.078224637 0.1616753 0.013101008
0.077504992 0.16181047 0.012799755
0.076786995 0.16194509 0.012501672
0.076057591 0.1620836 0.012180461
0.075375542 0.16220503 0.011955848
0.073247097 0.16285384 0.0087971967
0.072622389 0.16295411 0.0086963829
0.071955778 0.16306914 0.0085152183
0.071292765 0.16318305 0.0083407369
0.070640013 0.16329356 0.0081859957
0.069956489 0.16341513 0.0079723261
0.069289312 0.16353038 0.0077899303
0.067769796 0.16395622 0.0059703756
0.067041181 0.1640936 0.0056701526
0.066382319 0.16420612 0.0055036955
0.065779753 0.16429815 0.0054454301
0.065114744 0.16441371 0.0052671283
0.064443298 0.16453034 0.0050764941
0.042857919 0.17218801 -0.035130858
0.042156223 0.17231007 -0.03536462
0.041487794 0.1724226 -0.035538428
0.040846966 0.17252542 -0.035662312
0.040194131 0.17263301 -0.035807978
0.039534975 0.17274266 -0.035965078
0.03887175 0.17285255 -0.036129341
0.038189836 0.17296936 -0.036327504
0.037510097 0.17308444 -0.036521591
0.036830381 0.17320059 -0.03671588
0.036181889 0.17330684 -0.036853697
0.035561197 0.17340325 -0.036941182
0.03491779 0.17350684 -0.037069641
0.034307837 0.17360093 -0.037137851
0.033684626 0.17369814 -0.037229914
0.033084594 0.173788 -0.037279919
0.032492332 0.17387542 -0.037316099
0.031881347 0.17396878 -0.037386097
0.031251591 0.17406909 -0.0374902
0.030623142 0.17416798 -0.037591513
0.029943436 0.1742841 -0.037785798
0.029252917 0.17440261 -0.037999377
0.028535482 0.17453068 -0.038261782
0.027862657 0.1746446 -0.038443442
0.027235862 0.17474298 -0.038542069
0.026636031 0.17483279 -0.038591877
0.026048366 0.17491978 -0.038619608
0.025478411 0.17500013 -0.038615525
0.024955258 0.17506465 -0.03852661
0.024466485 0.17511936 -0.038375959
0.024005793 0.1751641 -0.03817419
0.02362687 0.17518298 -0.037824757
0.023261037 0.17519772 -0.037451752
0.022848263 0.17522733 -0.037163578
0.022445865 0.17525366 -0.0368567
0.022008069 0.17529118 -0.036613658
0.021504605 0.17534944 -0.036489151
0.021014281 0.17540464 -0.03634128
0.020469734 0.17547695 -0.036291152
0.019901523 0.17555676 -0.036283784
0.019239523 0.17566626 -0.036445949
0.018336769 0.17585398 -0.037043057
0.017236438 0.17610632 -0.037997544
0.016450621 0.176256 -0.038383454
0.015760923 0.17637531 -0.038595639
0.015108036 0.17648189 -0.038741104
0.014464366 0.17658558 -0.038870156
0.013856817 0.17667887 -0.038934093
0.013243212 0.17677304 -0.039008658
0.01263776 0.17686465 -0.039068796
0.012043168 0.17695281 -0.039109066
0.011424266 0.17704971 -0.03919328
0.010800386 0.17714714 -0.039286636
0.010198419 0.17723761 -0.039340217
0.0095763803 0.17733446 -0.0394301
0.0089542838 0.17743236 -0.039520182
0.0083130356 0.17753528 -0.03964486
0.0076549579 0.17764457 -0.039799973
0.0070090545 0.17774895 -0.039933011
0.0063438001 0.1778605 -0.040101148
0.0056521194 0.17797938 -0.040316813
0.004976287 0.1780943 -0.040504139
0.0042030774 0.17824002 -0.040867168
0.0034068278 0.17839403 -0.041272074
0.0026447717 0.17853622 -0.04161492
0.0019320818 0.17866278 -0.041868672
0.0011470411 0.17881225 -0.042253181
0.00044356845 0.17893587 -0.042490333
-0.00026097149 0.17905983 -0.042729273
-0.00092335977 0.17916948 -0.042892128
-0.0015269751 0.17926048 -0.042948697
-0.0021860218 0.17937008 -0.043105699
-0.0028210618 0.17947102 -0.043219052
-0.0034322934 0.17956552 -0.043289639
-0.0040342575 0.17965598 -0.043343324
-0.0046500927 0.17975087 -0.043421865
-0.0052313982 0.17983483 -0.043438159
-0.0058343308 0.17992564 -0.043493632
-0.0064166067 0.1800099 -0.043511719
-0.0069463132 0.18007752 -0.043434843
-0.0075314948 0.1801627 -0.043458201
-0.0080975713 0.18024182 -0.043446958
-0.0086616157 0.18032031 -0.043432124
-0.0092263324 0.18039905 -0.043418594
-0.0098172417 0.18048604 -0.043452092
-0.010381087 0.18056446 -0.043436967
-0.010965689 0.18064946 -0.043459229
-0.011523911 0.1807261 -0.04343386
-0.012088048 0.18080465 -0.043419227
-0.012658975 0.18088531 -0.043416832
-0.013212345 0.18096043 -0.043382615
-0.013804317 0.18104777 -0.043418303
-0.014360792 0.18112387 -0.043389753
-0.014920567 0.18120101 -0.043367073
-0.015547843 0.18129951 -0.043466497
-0.016126145 0.18138251 -0.04347742
-0.016686011 0.18145968 -0.043455034
-0.017218921 0.18152831 -0.043383822
-0.020118136 0.1817386 -0.041384064
-0.020599838 0.18179102 -0.041220382
-0.021120664 0.18185483 -0.041127395
-0.021631356 0.18191643 -0.041016113
-0.022112891 0.18196779 -0.040852129
-0.022637464 0.18203381 -0.040766001
-0.023174733 0.18210381 -0.040702753
-0.023652393 0.18215397 -0.040531803
-0.044539455 0.18485554 -0.037945297
-0.045093704 0.18493094 -0.037912767
-0.045679372 0.18501626 -0.037936918
-0.046311118 0.18511619 -0.038044397
-0.046858951 0.18518956 -0.038000237
-0.047396228 0.18525958 -0.03793709
-0.047944453 0.18533307 -0.037893616
-0.048498746 0.18540744 -0.03786099
-0.049031753 0.18547612 -0.037790176
-0.049521688 0.18553115 -0.037641317
-0.049989261 0.18557809 -0.037452072
-0.050430845 0.18561681 -0.037215896
-0.050830238 0.18564218 -0.036903549
-0.051214781 0.18566285 -0.036564462
0.089761406 0.15965186 0.023672601
0.088987455 0.15980649 0.023260219
0.088263229 0.15994222 0.022949709
0.087596759 0.16005835 0.022757018
0.085029282 0.16086528 0.018680008
0.084347814 0.16098651 0.018456565
0.083548412 0.16114978 0.017992428
0.082801051 0.16129538 0.017634353
0.082009487 0.16145599 0.017186129
0.081453897 0.16153042 0.017220249
0.079177439 0.16223253 0.013737759
0.078533076 0.16234016 0.013590202
0.077807777 0.1624762 0.013277503
0.077064738 0.16261934 0.012928365
0.076400779 0.16273464 0.012740741
0.075685553 0.16286728 0.012448629
0.073534772 0.16352266 0.0092229974
0.072917148 0.16362077 0.0091346242
0.072243571 0.16373809 0.0089401081
0.071576521 0.1638543 0.0087578446
0.070934094 0.16396041 0.0086230841
0.070303291 0.16406272 0.0085105691
0.069689684 0.16415839 0.0084310845
0.067961089 0.16465876 0.0062102824
0.067262746 0.16478522 0.0059680603
0.066606887 0.16489674 0.0058074612
0.06599164 0.16499293 0.0057248604
0.044266924 0.17268237 -0.034764215
0.043630846 0.17278367 -0.03487945
0.043018706 0.17287737 -0.03495153
0.042371824 0.17298312 -0.03508646
0.041735586 0.17308447 -0.035201989
0.041131414 0.17317566 -0.035259657
0.040525034 0.17326754 -0.035321288
0.039819282 0.17339189 -0.035562418
0.039121732 0.17351267 -0.035788823
0.038374718 0.17365009 -0.036104523
0.037661411 0.17377684 -0.036359467
0.036978394 0.17389402 -0.036559723
0.036318187 0.17400292 -0.036718514
0.035706006 0.17409667 -0.036790591
0.03505091 0.17420499 -0.036940336
0.034442745 0.17429745 -0.037005253
0.033838239 0.17438875 -0.037063513
0.033246547 0.17447598 -0.037098501
0.032653894 0.17456353 -0.037135281
0.032070167 0.17464826 -0.03715615
0.031470235 0.17473809 -0.037206057
0.030869823 0.1748281 -0.037256859
0.030250445 0.17492513 -0.037342168
0.02962229 0.17502391 -0.037443079
0.028930847 0.17514378 -0.037658453
0.028199397 0.17527524 -0.037945911
0.02749864 0.17539802 -0.038178183
0.02676782 0.17553034 -0.038464848
0.026107173 0.17563938 -0.038624331
0.025486492 0.17573582 -0.038711928
0.024893008 0.17582464 -0.038750302
0.024320528 0.17590581 -0.038750783
0.023748729 0.17598677 -0.038749982
0.023202203 0.17605866 -0.038703229
0.022690928 0.17612047 -0.038593143
0.022275528 0.1761509 -0.038309537
0.021914549 0.17616411 -0.037927888
0.021671414 0.17614001 -0.037333146
0.021353934 0.17613843 -0.03687264
0.020936837 0.17617041 -0.036592215
0.020423386 0.17623188 -0.036485903
0.019865263 0.1763085 -0.036460437
0.019215232 0.17641525 -0.036601029
0.018459387 0.17655545 -0.036932841
0.01759316 0.17673059 -0.037463918
0.016744394 0.17690022 -0.03796348
0.016009206 0.1770339 -0.038257904
0.015338227 0.17714727 -0.038436383
0.014656438 0.17726302 -0.038634147
0.014018825 0.17736582 -0.03875237
0.013374959 0.17746958 -0.038881727
0.012768436 0.17756152 -0.038943559
0.012161138 0.17765372 -0.039006889
0.01152857 0.17775489 -0.039115965
0.01089217 0.17785628 -0.039231695
0.01027614 0.17795123 -0.039310839
0.0096472139 0.17805026 -0.039413042
0.0089893276 0.17815951 -0.039567959
0.0083167534 0.17827232 -0.039749116
0.0075781676 0.17840707 -0.040049702
0.0059648906 0.17882274 -0.041930839
0.0052593811 0.17894702 -0.042171471
0.0046229833 0.17904842 -0.042287394
0.0039658761 0.17915739 -0.042440828
0.0033480963 0.17925288 -0.042522945
0.0027324622 0.17934771 -0.042601388
0.0021058554 0.17944601 -0.042699516
0.0014303215 0.17956081 -0.042886153
0.00080759823 0.17965788 -0.042977221
0.0001863353 0.17975447 -0.043065704
-0.00044410303 0.17985499 -0.043171007
-0.0010758433 0.17995492 -0.043278486
-0.0016857618 0.18004794 -0.043346588
-0.0023169229 0.18014765 -0.04345277
-0.0029393053 0.18024565 -0.043543652
-0.0035957787 0.18035339 -0.043695673
-0.0042176256 0.18045019 -0.043785259
-0.0048434092 0.18054922 -0.043881997
-0.0054555545 0.18064295 -0.043954082
-0.0060798274 0.18074049 -0.044048041
-0.0066896481 0.18083347 -0.044115834
-0.0073095178 0.18093066 -0.04420194
-0.0079270983 0.18102612 -0.044283763
-0.0085666915 0.1811285 -0.04440546
-0.009129378 0.18120657 -0.044388056
-0.0096969055 0.18128619 -0.044379685
-0.010245235 0.18135968 -0.044336226
-0.010788131 0.1814315 -0.044283308
-0.011300866 0.18149373 -0.044175714
-0.011772995 0.18154213 -0.043994822
-0.01227855 0.18160211 -0.043874193
-0.012796273 0.18166493 -0.043775439
-0.013337228 0.18173611 -0.043719046
-0.013915523 0.18181913 -0.043729872
-0.014453576 0.18188938 -0.043668013
-0.015010822 0.18196572 -0.043640856
-0.015620743 0.18205874 -0.043708853
-0.016180132 0.18213575 -0.043685578
-0.016755611 0.18221785 -0.04369143
-0.017324306 0.18229783 -0.043684959
-0.017906487 0.18238208 -0.043703042
-0.018487502 0.18246596 -0.043718845
-0.019063849 0.18254834 -0.043726191
-0.019682679 0.18243903 -0.041742191
-0.020108841 0.18247287 -0.041478075
-0.020590827 0.1825254 -0.041315086
-0.021122281 0.18259355 -0.041241296
-0.021658912 0.18266234 -0.041176744
-0.022174653 0.18272555 -0.041074708
-0.022722974 0.1827991 -0.041031543
-0.023252197 0.18286656 -0.040953778
-0.023701645 0.18290776 -0.040731721
-0.024069995 0.1829233 -0.040363289
-0.046065893 0.18577681 -0.037712328
-0.046578906 0.18583916 -0.037605427
-0.047130831 0.1859138 -0.037568621
-0.047705341 0.18599562 -0.037572682
-0.04825842 0.18607064 -0.03753797
-0.04881848 0.18614785 -0.037515886
-0.049317397 0.18620472 -0.037383229
-0.049800448 0.18625757 -0.037222125
-0.050252117 0.18629949 -0.037004143
-0.050657511 0.18632676 -0.03670264
0.089281984 0.1604812 0.023720575
0.088500477 0.16063838 0.02329292
0.087925874 0.16072029 0.023287857
0.085397743 0.16151083 0.019291537
0.084719472 0.16163097 0.019074684
0.083966061 0.16177759 0.01870455
0.083226502 0.16191952 0.018362513
0.082422256 0.16208443 0.017888388
0.081852779 0.1621646 0.017894035
0.079426244 0.16291866 0.014105095
0.078834891 0.1630062 0.014066061
0.078133792 0.16313408 0.013802638
0.07739684 0.16327515 0.013465913
0.076720878 0.16339451 0.01325394
0.076076187 0.1635012 0.01310586
0.073877335 0.16417289 0.0097821224
0.073248215 0.16427429 0.0096658785
0.072584413 0.16438849 0.0094787683
0.071938299 0.16449672 0.0093276631
0.071273766 0.16461135 0.0091473777
0.070622317 0.1647204 0.0089954846
0.070034586 0.16480759 0.0089656282
0.068134747 0.16536708 0.0064162631
0.067485191 0.1654765 0.006267773
0.045647733 0.17318569 -0.034448486
0.045051269 0.17327443 -0.034492224
0.044424709 0.1733727 -0.034590259
0.043830886 0.17346063 -0.034629226
0.043260738 0.17354107 -0.034625433
0.042686068 0.17362292 -0.03462971
0.04216332 0.17368834 -0.034540303
0.041597348 0.17376745 -0.034528956
0.040997066 0.17385741 -0.034579545
0.04025596 0.17399295 -0.034884717
0.039416436 0.17415965 -0.035367563
0.0385832 0.17432436 -0.035839181
0.037822619 0.17446607 -0.036179446
0.037138246 0.17458265 -0.036381885
0.036465947 0.1746954 -0.036562547
0.035845149 0.17479287 -0.036650445
0.035178564 0.17490382 -0.036820862
0.034564905 0.17499802 -0.036895528
0.033952475 0.17509182 -0.036968105
0.033375323 0.17517446 -0.036976852
0.032771908 0.1752654 -0.037033211
0.032196615 0.17534746 -0.037038572
0.031618163 0.17543156 -0.037050102
0.031028032 0.17551829 -0.03708221
0.030442942 0.17560345 -0.037105367
0.029842824 0.17569338 -0.037155762
0.029242218 0.17578341 -0.037206862
0.028596707 0.1758877 -0.037339196
0.027943727 0.17599435 -0.037485059
0.02719263 0.1761331 -0.037808217
0.026386149 0.17628932 -0.03823141
0.025650285 0.17642322 -0.038527127
0.024986342 0.1765333 -0.038692582
0.024360809 0.17663127 -0.038788915
0.02374284 0.17672682 -0.038871441
0.023147956 0.17681508 -0.038912196
0.022551425 0.17690384 -0.038956232
0.022015998 0.1769733 -0.038889606
0.021489976 0.17703976 -0.038805962
0.021002658 0.17709398 -0.038652524
0.020530915 0.17714223 -0.038470939
0.020083845 0.1771837 -0.038244709
0.020019712 0.17710194 -0.037326593
0.019634189 0.17712292 -0.036989197
0.019015875 0.1772196 -0.037072316
0.018357368 0.17732801 -0.037228324
0.017647255 0.1774527 -0.037477102
0.016858531 0.17760336 -0.037868369
0.01616136 0.177725 -0.038094081
0.01548316 0.17783961 -0.038285382
0.014797146 0.17795773 -0.038491014
0.014138347 0.17806619 -0.038647313
0.01346849 0.17817819 -0.038823802
0.012832286 0.17827952 -0.038939137
0.01221184 0.17837685 -0.039026231
0.011548574 0.17848678 -0.039190687
0.010863686 0.17860353 -0.039394222
0.010212878 0.17871051 -0.039536111
0.0086791432 0.17909895 -0.041273352
0.0078940047 0.17924841 -0.041658066
0.0072281198 0.17935912 -0.041827098
0.0065209637 0.17948397 -0.042070903
0.0058629364 0.17959219 -0.042225704
0.0052121305 0.17969917 -0.042367697
0.0045694327 0.17980255 -0.042495064
0.0039332318 0.17990391 -0.042610597
0.0033228276 0.17999706 -0.042679399
0.0027159154 0.18008912 -0.042742029
0.0020928523 0.1801873 -0.042833798
0.0014526732 0.18028991 -0.042956695
0.00085206702 0.18037994 -0.043007791
0.00023176987 0.18047628 -0.043094583
-0.00039036665 0.18057315 -0.043184765
-0.0010291878 0.18067528 -0.043304771
-0.0016357657 0.18076828 -0.043367006
-0.0022686683 0.18086858 -0.043476474
-0.002900607 0.18096854 -0.043584257
-0.0035494165 0.18107384 -0.043722458
-0.0042010974 0.18118112 -0.043866135
-0.0048424425 0.18128408 -0.043990817
-0.0054664211 0.18138152 -0.044084277
-0.0061044646 0.18148345 -0.044203192
-0.0067474144 0.18158793 -0.044330858
-0.0074014654 0.18169491 -0.044478603
-0.008047563 0.18179935 -0.044611938
-0.0086944299 0.18190409 -0.044746764
-0.0092830611 0.18199135 -0.044776492
-0.0098966649 0.18208554 -0.044851147
-0.010476225 0.18216896 -0.044864364
-0.011106222 0.18226832 -0.04496856
-0.011674917 0.18234828 -0.04496219
-0.012214319 0.182419 -0.044902913
-0.012748583 0.18248807 -0.04483429
-0.01326107 0.18254919 -0.044725992
-0.013730058 0.18259764 -0.04453963
-0.014200403 0.18264645 -0.044355273
-0.014654593 0.18268916 -0.044141963
-0.015164318 0.18275048 -0.044028893
-0.015718076 0.18282571 -0.043995667
-0.016276393 0.1829024 -0.043970399
-0.016850717 0.18298414 -0.043974072
-0.017416891 0.1830633 -0.043963119
-0.017980445 0.18314166 -0.043947399
-0.018558942 0.18322472 -0.043958619
-0.01911347 0.18330021 -0.043926589
-0.019647442 0.18336917 -0.043857373
-0.020020552 0.18338622 -0.0434976
-0.019771826 0.18320443 -0.042013988
-0.020154249 0.18322439 -0.041670926
-0.020652339 0.18328202 -0.041536979
-0.021196015 0.18335408 -0.041485354
-0.021745011 0.18342781 -0.041443378
-0.022280641 0.18349729 -0.041377045
-0.022812322 0.18356454 -0.041303746
-0.023320302 0.1836253 -0.041187596
-0.023734193 0.18365629 -0.040901601
-0.024052311 0.18365589 -0.040442191
-0.027854651 0.18219972 -0.021874905
-0.028341517 0.18224983 -0.021711005
-0.028815988 0.18229583 -0.021523336
-0.029179815 0.18230157 -0.02112304
0.085714675 0.16217692 0.019797651
0.085087202 0.16227776 0.019684756
0.084325284 0.16242728 0.019297032
0.083594769 0.16256513 0.018973773
0.082831554 0.16271612 0.018583154
0.082200095 0.16281831 0.018462284
0.079686262 0.16360094 0.014495419
0.079145513 0.16367137 0.014559453
0.078427382 0.16380499 0.014261438
0.077718437 0.16393556 0.0139821
0.07703539 0.16405627 0.013755659
0.076443896 0.16414496 0.013715995
0.074158616 0.1648449 0.010216231
0.073582657 0.16492727 0.010208478
0.072921261 0.16504067 0.010026192
0.072256103 0.16515529 0.0098362677
0.071607091 0.16526449 0.0096794032
0.070937477 0.16538066 0.0094803888
0.070265405 0.16549723 0.0092810672
0.047134336 0.17365651 -0.033941846
0.046437498 0.17377703 -0.034166858
0.045807734 0.17387632 -0.034270756
0.045230154 0.17395911 -0.03428039
0.044649512 0.17404287 -0.034295496
0.044123128 0.17410944 -0.034212556
0.043625969 0.17416677 -0.034076907
0.043151405 0.17421693 -0.033900395
0.042690624 0.17426172 -0.033698931
0.042186409 0.17432128 -0.033576015
0.041636344 0.17439537 -0.033535831
0.041005228 0.17449506 -0.033642218
0.040308446 0.17461661 -0.033867233
0.03921457 0.17486379 -0.034809675
0.038220018 0.17507955 -0.035572544
0.037404772 0.17523856 -0.036011644
0.036703121 0.17536059 -0.036245398
0.036052473 0.17546648 -0.036386896
0.035369694 0.17558256 -0.036586545
0.034722306 0.17568851 -0.036722463
0.034096695 0.17578647 -0.036818802
0.033514142 0.17587082 -0.036837392
0.032902572 0.17596436 -0.036908273
0.032323595 0.17604759 -0.036920495
0.031741515 0.17613178 -0.036938284
0.0311509 0.17621867 -0.036971383
0.030570857 0.17630222 -0.036985394
0.029975872 0.17639051 -0.037026346
0.029406499 0.17647071 -0.037021264
0.02881705 0.17655723 -0.037052181
0.028214306 0.17664795 -0.037107155
0.027577523 0.1767495 -0.037223786
0.026904602 0.17686346 -0.037405744
0.026137751 0.17700611 -0.03775724
0.025321476 0.17716546 -0.038198225
0.02458353 0.17729899 -0.038497418
0.023880795 0.17742138 -0.038733173
0.023232317 0.17752762 -0.038870979
0.022588938 0.17763123 -0.038999438
0.021981638 0.17772341 -0.039062776
0.021380451 0.17781366 -0.03911506
0.020779841 0.1779037 -0.039166063
0.02013433 0.17800798 -0.0392984
0.019549824 0.17809296 -0.039320566
0.018925551 0.17819051 -0.039414614
0.018376354 0.17826432 -0.03937294
0.017826084 0.17833845 -0.039333053
0.017166898 0.17844707 -0.039490253
0.016579382 0.17853297 -0.039517589
0.016046572 0.17860156 -0.039446276
0.016014975 0.17851056 -0.038469605
0.015419802 0.17859891 -0.038511053
0.01475935 0.17870791 -0.038670242
0.013316305 0.17906766 -0.040243715
0.012493879 0.1792279 -0.040695645
0.011763831 0.17935993 -0.040980615
0.011090284 0.17947313 -0.041163765
0.010478425 0.17956674 -0.041235149
0.0098177791 0.1796758 -0.041394725
0.0091435583 0.17978916 -0.041578978
0.0084885806 0.17989746 -0.041728519
0.0078337556 0.18000467 -0.041877657
0.0071937721 0.18010721 -0.041999958
0.006578811 0.18020183 -0.04207721
0.0059204968 0.18031015 -0.04223261
0.0052918578 0.1804091 -0.042334519
0.0046614227 0.1805096 -0.042439621
0.0040692538 0.18059701 -0.042475604
0.0034741792 0.18068531 -0.042516865
0.0028779348 0.18077402 -0.042560205
0.0022988627 0.18085726 -0.042572521
0.0016948637 0.18094838 -0.042629786
0.001093477 0.18103868 -0.042682275
0.00046590436 0.18113728 -0.042782195
-0.00014682114 0.1812312 -0.042855367
-0.00079058856 0.18133493 -0.042984527
-0.0013832422 0.18142244 -0.04302121
-0.002024156 0.18152632 -0.043145388
-0.002684894 0.18163542 -0.043305174
-0.0033299234 0.18173955 -0.043436714
-0.0039967736 0.18185057 -0.043607429
-0.0046494631 0.18195713 -0.043752898
-0.0052996865 0.18206392 -0.043893792
-0.005957718 0.18217213 -0.044048604
-0.0066398913 0.18228801 -0.044247165
-0.0073274011 0.18240559 -0.044455472
-0.0080039082 0.18252069 -0.044643793
-0.0086689228 0.18263115 -0.044811331
-0.0092992047 0.1827306 -0.044916227
-0.0099288141 0.18282984 -0.045019723
-0.010566178 0.18293154 -0.045137249
-0.011222319 0.1830402 -0.045288987
-0.011835634 0.18313429 -0.045363151
-0.012429445 0.18322223 -0.045402214
-0.013017056 0.18330817 -0.045429744
-0.013595643 0.18339124 -0.045441166
-0.014135825 0.18346217 -0.045383185
-0.014684252 0.18353574 -0.045340225
-0.015214053 0.18360342 -0.045263547
-0.015667271 0.1836458 -0.045048244
-0.016063031 0.18367106 -0.044729441
-0.016509425 0.1837123 -0.044502124
-0.017011333 0.18377012 -0.044374928
-0.017573822 0.18384811 -0.044357117
-0.018097315 0.18391378 -0.044269107
-0.018663589 0.18399297 -0.044258356
-0.019214246 0.18406723 -0.044219267
-0.019766644 0.18414207 -0.044183463
-0.020305373 0.18421252 -0.044122688
-0.020823345 0.18427645 -0.044024736
-0.020253286 0.18399295 -0.041960821
-0.020790368 0.1840629 -0.04189717
-0.021302525 0.18412499 -0.041788675
-0.02182379 0.18418995 -0.041696589
-0.022349998 0.18425646 -0.041613251
-0.022871885 0.18432057 -0.041522048
-0.023342427 0.18436949 -0.041338384
-0.023733236 0.18439315 -0.041010626
-0.024030592 0.18438624 -0.040513828
-0.026774444 0.18281429 -0.022122357
-0.027284127 0.18287288 -0.022002418
-0.027814362 0.18293816 -0.021921545
-0.028347645 0.1830055 -0.021846849
-0.028802358 0.18304507 -0.021621294
-0.029154066 0.18304686 -0.021197928
0.085434757 0.16293241 0.020253314
0.084692925 0.16307412 0.019906824
0.083957233 0.16321476 0.019572726
0.083194785 0.1633634 0.019184342
0.082497545 0.16348998 0.01892866
0.079918362 0.16429371 0.014828613
0.079423137 0.16434768 0.014985746
0.078777567 0.16445467 0.014835933
0.078085847 0.16457939 0.014591577
0.077429868 0.1646909 0.01442056
0.076799102 0.16479291 0.014300769
0.074402876 0.1655305 0.010574484
0.073860772 0.16560137 0.010635914
0.07324627 0.16569783 0.01054945
0.072554879 0.16582137 0.010306155
0.071881495 0.16593879 0.010099445
0.048611529 0.17413037 -0.033452205
0.047929488 0.17424618 -0.033650465
0.04724744 0.17436199 -0.03384874
0.04661949 0.17446072 -0.033949357
0.046023913 0.17454921 -0.033991508
0.045517985 0.17460932 -0.033871673
0.045028139 0.17466432 -0.033722803
0.044556335 0.17471363 -0.033541322
0.044105299 0.17475635 -0.033322252
0.043601509 0.1748158 -0.03319864
0.043055866 0.17488846 -0.033150494
0.042488646 0.17496794 -0.033141345
0.041898035 0.17505485 -0.033174541
0.041270241 0.17515354 -0.033274859
0.040544979 0.17528304 -0.033551186
0.039696995 0.17545137 -0.03404925
0.038859006 0.17561761 -0.03452941
0.038082018 0.17576349 -0.034899205
0.037259806 0.17592369 -0.035350733
0.036491558 0.17606682 -0.03570471
0.035752453 0.17620172 -0.036006294
0.035051364 0.17632359 -0.036239058
0.034399025 0.17643003 -0.036383729
0.033748835 0.17653579 -0.036524516
0.033113603 0.1766368 -0.036638163
0.032498639 0.17673139 -0.036715213
0.031895511 0.17682226 -0.036770985
0.031279583 0.1769172 -0.036849827
0.030677229 0.17700781 -0.036904208
0.030082051 0.17709616 -0.03694566
0.02950618 0.1771784 -0.036952108
0.028922163 0.17726322 -0.036973476
0.028322816 0.17735288 -0.037022389
0.027719494 0.1774438 -0.037078563
0.027085468 0.17754544 -0.037190117
0.02640795 0.17765987 -0.03738033
0.025702301 0.17778318 -0.037621144
0.02498734 0.1779094 -0.037878975
0.02429207 0.17802945 -0.038101204
0.023568671 0.17815837 -0.038374245
0.022817478 0.1782971 -0.038697496
0.022105718 0.17842233 -0.038949464
0.02142645 0.17853731 -0.03914275
0.020743012 0.17865357 -0.039343603
0.020080723 0.17876317 -0.039506268
0.01946353 0.1788585 -0.039587393
0.018823158 0.17896113 -0.039710492
0.01819394 0.17906028 -0.039813392
0.017571649 0.1791582 -0.039903767
0.016920507 0.17926425 -0.040046252
0.016297109 0.17936152 -0.040138617
0.015684381 0.17945544 -0.040211789
0.015034018 0.17956124 -0.040352877
0.014330407 0.17968391 -0.040590115
0.013679074 0.17979003 -0.040733002
0.013042388 0.1798915 -0.040849421
0.012333249 0.18001592 -0.04109671
0.011702763 0.18011543 -0.041201599
0.011047984 0.18022369 -0.041350946
0.010421867 0.18032184 -0.041448176
0.0097887721 0.18042219 -0.04155815
0.0091668274 0.18051897 -0.041647829
0.0085498281 0.18061423 -0.041728556
0.0079297274 0.18071048 -0.041814953
0.0073160268 0.18080467 -0.041889824
0.0067478144 0.18088448 -0.041882552
0.0061218902 0.18098257 -0.041979387
0.0055165375 0.18107416 -0.042039335
0.0049379459 0.18115725 -0.042050757
0.0043772026 0.18123466 -0.042029768
0.0038307197 0.18130761 -0.041983321
0.0032538748 0.18139017 -0.041991666
0.0026945909 0.18146715 -0.041968085
0.002120561 0.18154883 -0.04197146
0.0015759151 0.18162118 -0.041921429
0.001023124 0.18169609 -0.04188621
0.00049468502 0.18176334 -0.041807149
-0.0001001982 0.18185158 -0.041848011
-0.00062369928 0.18191725 -0.041759893
-0.0012480682 0.18201482 -0.041853849
-0.0019456679 0.1821356 -0.042080354
-0.0027214391 0.18228109 -0.042447958
-0.0034705931 0.18241918 -0.042767741
-0.0042293947 0.18255931 -0.043104708
-0.004887809 0.18266767 -0.043260224
-0.0055687251 0.18278314 -0.043456491
-0.0062825223 0.18290903 -0.043712132
-0.0070526255 0.18305378 -0.044069692
-0.0077901864 0.18318717 -0.044368189
-0.008527738 0.18332058 -0.044666983
-0.0091931401 0.18343116 -0.044835217
-0.0098513598 0.18353942 -0.044990323
-0.010522868 0.18365194 -0.0451697
-0.011204121 0.18376857 -0.045366667
-0.01185177 0.18387352 -0.045502886
-0.01247139 0.18396959 -0.045588296
-0.013098667 0.18406813 -0.04568781
-0.013703828 0.18415964 -0.045747273
-0.014285426 0.18424365 -0.045763955
-0.01488836 0.18433446 -0.045819331
-0.015458121 0.18441477 -0.045814954
-0.016021296 0.18449299 -0.045798432
-0.01653412 0.18455528 -0.045691222
-0.017009024 0.18460555 -0.04551531
-0.01744882 0.18464473 -0.045275956
-0.01784889 0.18467028 -0.044964712
-0.018313419 0.1847173 -0.044770204
-0.018823627 0.18477875 -0.044658024
-0.019338977 0.18484186 -0.044555295
-0.019897781 0.18491869 -0.044530824
-0.020456586 0.1849955 -0.04450655
-0.021010637 0.18507083 -0.044473723
-0.021603394 0.18515842 -0.044510603
-0.022215243 0.18525204 -0.044582188
-0.021387834 0.18488814 -0.04205332
-0.02187369 0.1849419 -0.041897386
-0.022401553 0.18500891 -0.041817032
-0.022893727 0.18506467 -0.041672543
-0.023351166 0.18510945 -0.0414651
-0.023771271 0.1851424 -0.041190252
-0.024117317 0.18515086 -0.040781457
-0.025786862 0.18548027 -0.041730054
-0.026253711 0.18552797 -0.041539431
-0.026688084 0.18556544 -0.041290428
-0.027090084 0.18559159 -0.040982656
-0.027498066 0.18562073 -0.040685922
-0.026136048 0.18346216 -0.022119382
-0.026657231 0.18352553 -0.022021523
-0.027215596 0.18360108 -0.02199485
-0.027833037 0.183699 -0.022081563
-0.028355893 0.18376188 -0.021986874
-0.028764978 0.1837845 -0.021673596
-0.029109333 0.18378386 -0.021236118
-0.029420551 0.18377241 -0.020734988
0.079642318 0.16504587 0.015292445
0.079128139 0.16510627 0.015410995
0.078510582 0.16520272 0.015318511
0.077904291 0.16529642 0.015248699
0.077258386 0.16540457 0.015098011
0.076840065 0.16543037 0.015412418
0.074075289 0.16629806 0.010933522
0.050832707 0.17446873 -0.032652237
0.050161391 0.17458117 -0.032831218
0.049435697 0.1747108 -0.033108328
0.048745558 0.1748292 -0.033321306
0.048079982 0.17493983 -0.033489846
0.047445267 0.17504071 -0.033602692
0.046885125 0.17511797 -0.033580795
0.046369251 0.17518121 -0.033478867
0.045924935 0.17522179 -0.033247769
0.04544862 0.17527254 -0.033074342
0.044906348 0.17534415 -0.033020239
0.044351146 0.17541984 -0.032989398
0.043801453 0.17549381 -0.032948621
0.043189619 0.1755874 -0.033020109
0.042566583 0.17568457 -0.03311177
0.041913971 0.17579107 -0.033256937
0.041226093 0.17590877 -0.033465836
0.040445216 0.17605691 -0.033842791
0.039653782 0.17620738 -0.034238733
0.038915973 0.17634088 -0.034537829
0.038223319 0.17646006 -0.034755282
0.037522376 0.17658187 -0.034987755
0.03680088 0.1767102 -0.035257306
0.036100108 0.17683195 -0.03548938
0.035407621 0.1769511 -0.035706639
0.034713458 0.17707078 -0.035926878
0.034001902 0.17719595 -0.036178436
0.033314973 0.17731333 -0.036385559
0.032651711 0.17742324 -0.036550004
0.03199533 0.17753094 -0.036701836
0.031341773 0.17763777 -0.036848791
0.03070702 0.17773862 -0.036961637
0.030090995 0.17783357 -0.037040673
0.029493492 0.17792265 -0.037086308
0.028868444 0.17802045 -0.037181653
0.028267644 0.17811058 -0.037233151
0.027672857 0.17819881 -0.037273906
0.027058575 0.17829318 -0.037349664
0.026440509 0.17838882 -0.037432484
0.025801595 0.17849098 -0.037552886
0.025179744 0.17858776 -0.037642468
0.024566723 0.17868175 -0.037716039
0.023970872 0.17877032 -0.037758783
0.023282003 0.17888832 -0.03796928
0.022496916 0.17903675 -0.038353786
0.021706691 0.17918682 -0.038747445
0.020935286 0.17933096 -0.039107289
0.020218968 0.17945765 -0.039367501
0.019566566 0.17956409 -0.039512269
0.018906504 0.17967297 -0.039670855
0.018231697 0.17978652 -0.039855994
0.017590649 0.1798894 -0.039980374
0.016945424 0.17999355 -0.040112022
0.016298747 0.18009824 -0.040246643
0.015677385 0.18019485 -0.040335335
0.015021978 0.18030223 -0.040485367
0.014349695 0.18041502 -0.040666129
0.013716404 0.18051541 -0.040776394
0.01306924 0.18062019 -0.040911611
0.012410341 0.18072872 -0.041068114
0.01178287 0.18082729 -0.041167945
0.011152486 0.1809268 -0.041272931
0.010545189 0.18101898 -0.041336257
0.0099340118 0.18111236 -0.04140655
0.0093495026 0.18119733 -0.041428611
0.0087716915 0.1812802 -0.041438639
0.0081919404 0.18136366 -0.04145205
0.0075975391 0.18145175 -0.041492023
0.0070390301 0.18152851 -0.041467246
0.0064748893 0.18160702 -0.04145252
0.0058951359 0.18169047 -0.041466027
0.0053206179 0.18177229 -0.041470092
0.004724863 0.18186082 -0.041512549
0.0041506435 0.18194257 -0.041516207
0.0035679783 0.18202694 -0.04153499
0.0029777503 0.18211369 -0.041567396
0.0024158452 0.18219152 -0.041548692
0.0018516062 0.18227008 -0.041534062
0.0013310229 0.18233484 -0.041440882
0.00081799924 0.18239717 -0.04133378
0.00029770099 0.18246183 -0.041239798
-0.00019747484 0.18251854 -0.041100673
-0.00070157833 0.18257803 -0.040977366
-0.0012488337 0.18265125 -0.040932402
-0.0018237364 0.18273315 -0.040937066
-0.00261949 0.18288498 -0.041340768
-0.0035380404 0.18307567 -0.041966405
-0.0043647327 0.18323728 -0.04242599
-0.0050578667 0.18335663 -0.042644437
-0.0057158945 0.18346484 -0.042799242
-0.0064057289 0.18358316 -0.043011632
-0.0070825713 0.18369734 -0.043200448
-0.0078448625 0.18383858 -0.043543793
-0.0087668067 0.18403037 -0.044175591
-0.0095679937 0.18418387 -0.044589028
-0.010315732 0.18432052 -0.044906117
-0.011058138 0.18445545 -0.045213372
-0.011719947 0.18456487 -0.045375146
-0.012398926 0.18467976 -0.04556793
-0.013045988 0.18478452 -0.045703057
-0.013682772 0.18488602 -0.045819584
-0.014309469 0.18498434 -0.045917917
-0.014951491 0.18508753 -0.046043985
-0.015559179 0.18517981 -0.046107806
-0.016159106 0.18526967 -0.046158016
-0.016714904 0.18534556 -0.046128083
-0.017269246 0.18542099 -0.046095748
-0.017795067 0.18548737 -0.046011813
-0.018287726 0.18554327 -0.045867912
-0.018717133 0.18557917 -0.045610067
-0.019115031 0.18560508 -0.04529494
-0.019600414 0.18565871 -0.045138121
-0.020103637 0.18571796 -0.045013424
-0.020615008 0.18577977 -0.044903327
-0.021181479 0.18585902 -0.044892881
-0.021755803 0.18594077 -0.044896446
-0.022366196 0.18603395 -0.044965446
-0.022969909 0.18612498 -0.045022309
-0.023558974 0.18621139 -0.045052528
-0.02239782 0.18574391 -0.041921176
-0.022870496 0.1857935 -0.041741289
-0.023342296 0.1858428 -0.041559808
-0.023870647 0.18591 -0.041480444
-0.024524208 0.18601683 -0.041627299
-0.025163222 0.18611905 -0.041747905
-0.025697101 0.18618798 -0.041678488
-0.026179962 0.18624078 -0.041516989
-0.026630811 0.18628347 -0.041297723
-0.027075648 0.18632424 -0.041067515
-0.027491488 0.18635581 -0.04078491
-0.027869299 0.18637538 -0.04043369
-0.025995195 0.18416567 -0.021973101
-0.026512537 0.18422675 -0.021867672
-0.027229674 0.18435937 -0.022145813
-0.027897347 0.18447474 -0.02232899
-0.028364941 0.18451853 -0.022128189
-0.028739091 0.18452866 -0.021747893
-0.029062118 0.18452109 -0.021269538
-0.02935227 0.18450172 -0.020728229
0.079355262 0.16580181 0.015733792
0.07883691 0.1658636 0.015843859
0.078349091 0.165914 0.016016377
0.051532947 0.17509048 -0.032532599
0.050924506 0.17518301 -0.032597914
0.050254799 0.17529495 -0.032773901
0.049583163 0.17540646 -0.032953274
0.048970412 0.17550036 -0.033026446
0.048391528 0.17558356 -0.033038463
0.047825541 0.17566267 -0.033027019
0.047280967 0.17573498 -0.032976992
0.046741568 0.17580569 -0.032917611
0.046193495 0.17587912 -0.032873955
0.045644242 0.17595294 -0.03283238
0.045044683 0.17604268 -0.032881685
0.044402417 0.17614593 -0.033008158
0.043755636 0.17625059 -0.033142779
0.043036457 0.17637819 -0.033408165
0.042351227 0.17649506 -0.033612296
0.041639995 0.1766201 -0.033863258
0.040933613 0.17674366 -0.034105573
0.040241428 0.17686269 -0.034322232
0.0395757 0.17697233 -0.034490965
0.038912851 0.17708209 -0.03465452
0.038270805 0.17718528 -0.034780592
0.037599333 0.17729777 -0.034959767
0.036882639 0.17742456 -0.035220772
0.03621085 0.17753716 -0.03540054
0.035530664 0.17765242 -0.035595521
0.034796704 0.17778468 -0.035887554
0.034077916 0.17791112 -0.036152035
0.033329103 0.17804809 -0.03647102
0.032506775 0.17820832 -0.036922842
0.03174749 0.17834862 -0.037260715
0.03106745 0.1784638 -0.037455302
0.03042572 0.1785669 -0.037580874
0.029828608 0.17865585 -0.037625708
0.029249534 0.1787391 -0.037638128
0.028678313 0.17881985 -0.037636124
0.028111946 0.17889908 -0.037625477
0.027539179 0.17898038 -0.037626561
0.026971739 0.17905992 -0.037617598
0.026396446 0.17914195 -0.037623055
0.025819607 0.17922451 -0.037631392
0.025256146 0.17930281 -0.037615471
0.024679113 0.17938542 -0.037624214
0.024125449 0.17946064 -0.037590593
0.023517955 0.17955288 -0.037654221
0.022794127 0.17968093 -0.037927851
0.022012148 0.17982839 -0.038306691
0.021306887 0.17995155 -0.038546912
0.020556912 0.18008889 -0.038867883
0.019869793 0.18020633 -0.039075494
0.019192755 0.18032062 -0.039264709
0.018475041 0.1804467 -0.039527405
0.017813329 0.1805561 -0.039688874
0.017162383 0.1806621 -0.039831061
0.016494175 0.18077357 -0.040004462
0.015854966 0.18087585 -0.040125363
0.01522274 0.18097591 -0.040233642
0.014572183 0.18108179 -0.040375128
0.013931034 0.18118466 -0.040499505
0.013287946 0.18128818 -0.040627465
0.012648347 0.18139061 -0.04074917
0.012030088 0.18148625 -0.040832084
0.011440444 0.18157285 -0.040863596
0.010886588 0.18164812 -0.040830366
0.010314498 0.18172915 -0.040829964
0.0097298957 0.18181415 -0.040852323
0.0091805961 0.18188798 -0.040810846
0.0086189788 0.18196569 -0.040791444
0.0080477651 0.18204649 -0.040789645
0.0074519105 0.18213505 -0.040832289
0.0068488801 0.18222587 -0.040887866
0.0062166518 0.18232594 -0.040996037
0.0055888887 0.1824246 -0.041096456
0.0049460493 0.18252701 -0.04122382
0.0043297289 0.18262203 -0.041303262
0.0037380476 0.18270928 -0.041338451
0.0031548049 0.18279386 -0.041358329
0.0025799936 0.18287577 -0.041362785
0.0020243935 0.18295157 -0.041332647
0.0014980836 0.18301813 -0.041249797
0.001007122 0.18307453 -0.041103024
0.00052416604 0.18312736 -0.04094173
5.4785982e-05 0.18317588 -0.040755775
-0.00041662343 0.18322507 -0.040573597
-0.00090849958 0.18328072 -0.040428407
-0.0014189091 0.18334222 -0.04031653
-0.001976545 0.18341871 -0.040290169
-0.0028018812 0.18357989 -0.040747367
-0.0039400579 0.18383907 -0.04176965
-0.0047026426 0.18398039 -0.042113386
-0.0053853998 0.18409644 -0.042312942
-0.006057878 0.18420924 -0.04249401
-0.0067036776 0.18431363 -0.04262694
-0.0073352261 0.18441348 -0.042733923
-0.0079788426 0.18451612 -0.042862676
-0.0086156307 0.18461762 -0.042979203
-0.0091929575 0.18470033 -0.042988334
-0.0097718379 0.18478352 -0.043000359
-0.011462378 0.1852175 -0.045020483
-0.012206436 0.18535297 -0.045330811
-0.012892586 0.18547009 -0.045536429
-0.013558372 0.18558078 -0.045705363
-0.014216783 0.18568915 -0.04586117
-0.014917583 0.18581091 -0.04609324
-0.01557061 0.18591654 -0.046239
-0.016205937 0.18601759 -0.046352834
-0.016814303 0.18611012 -0.046418056
-0.017411418 0.1861991 -0.04646308
-0.017958287 0.18627217 -0.046417236
-0.018475488 0.18633583 -0.046317689
-0.018975805 0.18639413 -0.046187624
-0.019419048 0.18643545 -0.045954831
-0.019843709 0.18646981 -0.045688029
-0.020299502 0.18651405 -0.045477718
-0.02081554 0.18657734 -0.04537598
-0.021361541 0.18665011 -0.045328639
-0.021914225 0.18672502 -0.045293223
-0.022475354 0.18680258 -0.045273133
-0.023061804 0.18688817 -0.045298778
-0.02368772 0.18698627 -0.045395814
-0.02427223 0.18707122 -0.045417771
-0.024864592 0.18715867 -0.045454159
-0.023336727 0.18657723 -0.041660473
-0.023875456 0.1866477 -0.041599907
-0.02454482 0.18675953 -0.041775398
-0.025119245 0.18684129 -0.041779168
-0.025633916 0.18690416 -0.041675042
-0.02611997 0.18695799 -0.041519515
-0.026606228 0.18701187 -0.041364085
-0.027074441 0.18706001 -0.041175943
-0.027481124 0.18708974 -0.040877029
-0.027854864 0.187108 -0.040518351
-0.027508553 0.18521246 -0.02280526
-0.028009225 0.18526809 -0.022667807
-0.028389953 0.18528041 -0.022300236
-0.028740752 0.1852829 -0.021875085
-0.029024128 0.18526134 -0.02132085
-0.029307965 0.18523984 -0.020767115
0.051602397 0.1758108 -0.032518446
0.051066242 0.17588046 -0.032453202
0.050488655 0.17596324 -0.032462835
0.049889036 0.17605299 -0.03251224
0.049302805 0.17613851 -0.032537486
0.048721384 0.1762225 -0.032554086
0.048160948 0.17629987 -0.032532692
0.047553845 0.17639197 -0.03259562
0.046926342 0.17649053 -0.032695346
0.04628177 0.17659351 -0.032825891
0.045646906 0.17669441 -0.032938935
0.04494974 0.17681505 -0.033164646
0.044212941 0.17694817 -0.033461854
0.043550339 0.17705686 -0.033624902
0.042902019 0.17716202 -0.033762317
0.042232331 0.17727394 -0.033938304
0.04157605 0.17738163 -0.034090035
0.040909283 0.17749262 -0.034260754
0.040254161 0.17759892 -0.03441029
0.039602343 0.17770523 -0.034554057
0.038936317 0.17781597 -0.034723386
0.038296252 0.17791852 -0.034845885
0.037613362 0.17803463 -0.035045736
0.036867622 0.17816961 -0.035359047
0.036150955 0.17829639 -0.035619855
0.034777455 0.17862898 -0.037067123
0.034020215 0.1787686 -0.037401218
0.033312973 0.17889142 -0.037644915
0.032669012 0.17899519 -0.037774466
0.032082856 0.17908069 -0.037799515
0.031460527 0.17917763 -0.037889995
0.030892409 0.17925739 -0.037882425
0.030319445 0.17933871 -0.037883706
0.029740758 0.17942186 -0.037895329
0.029188167 0.17949672 -0.037859716
0.028633632 0.17957221 -0.037827786
0.028086081 0.17964549 -0.037783131
0.027520388 0.17972451 -0.037771285
0.026963916 0.1798006 -0.037742734
0.026402492 0.17987825 -0.037723139
0.025842916 0.17995533 -0.037700251
0.025297107 0.18002807 -0.037652511
0.024731129 0.18010718 -0.037641063
0.024161559 0.18018742 -0.03763628
0.023521574 0.18028994 -0.037758574
0.022791386 0.18042099 -0.038043745
0.022081181 0.18054578 -0.038293019
0.021439312 0.18064788 -0.038418695
0.020770229 0.18075959 -0.038593486
0.020125393 0.18086366 -0.038724631
0.019471541 0.18097058 -0.038872086
0.018837955 0.18107109 -0.038982846
0.018186871 0.1811761 -0.039125018
0.017591503 0.1812645 -0.039166771
0.016942209 0.18136998 -0.03930597
0.016289903 0.1814764 -0.039450437
0.015658552 0.18157618 -0.03955723
0.015054354 0.18166739 -0.039614886
0.014429405 0.18176517 -0.039710134
0.013804358 0.18186297 -0.039805479
0.013166366 0.18196383 -0.039924093
0.012532298 0.18206449 -0.040035747
0.011922088 0.18215761 -0.040104248
0.011341559 0.18224131 -0.040119156
0.010771896 0.18232159 -0.040114567
0.010202524 0.18240176 -0.040109381
0.0096035628 0.18249132 -0.040157497
0.0089889923 0.18258578 -0.040233955
0.0083551174 0.18268639 -0.040345311
0.00774258 0.18278021 -0.040418085
0.0070850383 0.18288831 -0.040572006
0.0064255199 0.18299599 -0.04072959
0.0057476121 0.18311054 -0.040920489
0.0050606811 0.18322791 -0.041127514
0.0044220514 0.18333 -0.041247416
0.0038136896 0.18342252 -0.041312639
0.0032420843 0.18350342 -0.041311532
0.0026807599 0.18358104 -0.041291632
0.002140969 0.18365186 -0.041233055
0.0016301768 0.18371351 -0.041121975
0.0011443086 0.18376724 -0.040965848
0.00067910366 0.18381447 -0.040772535
0.00022722688 0.1838585 -0.040555157
-0.00021790154 0.18389936 -0.040325448
-0.00065983087 0.1839392 -0.040089972
-0.0011049556 0.18398008 -0.039860368
-0.0015829224 0.18403234 -0.039690118
-0.0020899363 0.18409279 -0.039572079
-0.0025786106 0.18414745 -0.039421223
-0.0044139484 0.18462518 -0.041702658
-0.0050895298 0.18473896 -0.041889191
-0.0057682162 0.18485375 -0.04208149
-0.0064113056 0.18495725 -0.042209446
-0.0070680166 0.18506405 -0.04236187
-0.0076703699 0.18515466 -0.042416051
-0.0083160764 0.185259 -0.042548783
-0.0088986391 0.18534337 -0.042567465
-0.009478393 0.18542683 -0.042580977
-0.010073568 0.18551517 -0.042622328
-0.010632276 0.18559198 -0.042597856
-0.011167993 0.18566151 -0.042531818
-0.013326027 0.18624136 -0.045396145
-0.014014254 0.18635811 -0.045605548
-0.014742504 0.18648858 -0.04588744
-0.01548365 0.18662311 -0.046192385
-0.016172752 0.18674019 -0.046403483
-0.01682787 0.18684749 -0.04655312
-0.017472509 0.1869515 -0.046683758
-0.018055171 0.18703587 -0.046702646
-0.018601656 0.18710881 -0.046655998
-0.019119918 0.18717283 -0.046558533
-0.019613832 0.18722914 -0.046417031
-0.020079911 0.18727663 -0.046225108
-0.020496778 0.18730955 -0.04594449
-0.020979732 0.1873624 -0.045783199
-0.021492954 0.18742481 -0.045676589
-0.022018194 0.187491 -0.045591466
-0.022583786 0.18756999 -0.045579419
-0.023174308 0.18765688 -0.045612529
-0.023769386 0.18774517 -0.045653574
-0.024356212 0.18783088 -0.045680016
-0.024974961 0.18792669 -0.045763925
-0.025567804 0.18801431 -0.045801204
-0.026152793 0.18809943 -0.04582417
-0.024521705 0.18748836 -0.041844349
-0.025058392 0.18755819 -0.041780002
-0.025587708 0.18762569 -0.04170233
-0.026097726 0.1876871 -0.041589953
-0.026602112 0.1877467 -0.041467339
-0.027065337 0.18779431 -0.041270353
-0.027468365 0.18782187 -0.040964775
-0.027843669 0.18784063 -0.040608779
-0.027722687 0.18604028 -0.02333978
-0.028081622 0.18604547 -0.02293054
-0.02846133 0.18605848 -0.022561189
-0.028799836 0.18605694 -0.022112465
-0.029068276 0.18603049 -0.021529593
-0.02930779 0.18599352 -0.020891124
-0.031287871 0.18657403 -0.02359291
0.051240075 0.17656776 -0.032250516
0.050730761 0.17662998 -0.032136947
0.050175682 0.17670442 -0.032104217
0.04955551 0.17680083 -0.032192312
0.048934534 0.17689733 -0.032280304
0.048322968 0.17699087 -0.032351285
0.047650605 0.17710365 -0.032532148
0.046962585 0.17722036 -0.032741148
0.046263691 0.17734152 -0.032969937
0.045586627 0.1774558 -0.033159249
0.044862915 0.1775838 -0.033432677
0.044192635 0.17769592 -0.03360977
0.043558724 0.17779651 -0.033721127
0.042933881 0.17789322 -0.033815973
0.042266514 0.17800441 -0.033987783
0.041627958 0.1781065 -0.034107592
0.040980145 0.17821151 -0.034244105
0.040315703 0.17832074 -0.034410454
0.039633814 0.1784365 -0.034608416
0.038933769 0.17855704 -0.034839191
0.038265813 0.17866841 -0.035011999
