# .PCD v0.7 - Point Cloud Data file format
VERSION 0.7
FIELDS x y z
SIZE 4 4 4
TYPE F F F
COUNT 1 1 1
WIDTH 1304
HEIGHT 1
VIEWPOINT 0 0 0 1 0 0 0
POINTS 1304
DATA ascii
0.086322464 0.15872383 -0.0082622897
0.086946532 0.15856081 -0.0079755746
-0.031393148 0.18560366 -0.044667136
-0.030828642 0.18546188 -0.044404555
-0.030302955 0.18532175 -0.044122748
-0.030007595 0.18518555 -0.043728609
-0.029888252 0.18505146 -0.043248937
-0.031532869 0.18495075 -0.041908145
-0.03164693 0.18482167 -0.041314408
-0.031553611 0.18468897 -0.040821701
-0.031497709 0.18455599 -0.040311128
-0.031421423 0.1844236 -0.039810177
-0.031333685 0.18429103 -0.03931481
-0.031224018 0.18415806 -0.038830105
-0.031008149 0.18402326 -0.038397163
-0.030623818 0.18388554 -0.038046449
-0.032142855 0.18024193 -0.022237098
-0.032041781 0.18010911 -0.021748219
-0.032021813 0.17997772 -0.021219829
-0.032026649 0.17984669 -0.020679271
-0.031924747 0.1797139 -0.020190839
-0.031697094 0.17957793 -0.019763993
-0.031348638 0.17944083 -0.01939569
-0.00059424154 0.17875654 -0.033861965
-0.00086803548 0.17863113 -0.033189937
-0.00065775588 0.17849548 -0.032754663
-0.00055275299 0.17836258 -0.032267645
-0.0007153824 0.17823432 -0.031650193
-0.00057306886 0.17810081 -0.031181471
-0.00053678639 0.17796913 -0.030660976
-0.00042309053 0.17783608 -0.030178228
-0.00029338337 0.17770277 -0.029703379
-0.00024407543 0.17757088 -0.029189287
-0.00028167106 0.17744043 -0.028632745
-0.021029634 0.17768176 -0.0179723
-0.020785226 0.17754647 -0.017553376
-0.020633003 0.17741276 -0.017089447
-0.019007428 0.17725262 -0.017344337
-0.018359723 0.17710939 -0.017122319
-0.01796549 0.17697151 -0.016776433
-0.017343281 0.17682967 -0.016541675
-0.016679885 0.17668617 -0.016327288
0.079410724 0.16134852 -0.011558607
0.079892531 0.16119595 -0.011226848
0.080372497 0.16104437 -0.010893956
0.084271759 0.16022515 -0.0098792072
0.084685519 0.16007563 -0.009517841
0.085211456 0.15992264 -0.0092047751
0.085784584 0.15976366 -0.0089020152
0.086252876 0.15960933 -0.0085513443
0.086729556 0.15945375 -0.0082043614
0.087328024 0.15929262 -0.0079070237
-0.032504715 0.1864288 -0.044454273
-0.031910516 0.18628742 -0.044205852
-0.031468436 0.18614872 -0.043883286
-0.031191481 0.18601286 -0.043480176
-0.030899955 0.18587674 -0.043084174
-0.030644907 0.18574126 -0.042670317
-0.035406992 0.18569259 -0.039810047
-0.035372466 0.18556094 -0.039288666
-0.035192437 0.18542676 -0.038838327
-0.031407237 0.1852302 -0.040145904
-0.031333439 0.18509784 -0.039643802
-0.031251676 0.18496537 -0.039145511
-0.031205894 0.1848335 -0.038629636
-0.031013457 0.18469909 -0.038185336
-0.030595655 0.18456081 -0.037850957
-0.032162249 0.18104906 -0.022556499
-0.032039046 0.18091589 -0.022078454
-0.031980745 0.18078378 -0.021568708
-0.031991675 0.18065292 -0.021025222
-0.032014601 0.18052225 -0.020475874
-0.031936362 0.18038982 -0.0199758
-0.031759121 0.1802557 -0.019524131
-0.031365089 0.18011782 -0.019178122
-0.030739581 0.17997593 -0.018944964
-0.0019902121 0.1793455 -0.032426931
-0.0019180663 0.17921317 -0.031923935
-0.023312403 0.17866684 -0.017723609
-0.022930874 0.17852916 -0.017371468
-0.022403223 0.17838895 -0.017090613
-0.022047831 0.17825171 -0.016725745
-0.021566583 0.17811236 -0.016422274
-0.020954302 0.17797069 -0.016182708
-0.020207578 0.1778267 -0.016008671
0.08028888 0.16192512 -0.01117279
-0.034179844 0.18739279 -0.044505414
-0.033658497 0.18725269 -0.044221472
-0.033216387 0.18711495 -0.043898575
-0.032700412 0.18697496 -0.043612059
-0.032256171 0.18683617 -0.043290459
-0.031947546 0.18670078 -0.042902574
-0.031614065 0.18656391 -0.042526998
-0.035352156 0.18649557 -0.040166561
-0.035459615 0.18636638 -0.039576016
-0.035398528 0.18623424 -0.039067592
-0.035213642 0.18610001 -0.038619652
-0.034956209 0.18596448 -0.038207054
-0.034605891 0.18582733 -0.037839636
-0.021357918 0.18377085 -0.036763031
-0.020758236 0.18362941 -0.036517367
-0.020379471 0.18349274 -0.036163576
-0.019849246 0.18335247 -0.035883881
-0.019324375 0.18321234 -0.03560172
-0.018963916 0.18307598 -0.035238951
-0.03210517 0.18172289 -0.022375353
-0.031966858 0.18159038 -0.021904357
-0.031954244 0.18145908 -0.021372322
-0.032003313 0.18132888 -0.020810183
-0.032012478 0.18119797 -0.020267587
-0.031961419 0.18106602 -0.019754285
-0.031797402 0.1809321 -0.019296136
-0.031405434 0.18079425 -0.018949149
-0.030771771 0.18065222 -0.018719893
-0.026287427 0.17979112 -0.017676763
-0.025579644 0.17964876 -0.01748343
-0.025322227 0.17951325 -0.01707075
-0.02474848 0.17937224 -0.016812366
-0.02395585 0.17922843 -0.016660426
-0.023304721 0.17908607 -0.016439773
-0.022679927 0.17894419 -0.016206272
-0.022133557 0.17880462 -0.015934223
-0.021423003 0.17866127 -0.015742533
-0.035147958 0.18821253 -0.04436351
-0.034700803 0.18807374 -0.044043418
-0.034264065 0.18793607 -0.043717857
-0.033853784 0.18779884 -0.043379422
-0.033513993 0.18766189 -0.043006953
-0.033255838 0.18752636 -0.042594709
-0.033048108 0.18739265 -0.042157441
-0.032765865 0.18725668 -0.041756913
-0.035429813 0.18716884 -0.039920684
-0.035407178 0.18703739 -0.039393533
-0.035327069 0.18690494 -0.038894445
-0.035169251 0.18677115 -0.038433269
-0.034912013 0.1866366 -0.038020253
-0.034555897 0.18649937 -0.037655778
-0.02314941 0.18461251 -0.036216989
-0.022294058 0.18446758 -0.036095567
-0.021495538 0.18432367 -0.035946541
-0.021028524 0.18418546 -0.035635706
-0.020679539 0.18404835 -0.035267774
-0.020231741 0.18391047 -0.034947634
-0.019651918 0.18376939 -0.034692183
-0.0192532 0.18363237 -0.03434816
-0.018987304 0.18349671 -0.033939637
-0.018650899 0.18336083 -0.033565246
-0.018258927 0.18322293 -0.033218168
-0.018215826 0.18309113 -0.032701049
-0.017753759 0.18295301 -0.032387931
-0.01739941 0.18281581 -0.032022461
-0.017136468 0.18268117 -0.031612292
-0.0169362 0.18254663 -0.031171709
-0.016738703 0.18241216 -0.030729894
-0.032249592 0.18253222 -0.022633839
-0.032037839 0.18239748 -0.02219885
-0.03194017 0.18226475 -0.021708377
-0.031985417 0.18213443 -0.02114811
-0.032053903 0.18200457 -0.020576563
-0.032072179 0.18187383 -0.020029524
-0.032019563 0.18174183 -0.019517032
-0.03184747 0.18160875 -0.019062456
-0.031470276 0.18147114 -0.018708184
-0.03083864 0.18133008 -0.018477725
-0.029945368 0.18118455 -0.018374858
-0.029180134 0.18104118 -0.018209482
-0.02869224 0.18090264 -0.017908867
-0.028167168 0.18076248 -0.017626762
-0.027543196 0.18062158 -0.017392565
-0.027059229 0.1804831 -0.017090093
-0.026653616 0.18034501 -0.01674971
-0.026201269 0.18020704 -0.01643181
-0.025672561 0.18006782 -0.01615114
-0.02498089 0.17992574 -0.015949946
-0.024195811 0.17978205 -0.015794341
-0.036141343 0.1890308 -0.044209901
-0.035617478 0.18889162 -0.043926872
-0.035208434 0.18875444 -0.043587808
-0.034857348 0.18861826 -0.043220621
-0.034524783 0.18848239 -0.042844266
-0.034118652 0.18834428 -0.042504117
-0.033789188 0.18820848 -0.042126253
-0.033573791 0.18807463 -0.041692812
-0.035062507 0.18796645 -0.040429652
-0.035391733 0.18784013 -0.039731279
-0.03532359 0.18770885 -0.039226107
-0.035227887 0.1875761 -0.038734552
-0.03507565 0.18744241 -0.03827063
-0.034829341 0.18730804 -0.037852287
-0.034490608 0.18717112 -0.037479278
-0.028889233 0.18629828 -0.036978103
-0.028348325 0.18615885 -0.036703423
-0.027600726 0.18601677 -0.036529202
-0.026817916 0.18587311 -0.036372438
-0.026171165 0.1857328 -0.036149018
-0.02551133 0.18559125 -0.035932228
-0.024834642 0.18544945 -0.035723791
-0.024241773 0.18530905 -0.035474326
-0.023587996 0.18516861 -0.035254374
-0.022934867 0.1850272 -0.035034392
-0.02224238 0.1848851 -0.034833588
-0.021591606 0.1847447 -0.034612119
-0.021088315 0.1846059 -0.034319058
-0.020639693 0.184468 -0.033999264
-0.020341037 0.18433177 -0.033606723
-0.019979527 0.18419541 -0.033244587
-0.01958918 0.18405858 -0.032896478
-0.019481076 0.18392558 -0.032410976
-0.019232923 0.18379121 -0.031993512
-0.019075425 0.18365741 -0.031532161
-0.018708745 0.18352096 -0.031172507
-0.017859699 0.18337613 -0.031047968
-0.035559081 0.18352067 -0.021889271
-0.035496958 0.1833885 -0.021381391
-0.035564318 0.18325859 -0.020810382
-0.031958632 0.18307185 -0.022028221
-0.031908818 0.18293992 -0.0215143
-0.032027207 0.18281092 -0.02091852
-0.032171346 0.18268234 -0.020310037
-0.032180004 0.18255141 -0.019767612
-0.032078825 0.18241863 -0.019278822
-0.031864792 0.18228383 -0.018844996
-0.031495333 0.18214732 -0.018486671
-0.030859372 0.18200622 -0.018258246
-0.030181939 0.18186532 -0.018049842
-0.029552875 0.18172437 -0.017818138
-0.029015182 0.18158491 -0.017541766
-0.028531948 0.18144646 -0.017238967
-0.027993524 0.18130706 -0.016963042
-0.027573528 0.18116966 -0.016629327
-0.027231546 0.18103363 -0.016257649
-0.026839027 0.18089674 -0.015910575
-0.026314655 0.18075754 -0.015627757
-0.025573911 0.18061464 -0.015450509
-0.022611773 0.18004487 -0.01474035
-0.021767994 0.17990018 -0.014613323
-0.020998077 0.17975767 -0.014449922
-0.020166678 0.17961413 -0.014316535
-0.019197242 0.17946726 -0.014250781
-0.018383613 0.17932403 -0.014108753
-0.037027992 0.18984243 -0.04410151
-0.036670409 0.18970996 -0.04374456
-0.036297426 0.18957335 -0.043387923
-0.035917632 0.1894367 -0.043034662
-0.035505347 0.18930043 -0.042696975
-0.03511636 0.18916357 -0.04234805
-0.034765989 0.18902741 -0.041980505
-0.034420505 0.18889135 -0.041610453
-0.034183644 0.18875617 -0.041187719
-0.035251334 0.18864165 -0.040129624
-0.035363756 0.18851253 -0.039536584
-0.035289846 0.1883802 -0.039034471
-0.035174914 0.18824714 -0.038552448
-0.035016157 0.18811426 -0.038091287
-0.034770273 0.18797991 -0.037672769
-0.03444352 0.18784319 -0.0372939
-0.029005507 0.18697704 -0.036711778
-0.028547788 0.18683903 -0.036396518
-0.027935455 0.18669929 -0.036156319
-0.027200898 0.18655646 -0.035976026
-0.026644776 0.18641768 -0.03570839
-0.026083427 0.18627788 -0.035443649
-0.025522547 0.18613902 -0.035178322
-0.024980096 0.18599951 -0.034904357
-0.0244522 0.18586124 -0.034622952
-0.023930402 0.1857221 -0.034338955
-0.023459645 0.18558477 -0.03402967
-0.023049155 0.18544757 -0.033691324
-0.022611899 0.18530992 -0.033366125
-0.022018189 0.18516952 -0.033117101
-0.021721574 0.18503426 -0.032723263
-0.021596706 0.18490203 -0.032245684
-0.021347122 0.18476661 -0.031829171
-0.021187121 0.18463375 -0.031368736
-0.020854028 0.18449788 -0.030992655
-0.020525889 0.18436208 -0.030614173
-0.020202609 0.18422639 -0.030233392
-0.035539374 0.18432428 -0.022228736
-0.035477981 0.18419215 -0.021720501
-0.035508551 0.1840616 -0.021167424
-0.035601437 0.18393214 -0.02058398
-0.035496011 0.18379925 -0.020097233
-0.035169318 0.18366349 -0.019718044
-0.034590781 0.1835243 -0.01946133
-0.033782318 0.18338116 -0.019316763
-0.032515541 0.18323109 -0.019395359
-0.032200009 0.18309551 -0.019010751
-0.031905673 0.18296032 -0.018615752
-0.031501986 0.1828232 -0.018274123
-0.031007281 0.18268453 -0.017976895
-0.030468317 0.18254606 -0.017700909
-0.029965555 0.18240726 -0.017407563
-0.029535221 0.18226968 -0.017078904
-0.029212771 0.182134 -0.016697671
-0.028939405 0.18199918 -0.01629246
-0.028499251 0.18186145 -0.015968597
-0.027879989 0.18172158 -0.015731812
-0.027306302 0.1815825 -0.015472759
-0.026772643 0.18144315 -0.015194446
-0.026044888 0.18130141 -0.015010525
-0.025237249 0.18115826 -0.014865549
-0.024487691 0.18101618 -0.01469228
-0.023734612 0.18087398 -0.014520667
-0.02311576 0.18073414 -0.014283653
-0.022481559 0.18059306 -0.014054425
-0.021662867 0.18044974 -0.01391479
-0.037669733 0.19064006 -0.044098124
-0.037415668 0.19050978 -0.043692209
-0.037211522 0.1903809 -0.043260079
-0.03693226 0.19025128 -0.042866871
-0.036614828 0.19011877 -0.042487368
-0.036201231 0.18998151 -0.042150527
-0.035811074 0.18984562 -0.041802004
-0.035458237 0.18970938 -0.04143551
-0.035149954 0.18957391 -0.04104735
-0.03494963 0.18944037 -0.040606637
-0.037302643 0.18933888 -0.038917918
-0.037625104 0.18920842 -0.038214907
-0.037717327 0.18907765 -0.037630588
-0.03757143 0.18894836 -0.037168622
-0.037230149 0.18881778 -0.03680598
-0.036834396 0.18868178 -0.036460113
-0.029156411 0.18765543 -0.036428999
-0.0287915 0.18751898 -0.036068361
-0.028349591 0.18738122 -0.035745375
-0.027809592 0.18724273 -0.035469934
-0.027200261 0.18710306 -0.035228223
-0.026722992 0.18696564 -0.034922138
-0.026189094 0.18682727 -0.034643665
-0.025714116 0.18668891 -0.034336749
-0.025320863 0.18655299 -0.033989735
-0.024908194 0.18641573 -0.033652548
-0.024643818 0.18628101 -0.033242896
-0.02427146 0.18614449 -0.032885995
-0.023886146 0.18600869 -0.032535069
-0.02366404 0.18587473 -0.032104909
-0.023395212 0.18573995 -0.031697489
-0.023164971 0.18560493 -0.031271555
-0.023032753 0.18547253 -0.030797632
-0.022846708 0.1853392 -0.030349895
-0.022886882 0.18520883 -0.02979211
-0.022833245 0.1850768 -0.029280055
-0.035527952 0.18512802 -0.022564113
-0.035441749 0.18499547 -0.02206805
-0.035461567 0.18486474 -0.021520212
-0.035548449 0.18473518 -0.020939697
-0.035625421 0.18460543 -0.020363979
-0.035509475 0.18447234 -0.019882286
-0.035179034 0.18433748 -0.019504638
-0.034616917 0.1841986 -0.01923993
-0.034030341 0.18405834 -0.018987549
-0.033379026 0.18391891 -0.018766018
-0.032607973 0.18377639 -0.018603157
-0.032101251 0.18363848 -0.018311458
-0.031710282 0.18350162 -0.017963614
-0.031267628 0.18336479 -0.017640661
-0.030931955 0.18322888 -0.017265813
-0.030670581 0.18309426 -0.016854793
-0.030400006 0.18295945 -0.016448248
-0.030061224 0.18282349 -0.016074959
-0.029567009 0.18268579 -0.015777152
-0.028987637 0.1825466 -0.015520815
-0.028339861 0.18240625 -0.015297934
-0.027703034 0.18226607 -0.015069639
-0.027060946 0.18212584 -0.014843911
-0.02628387 0.18198417 -0.01468375
-0.025645813 0.181844 -0.01445605
-0.025029136 0.18170416 -0.014217956
-0.02433156 0.18156295 -0.014019299
-0.02371013 0.18142304 -0.013783503
-0.023003737 0.18128261 -0.013588846
-0.0222707 0.1811408 -0.013407476
-0.038168892 0.19143729 -0.04416832
-0.03799358 0.19130772 -0.043721516
-0.03784626 0.19117749 -0.043260586
-0.037664413 0.19104789 -0.042817168
-0.037388638 0.19091925 -0.042421855
-0.037062205 0.19079018 -0.042052872
-0.036718212 0.19066048 -0.041691147
-0.036349565 0.19052397 -0.041332375
-0.036017366 0.1903891 -0.040955618
-0.035905346 0.1902561 -0.040472064
-0.036940135 0.19013903 -0.039430499
-0.037548408 0.1900077 -0.038581192
-0.037858792 0.18987618 -0.037884753
-0.037866905 0.18974648 -0.037343539
-0.037649713 0.18961748 -0.036918096
-0.037258834 0.18948777 -0.0365825
-0.03689079 0.18935372 -0.036224958
-0.036515832 0.18921712 -0.035869293
-0.029527364 0.18833666 -0.036039103
-0.029161828 0.18820022 -0.035678823
-0.028730849 0.18806361 -0.035350185
-0.028310293 0.18792717 -0.035016492
-0.02785114 0.18778911 -0.034701847
-0.027408583 0.18765233 -0.034378894
-0.027041582 0.18751682 -0.034019001
-0.02670796 0.18738092 -0.033643186
-0.026290117 0.18724452 -0.033308059
-0.025933431 0.18710923 -0.032943293
-0.025610456 0.1869735 -0.032562234
-0.025337929 0.1868387 -0.032156676
-0.025131414 0.18670504 -0.031718872
-0.024869317 0.18657038 -0.031308159
-0.024793828 0.18643898 -0.030806532
-0.02457978 0.18630515 -0.030372377
-0.024413498 0.18617119 -0.029915283
-0.024342472 0.18603984 -0.029411431
-0.024326527 0.18590851 -0.028881084
-0.023942677 0.18577272 -0.02852945
-0.035535745 0.18580008 -0.02235234
-0.035439186 0.18566827 -0.021860916
-0.035488978 0.1855381 -0.021298518
-0.035558812 0.18540822 -0.02072626
-0.035603635 0.18527792 -0.020166261
-0.035481483 0.18514478 -0.019687681
-0.035189584 0.18501055 -0.019291209
-0.034627266 0.18487167 -0.019026589
-0.034042232 0.18473236 -0.018772975
-0.033538401 0.18459454 -0.018479956
-0.032991134 0.18445686 -0.018207636
-0.032493822 0.18431908 -0.017911319
-0.032127351 0.18418267 -0.017551577
-0.031853676 0.18404783 -0.017146539
-0.031594224 0.18391417 -0.01673422
-0.03133782 0.18377964 -0.016320771
-0.031016393 0.18364395 -0.015939051
-0.03054026 0.18350658 -0.015632365
-0.029888945 0.1833671 -0.01541087
-0.02927692 0.18322738 -0.015170485
-0.028554717 0.18308669 -0.014983516
-0.027856702 0.18294641 -0.014784742
-0.027259143 0.18280689 -0.014537307
-0.026668487 0.18266849 -0.014286233
-0.026060184 0.18252885 -0.014044011
-0.025492182 0.18238984 -0.013782196
-0.024817621 0.18224999 -0.013572022
-0.024085389 0.18210913 -0.01338993
-0.023351515 0.18196824 -0.013208646
-0.038464248 0.19210465 -0.043806437
-0.038418382 0.19197446 -0.043293163
-0.038350634 0.19184498 -0.042790983
-0.038135536 0.19171506 -0.042364806
-0.037818089 0.19158702 -0.041990854
-0.037439227 0.19145741 -0.041649003
-0.037101068 0.19132914 -0.041285776
-0.036776483 0.19120008 -0.040915806
-0.036510929 0.19106664 -0.040507823
-0.036535092 0.190936 -0.039957952
-0.037139609 0.19080855 -0.039118148
-0.037791722 0.19067554 -0.038246043
-0.037986204 0.19054481 -0.037609123
-0.0379081 0.19041523 -0.037112206
-0.037628591 0.19028661 -0.03671895
-0.037260823 0.19015712 -0.036371291
-0.036877722 0.19002444 -0.036023725
-0.036464222 0.18988816 -0.035686463
-0.030181704 0.18902084 -0.035511691
-0.029690785 0.1888832 -0.035212275
-0.029240796 0.18874623 -0.034892868
-0.028852398 0.18861039 -0.034543455
-0.028523313 0.18847553 -0.034165092
-0.028188145 0.18833965 -0.033790071
-0.027777629 0.18820338 -0.033451393
-0.027421368 0.18806809 -0.03308636
-0.027090209 0.18793321 -0.03270907
-0.026821693 0.18779841 -0.032301463
-0.026479585 0.18766338 -0.031929493
-0.026164996 0.18752782 -0.031544343
-0.025960216 0.18739514 -0.031105429
-0.02587113 0.18726254 -0.030610684
-0.025744593 0.18713021 -0.030133924
-0.025529826 0.18699636 -0.029700115
-0.025405051 0.18686412 -0.029222451
-0.025367929 0.1867324 -0.028702414
-0.025112038 0.18659784 -0.028288679
-0.037666284 0.18663226 -0.021646181
-0.035613075 0.18647431 -0.022106323
-0.035536468 0.18634191 -0.021605549
-0.035595253 0.18621187 -0.021038709
-0.035644941 0.18608165 -0.02047631
-0.035612859 0.18595095 -0.019953452
-0.035449885 0.18581708 -0.019494761
-0.035189822 0.18568343 -0.019082746
-0.034693845 0.18554571 -0.018785808
-0.034115173 0.18540747 -0.018528858
-0.033663429 0.18527053 -0.018210344
-0.033285357 0.18513486 -0.01785586
-0.032967426 0.18500018 -0.017472088
-0.032851778 0.18486711 -0.016990297
-0.032702923 0.18473443 -0.016524421
-0.032384068 0.18459974 -0.016141055
-0.031963423 0.18446332 -0.015807385
-0.031485625 0.18432592 -0.015501564
-0.030910691 0.1841878 -0.015242819
-0.030138059 0.18404619 -0.015080385
-0.029380074 0.18390587 -0.014910568
-0.028717799 0.18376622 -0.014694383
-0.028094811 0.18362725 -0.014459003
-0.027537109 0.18348944 -0.014191872
-0.027052497 0.18335189 -0.013889356
-0.026506795 0.18321422 -0.013616296
-0.025705116 0.18307218 -0.013468098
-0.02509567 0.18293345 -0.013226133
-0.024372304 0.18279369 -0.01303944
-0.038963027 0.19290087 -0.043877047
-0.038884915 0.19277133 -0.043380223
-0.038906321 0.1926408 -0.042832367
-0.038826451 0.19251123 -0.042336438
-0.038640745 0.19238254 -0.041894756
-0.038330689 0.1922536 -0.041517299
-0.037916057 0.19212462 -0.041193694
-0.037513822 0.19199668 -0.040863346
-0.037150674 0.19186823 -0.040513135
-0.036911003 0.19173901 -0.040099397
-0.036902033 0.19160818 -0.039567344
-0.037402399 0.1914766 -0.038772903
-0.037952602 0.1913445 -0.037953101
-0.0379996 0.1912142 -0.037391935
-0.037860163 0.19108409 -0.036926888
-0.037588231 0.1909555 -0.036529608
-0.037271217 0.19082649 -0.036155716
-0.036937244 0.19069549 -0.035787292
-0.036591835 0.19056036 -0.035416916
-0.036635838 0.19043006 -0.034857269
-0.030497203 0.1896992 -0.035149537
-0.030068276 0.1895636 -0.034819599
-0.029676253 0.18942763 -0.034471862
-0.029337971 0.18929262 -0.034098037
-0.029063163 0.18915778 -0.033693533
-0.028761031 0.18902341 -0.033302024
-0.028406115 0.18888809 -0.032936275
-0.028076289 0.18875323 -0.032558363
-0.027841548 0.18862003 -0.032134004
-0.027596487 0.18848567 -0.031715043
-0.027343055 0.18835215 -0.031299733
-0.027137069 0.18821846 -0.030861676
-0.026987704 0.18808581 -0.030396089
-0.026865 0.18795358 -0.029917456
-0.026752757 0.18782054 -0.029433994
-0.026733397 0.18769009 -0.028904911
-0.026660731 0.18755777 -0.028402183
-0.037317812 0.18756028 -0.0226845
-0.037490383 0.18743126 -0.022062484
-0.037826233 0.18730502 -0.021360924
-0.03780099 0.18717352 -0.020835016
-0.037339605 0.18703735 -0.020520883
-0.036437556 0.18689546 -0.020420976
-0.036061347 0.1867598 -0.020065609
-0.035802759 0.18662523 -0.01965321
-0.035537221 0.18649147 -0.019243859
-0.035244092 0.18635726 -0.018848002
-0.03483285 0.18622097 -0.018509686
-0.034319699 0.1860839 -0.018220769
-0.034005821 0.18594837 -0.017835362
-0.033834837 0.18581627 -0.017379928
-0.033812702 0.18568482 -0.016852569
-0.033713564 0.18555301 -0.016362391
-0.033463448 0.18541859 -0.01594591
-0.033010535 0.18528254 -0.015627621
-0.032447472 0.18514457 -0.015363034
-0.031669341 0.18500389 -0.01520298
-0.031015025 0.18486439 -0.014982913
-0.030208347 0.18472417 -0.014836524
-0.029554343 0.18458462 -0.014616292
-0.028948082 0.18444596 -0.014372781
-0.028399168 0.18430828 -0.014101315
-0.027898731 0.18417144 -0.013806213
-0.027337627 0.18403351 -0.013540694
-0.026703751 0.18389533 -0.013310306
-0.026026295 0.1837554 -0.013101507
-0.039352588 0.1935682 -0.043466661
-0.039306827 0.19343799 -0.042953391
-0.039348759 0.19330765 -0.042394809
-0.039312229 0.19317758 -0.041876704
-0.039179586 0.19304846 -0.041407865
-0.038940527 0.19291924 -0.040993854
-0.0385212 0.19279115 -0.040672444
-0.038047895 0.19266258 -0.040378943
-0.037637167 0.19253458 -0.040053055
-0.037349582 0.19240586 -0.0396639
-0.037298642 0.1922756 -0.0391533
-0.037705101 0.19214404 -0.038407281
-0.038007498 0.19201241 -0.037715048
-0.037982374 0.19188242 -0.037190959
-0.037864454 0.19175342 -0.036714427
-0.037661783 0.1916236 -0.03628182
-0.037422262 0.19149536 -0.035867758
-0.037262894 0.191366 -0.035412848
-0.037830025 0.19123307 -0.034584418
-0.037793912 0.19110298 -0.034066048
-0.037483841 0.19097404 -0.03368859
-0.037127383 0.19084549 -0.03333433
-0.030180385 0.19023934 -0.034556195
-0.029829161 0.19010507 -0.034188341
-0.02959569 0.18997094 -0.033763692
-0.029558541 0.18984018 -0.033243321
-0.029364126 0.18970671 -0.032799669
-0.02912938 0.18957348 -0.032375306
-0.028866036 0.18943883 -0.031965218
-0.028578797 0.18930469 -0.031566434
-0.028362038 0.18917179 -0.031133382
-0.028237881 0.18903956 -0.030655449
-0.028138222 0.1889077 -0.030165536
-0.02797574 0.18877481 -0.029706249
-0.027924681 0.18864281 -0.029192949
-0.028008046 0.1885132 -0.028614124
-0.028025908 0.18838243 -0.028067267
-0.027851297 0.1882503 -0.027613601
-0.037123486 0.18822883 -0.022571187
-0.037537985 0.18810305 -0.021831589
-0.037947968 0.18797715 -0.021094114
-0.03787826 0.18784583 -0.02058964
-0.03758689 0.18771164 -0.020192897
-0.037152298 0.18757498 -0.019866038
-0.03667748 0.18743856 -0.01955848
-0.036251642 0.18730301 -0.019226935
-0.035824046 0.18716742 -0.018896384
-0.035432242 0.18703148 -0.018548558
-0.035061054 0.18689688 -0.018190473
-0.034707062 0.1867616 -0.017824277
-0.034515552 0.18662815 -0.017379111
-0.034552835 0.18649773 -0.016822772
-0.034536049 0.18636733 -0.016292509
-0.034269191 0.1862326 -0.015884101
-0.033863097 0.1860974 -0.015543019
-0.033327922 0.18595992 -0.015264805
-0.032718644 0.18582216 -0.015022496
-0.031935215 0.18568234 -0.014864709
-0.030764425 0.18553773 -0.014895219
-0.030211801 0.18539998 -0.014625533
-0.029700199 0.18526293 -0.01433585
-0.029192412 0.18512593 -0.014044302
-0.028669136 0.18498871 -0.013760379
-0.028131781 0.18485217 -0.013482925
-0.027551236 0.18471391 -0.013226857
-0.026867563 0.18457487 -0.013020787
-0.039706022 0.19423421 -0.043075256
-0.039732501 0.19410373 -0.042524807
-0.039786138 0.19397354 -0.041960262
-0.039771892 0.19384365 -0.041430548
-0.039682582 0.19371398 -0.04093954
-0.039496563 0.19358532 -0.040498041
-0.03921625 0.19345568 -0.040105462
-0.038828447 0.19332792 -0.039767604
-0.038276851 0.19320048 -0.039514177
-0.037800498 0.1930728 -0.039221972
-0.037716277 0.19294322 -0.038728371
-0.037920229 0.19281159 -0.038086776
-0.038051806 0.19268116 -0.037482008
-0.038087301 0.19255079 -0.036926921
-0.038079679 0.19242097 -0.036393825
-0.038066141 0.19229108 -0.035863861
-0.038297243 0.19215974 -0.035208151
-0.038419686 0.19202924 -0.034608215
-0.038291305 0.19190015 -0.034137137
-0.037959598 0.19177099 -0.033770829
-0.037516609 0.19164366 -0.033461411
-0.0370747 0.1915154 -0.033151768
-0.036633119 0.19137968 -0.032828443
-0.030482242 0.19052619 -0.032585565
-0.030092413 0.19039026 -0.03223677
-0.029837089 0.1902567 -0.031822547
-0.029593145 0.19012333 -0.031402722
-0.029402124 0.18999089 -0.030957051
-0.029314777 0.18985829 -0.030461418
-0.029184612 0.1897269 -0.029986091
-0.029114744 0.18959458 -0.02948194
-0.029028511 0.189463 -0.028985543
-0.028977325 0.18933202 -0.028472008
-0.028878169 0.18920019 -0.027981924
-0.028871028 0.18906897 -0.027447123
-0.036838926 0.18902786 -0.023039849
-0.037076913 0.18889998 -0.022385964
-0.037646659 0.18877587 -0.021570954
-0.038037427 0.1886487 -0.020843219
-0.037925988 0.18851666 -0.020359077
-0.037609175 0.18838298 -0.019974442
-0.037210546 0.18824694 -0.019629998
-0.036796592 0.18811159 -0.019292681
-0.036397427 0.18797648 -0.018948184
-0.03604091 0.18784213 -0.018582901
-0.03571099 0.18770725 -0.018204989
-0.035424687 0.18757315 -0.017805757
-0.035282977 0.1874406 -0.017336447
-0.035252973 0.18730998 -0.016812516
-0.035238996 0.18717866 -0.016281171
-0.034998052 0.18704535 -0.015859848
-0.034597747 0.18691021 -0.015515909
-0.03410577 0.18677351 -0.015216663
-0.033500001 0.18663581 -0.014972595
-0.032654651 0.18649587 -0.014844716
-0.030756855 0.18621239 -0.014689885
-0.030285427 0.18607701 -0.014380336
-0.029818041 0.18594071 -0.014069108
-0.029345507 0.18580434 -0.013760384
-0.028803708 0.18566777 -0.013485137
-0.028225107 0.18553051 -0.013227824
-0.02762595 0.1853929 -0.0129805
-0.040009029 0.19503041 -0.043246705
-0.039957762 0.19490112 -0.04273596
-0.040039696 0.19477023 -0.042157002
-0.040132307 0.19463947 -0.041572601
-0.040197238 0.19450937 -0.041002158
-0.040097177 0.19437961 -0.040516667
-0.039920568 0.19425102 -0.040070355
-0.039716542 0.19412214 -0.039638136
-0.039425731 0.19399342 -0.039250679
-0.038981847 0.19386509 -0.038942024
-0.038512364 0.19373749 -0.038646251
-0.038192414 0.19360945 -0.038273644
-0.03812217 0.19347994 -0.037772715
-0.038137577 0.19334941 -0.037227981
-0.038234644 0.19321865 -0.036641162
-0.038323216 0.1930888 -0.036058493
-0.038444959 0.19295734 -0.035459235
-0.038546048 0.19282763 -0.03487014
-0.038505353 0.19269745 -0.034354188
-0.038357191 0.1925682 -0.033893369
-0.038018599 0.19243991 -0.03353031
-0.037565187 0.19231151 -0.033226661
-0.037063234 0.19218457 -0.032947436
-0.036617152 0.19205038 -0.032628633
-0.036324032 0.19191614 -0.032232687
-0.037870616 0.19179066 -0.030921545
-0.037370242 0.19166274 -0.030641843
-0.031485416 0.19134171 -0.032428145
-0.031009028 0.19120625 -0.032120958
-0.030613573 0.19107121 -0.031774685
-0.030320546 0.19093697 -0.031378746
-0.03003565 0.19080386 -0.030978573
-0.029889809 0.19067124 -0.030511212
-0.029802641 0.19053964 -0.03001526
-0.02973192 0.19040829 -0.029511226
-0.029717753 0.19027698 -0.028979896
-0.029659213 0.19014584 -0.028470006
-0.029461706 0.19001234 -0.028027762
-0.037697181 0.18997009 -0.023492018
-0.03735435 0.18983497 -0.023120312
-0.037168376 0.18970263 -0.022672253
-0.037273355 0.18957336 -0.022082858
-0.037788779 0.1894474 -0.02129462
-0.038051479 0.18931837 -0.020626642
-0.037920587 0.18918754 -0.020154016
-0.037597269 0.18905376 -0.01977258
-0.037231579 0.1889192 -0.019411743
-0.036861658 0.18878365 -0.019053262
-0.036523968 0.18864965 -0.01867884
-0.036243752 0.18851563 -0.018276686
-0.036067605 0.18838343 -0.017823735
-0.036015898 0.18825245 -0.017310465
-0.036039241 0.18812178 -0.016760942
-0.035884596 0.187989 -0.01629783
-0.03565336 0.18785582 -0.015871773
-0.035281569 0.18772121 -0.015513923
-0.034811191 0.18758488 -0.015204115
-0.03422948 0.18744853 -0.014948066
-0.033589385 0.1873112 -0.014720378
-0.031254381 0.18702397 -0.014777455
-0.030755049 0.18688813 -0.014481476
-0.030292811 0.18675287 -0.014167428
-0.029802801 0.1866162 -0.013867201
-0.029330337 0.18648079 -0.013558155
-0.02878358 0.18634413 -0.013285318
-0.028240843 0.18620749 -0.013010504
-0.040256627 0.19569728 -0.042909559
-0.040224336 0.19556725 -0.042389315
-0.040356323 0.19543684 -0.041784368
-0.040545255 0.19530508 -0.041150536
-0.040575035 0.19517562 -0.040598072
-0.040521078 0.19504532 -0.040088985
-0.040462345 0.19491595 -0.039582074
-0.040309317 0.19478661 -0.039123766
-0.040072419 0.19465744 -0.038708687
-0.039746568 0.19452932 -0.038339123
-0.039164588 0.19440258 -0.038101174
-0.03863176 0.19427532 -0.037838016
-0.03837733 0.19414692 -0.037431635
-0.038280264 0.1940172 -0.036944725
-0.03832747 0.19388694 -0.03638348
-0.038409621 0.19375606 -0.035804424
-0.038487606 0.19362609 -0.035227194
-0.03851565 0.19349566 -0.034675948
-0.038469553 0.19336641 -0.034162529
-0.03832791 0.19323719 -0.033698324
-0.038027577 0.19310836 -0.033315767
-0.037611045 0.1929803 -0.032992922
-0.037219785 0.19285253 -0.032656942
-0.036788374 0.19272338 -0.032337867
-0.038128838 0.19258739 -0.031115981
-0.037968405 0.19245899 -0.030661272
-0.037552498 0.19233097 -0.030338062
-0.037174843 0.19220231 -0.029995363
-0.036734506 0.19206901 -0.029672608
-0.03112031 0.19188201 -0.031858105
-0.030763296 0.19174765 -0.031493098
-0.030461797 0.19161326 -0.031101232
-0.037445702 0.19155134 -0.02717117
-0.037119977 0.19141938 -0.026794065
-0.030031329 0.19121741 -0.02969503
-0.030020976 0.19108619 -0.029161932
-0.030047929 0.19095558 -0.028610636
-0.038507037 0.19089559 -0.023941008
-0.038423441 0.19076598 -0.02344705
-0.038307525 0.19063607 -0.022969773
-0.038132168 0.19050747 -0.022522736
-0.037842102 0.19037876 -0.022134924
-0.037716731 0.19024815 -0.021660224
-0.037926033 0.19011813 -0.021017971
-0.03801918 0.18998735 -0.020433202
-0.037877269 0.18985777 -0.019967522
-0.037582241 0.18972446 -0.019572228
-0.037258953 0.18958968 -0.019191025
-0.037001655 0.18945704 -0.018777352
-0.036774643 0.18932396 -0.018349268
-0.036653511 0.18919177 -0.017869828
-0.036727779 0.189062 -0.017295439
-0.036739849 0.18893112 -0.016751423
-0.03662315 0.18879901 -0.016269777
-0.036280707 0.1886649 -0.015897656
-0.035901986 0.18853015 -0.015543191
-0.035455659 0.18839517 -0.015221382
-0.034915999 0.18825956 -0.014944779
-0.034358598 0.18812269 -0.014677078
-0.031043811 0.18769705 -0.014670519
-0.030610925 0.18756235 -0.014342142
-0.030194798 0.18742695 -0.014005907
-0.029703109 0.18729118 -0.013706177
-0.029250072 0.18715613 -0.013387691
-0.028737413 0.18702002 -0.013098203
-0.040493883 0.19636314 -0.042578075
-0.04048378 0.19623326 -0.042046227
-0.040729158 0.19610205 -0.041383207
-0.040918492 0.1959703 -0.040749189
-0.040943101 0.19584076 -0.04019931
-0.040897235 0.19571058 -0.039686024
-0.040869087 0.19558054 -0.039163642
-0.040696651 0.19545197 -0.038715094
-0.040492497 0.19532311 -0.038282964
-0.040256411 0.19519491 -0.037867118
-0.039943226 0.19506598 -0.037491366
-0.039347239 0.19494003 -0.037260316
-0.038760811 0.19481324 -0.037024695
-0.038529813 0.19468413 -0.036606591
-0.038451083 0.19455455 -0.036110032
-0.038476847 0.19442411 -0.035559945
-0.038468815 0.19429423 -0.035027027
-0.038474023 0.19416454 -0.034487322
-0.038432829 0.19403437 -0.033971637
-0.038310133 0.19390535 -0.033497613
-0.038053744 0.19377695 -0.033092305
-0.037741676 0.19364896 -0.032715589
-0.037564076 0.19351938 -0.032270044
-0.038065597 0.19338685 -0.031475298
-0.038218439 0.19325566 -0.030859889
-0.038048476 0.19312713 -0.03041009
-0.03777311 0.19299856 -0.030014589
-0.037386514 0.19287081 -0.029676307
-0.03696464 0.19274202 -0.029353399
-0.03663367 0.1926081 -0.028975593
-0.038418368 0.19247425 -0.027535455
-0.038244784 0.19234571 -0.027087525
-0.037877984 0.19221814 -0.026738882
-0.037498266 0.1920895 -0.026397252
-0.037193105 0.19195953 -0.026012912
-0.036985867 0.19182682 -0.025575144
-0.036921129 0.19169562 -0.025068274
-0.038601935 0.19156389 -0.023682151
-0.038545609 0.19143358 -0.023174319
-0.038500547 0.19130437 -0.022660354
-0.038438946 0.19117402 -0.02215529
-0.038303509 0.19104485 -0.021687876
-0.038131155 0.19091631 -0.021239329
-0.038074709 0.19078694 -0.020731164
-0.038023666 0.19065671 -0.020220658
-0.037879013 0.19052748 -0.019758061
-0.037620902 0.1903951 -0.019346012
-0.037404634 0.19026223 -0.018912688
-0.037345588 0.1901311 -0.018402966
-0.037411511 0.19000119 -0.017832661
-0.037654489 0.1898724 -0.017176714
-0.03753785 0.18974124 -0.016694725
-0.037272826 0.18960746 -0.016285138
-0.036957867 0.18947382 -0.015899606
-0.036551021 0.18933961 -0.015558528
-0.036074832 0.1892041 -0.015251271
-0.035534553 0.1890685 -0.014974941
-0.034976803 0.18893252 -0.014707128
-0.030806476 0.18836966 -0.01457661
-0.03038826 0.18823521 -0.014241097
-0.029989155 0.18810105 -0.013896232
-0.029577041 0.18796669 -0.01355774
-0.04071679 0.19689904 -0.041716881
-0.040987656 0.19676808 -0.041040655
-0.041165821 0.19663619 -0.040412351
-0.041207336 0.19650589 -0.039854143
-0.041180924 0.19637682 -0.039330449
-0.041114002 0.1962474 -0.038827822
-0.040974632 0.19611819 -0.038362462
-0.040811218 0.19598876 -0.037909497
-0.040593185 0.1958598 -0.037484698
-0.040343411 0.19573148 -0.037075996
-0.040027507 0.19560342 -0.036701251
-0.039557151 0.19547679 -0.03640569
-0.039004117 0.19534937 -0.036153078
-0.038708925 0.19522156 -0.035767615
-0.03859809 0.19509168 -0.035287656
-0.038510419 0.19496302 -0.034795515
-0.038480625 0.19483295 -0.034273941
-0.038414329 0.19470349 -0.033770956
-0.03829217 0.19457355 -0.033296987
-0.038097762 0.19444476 -0.032859866
-0.03793329 0.19431628 -0.032407213
-0.038019896 0.19418542 -0.031825848
-0.038232662 0.19405389 -0.031179696
-0.038211331 0.19392487 -0.030653322
-0.038116433 0.19379519 -0.030165248
-0.037938491 0.19366658 -0.029719558
-0.037617512 0.19353855 -0.029347485
-0.037263893 0.1934101 -0.02899229
-0.036997996 0.19328156 -0.02859159
-0.038453445 0.19314295 -0.027307434
-0.038417645 0.19301282 -0.026788887
-0.038293503 0.19288379 -0.02631557
-0.038093805 0.19275495 -0.025881223
-0.037815712 0.19262734 -0.025486929
-0.037615307 0.19249852 -0.025052831
-0.037891075 0.19236663 -0.024374332
-0.038549133 0.19223268 -0.023499327
-0.038537875 0.1921028 -0.022968108
-0.038518541 0.19197288 -0.022441076
-0.038501903 0.19184294 -0.02191272
-0.038442746 0.19171357 -0.021406081
-0.038350664 0.19158386 -0.020916397
-0.038258441 0.19145419 -0.020426895
-0.038147263 0.19132528 -0.019946892
-0.03801588 0.19119616 -0.019477423
-0.037909478 0.19106637 -0.018995237
-0.038089573 0.19093545 -0.018365728
-0.038213171 0.19080497 -0.017765164
-0.038234986 0.19067444 -0.017217129
-0.038117699 0.1905455 -0.016740238
-0.037872516 0.19041415 -0.016325196
-0.037561789 0.19028057 -0.015937539
-0.037164763 0.19014648 -0.015591662
-0.03665559 0.19001137 -0.015300168
-0.036140524 0.18987618 -0.015011529
-0.035594881 0.18974045 -0.014737802
-0.030573862 0.18904331 -0.014480114
-0.030189743 0.18890946 -0.01412796
-0.029794263 0.18877535 -0.013781343
-0.040853597 0.19756579 -0.041436896
-0.041115388 0.19743377 -0.040765531
-0.04130616 0.19730297 -0.040130481
-0.041396715 0.19717218 -0.039547056
-0.041374989 0.1970422 -0.039021283
-0.041285656 0.19691353 -0.038530033
-0.041190334 0.19678381 -0.038042143
-0.041061439 0.19665471 -0.037571333
-0.040875211 0.19652602 -0.03712992
-0.040640391 0.19639689 -0.036713779
-0.040402837 0.19626863 -0.03629864
-0.04012166 0.19614097 -0.035905957
-0.039720237 0.19601311 -0.035575341
-0.039286889 0.19588587 -0.035260916
-0.038905695 0.19575821 -0.034919769
-0.038677588 0.19563006 -0.034499824
-0.038550019 0.19550098 -0.034028292
-0.038438976 0.19537111 -0.033548519
-0.038298778 0.1952419 -0.033083603
-0.038145393 0.19511357 -0.032625239
-0.038087271 0.1949842 -0.032118067
-0.038139582 0.19485304 -0.031554461
-0.038206369 0.19472297 -0.030983124
-0.038193151 0.19459306 -0.030452883
-0.038143329 0.1944638 -0.029941428
-0.038014114 0.19433472 -0.029470794
-0.037773997 0.19420548 -0.029057328
-0.037553661 0.19407745 -0.02863336
-0.037804984 0.1939453 -0.027967434
-0.038406126 0.19381176 -0.027121661
-0.038451366 0.19368149 -0.026561486
-0.038398445 0.19355218 -0.02605154
-0.038312547 0.19342256 -0.025558833
-0.038157538 0.19329324 -0.025101596
-0.038034342 0.1931642 -0.024627738
-0.038220637 0.19303335 -0.023995018
-0.038460955 0.19290209 -0.023334578
-0.038501024 0.19277173 -0.022776987
-0.038509481 0.19264112 -0.022235915
-0.038504027 0.19251129 -0.021701654
-0.038489573 0.1923814 -0.021172129
-0.038474381 0.1922515 -0.02064296
-0.038418852 0.19212218 -0.020134447
-0.038408726 0.19199233 -0.019602695
-0.03852053 0.19186173 -0.019008197
-0.038749032 0.19173034 -0.018353829
-0.038744293 0.19160053 -0.017819311
-0.038715541 0.19147052 -0.017297195
-0.038616702 0.19134073 -0.016811088
-0.038401335 0.19121276 -0.016384527
-0.038093448 0.19108383 -0.016005926
-0.037733458 0.19095258 -0.015646817
-0.03727667 0.19081841 -0.015329788
-0.036742561 0.19068386 -0.015050134
-0.036197647 0.19054815 -0.014775997
-0.040858865 0.19823319 -0.041224454
-0.041158721 0.1981006 -0.040533684
-0.041371785 0.19796906 -0.039887354
-0.041512795 0.19783874 -0.039277777
-0.041536689 0.19770826 -0.038728669
-0.041463979 0.19757874 -0.038228989
-0.041354954 0.19744986 -0.037747916
-0.041252173 0.19732003 -0.037263867
-0.041084811 0.19719158 -0.036812719
-0.040872879 0.19706263 -0.036384702
-0.040635958 0.19693445 -0.035969302
-0.040369272 0.19680691 -0.035569124
-0.040064774 0.196679 -0.035188481
-0.039734147 0.19655083 -0.034821421
-0.039371498 0.19642331 -0.034470633
-0.039069794 0.19629546 -0.034088559
-0.038805515 0.19616696 -0.033687357
-0.03858839 0.19603896 -0.033261694
-0.038406819 0.19591033 -0.032817971
-0.038260192 0.1957811 -0.032356344
-0.038194828 0.19565167 -0.031852923
-0.03817115 0.19552165 -0.031328127
-0.038148597 0.19539168 -0.030802799
-0.03815008 0.19526194 -0.030264974
-0.038119562 0.19513188 -0.029743746
-0.038047977 0.19500241 -0.029243533
-0.03790611 0.1948732 -0.02877951
-0.037793376 0.19474424 -0.028300311
-0.038106449 0.19461276 -0.027602442
-0.038328536 0.19448128 -0.026951369
-0.038392872 0.19435024 -0.02638161
-0.038378097 0.19422032 -0.025852174
-0.038373053 0.19409055 -0.025317827
-0.038321562 0.19396125 -0.024807172
-0.038227715 0.1938315 -0.024318475
-0.038316391 0.1937007 -0.023736035
-0.038435429 0.19357017 -0.023137886
-0.038482644 0.19343992 -0.022576636
-0.038534723 0.19330971 -0.022012886
-0.038539514 0.19317999 -0.021473363
-0.038622402 0.1930491 -0.020893965
-0.038693443 0.19291909 -0.020320397
-0.038877912 0.19278726 -0.019688781
-0.039150558 0.19265631 -0.019011566
-0.039292216 0.19252504 -0.018401954
-0.039243624 0.19239578 -0.017889878
-0.039177887 0.19226536 -0.017386859
-0.039044514 0.19213626 -0.016918464
-0.038834311 0.19200829 -0.016489234
-0.038567461 0.19187984 -0.016089365
-0.038210094 0.19175236 -0.015735867
-0.037779853 0.1916234 -0.015416833
-0.037317462 0.1914901 -0.015102247
-0.041197278 0.19876735 -0.040304244
-0.04134129 0.19863705 -0.039693154
-0.041525446 0.19850524 -0.039061815
-0.04160881 0.19837533 -0.038481817
-0.041577987 0.19824527 -0.037960775
-0.041514061 0.1981159 -0.037456647
-0.041430891 0.19798626 -0.036962312
-0.041264132 0.19785777 -0.036510911
-0.041074261 0.19772907 -0.036071472
-0.040841386 0.19760093 -0.03565402
-0.040587887 0.19747251 -0.035247196
-0.040307738 0.19734487 -0.034853972
-0.039998047 0.1972169 -0.034476101
-0.039697371 0.19708906 -0.034093499
-0.039432175 0.19696055 -0.033692736
-0.039175741 0.19683313 -0.033287197
-0.03891135 0.19670466 -0.03288608
-0.038691849 0.19657661 -0.032461669
-0.038544297 0.19644734 -0.032000497
-0.038413927 0.19631825 -0.031530492
-0.038293004 0.19618922 -0.031055579
-0.038197376 0.19605953 -0.03056787
-0.038135111 0.19593015 -0.030062834
-0.038069136 0.19580069 -0.029559676
-0.038013823 0.19567136 -0.029051075
-0.037952282 0.19554196 -0.028545596
-0.037928388 0.19541198 -0.028020978
-0.038147673 0.19528051 -0.027371438
-0.038252421 0.19514984 -0.026780602
-0.038309164 0.19501968 -0.026214439
-0.038336679 0.19488923 -0.02566346
-0.038366169 0.1947588 -0.025111405
-0.038358144 0.19462894 -0.024578484
-0.038334213 0.19449994 -0.024053639
-0.038392216 0.19436879 -0.023487091
-0.038513124 0.19423829 -0.02288796
-0.038605027 0.19410753 -0.022303816
-0.038693674 0.19397767 -0.021721149
-0.038877003 0.19384581 -0.021090163
-0.039240256 0.19371381 -0.020366555
-0.039580837 0.19358066 -0.019655047
-0.039734609 0.19345047 -0.019038767
-0.039792918 0.19331932 -0.018472135
-0.039754905 0.1931902 -0.017954513
-0.039660737 0.19306047 -0.017465996
-0.039457172 0.19293259 -0.017033275
-0.039223358 0.19280441 -0.016616371
-0.038955361 0.19267587 -0.016217032
-0.038627841 0.19254778 -0.015848454
-0.03824766 0.19242108 -0.015506452
-0.037752546 0.1922939 -0.015222523
-0.037268028 0.19216022 -0.014918687
-0.041225992 0.199434 -0.040079992
-0.041269146 0.19930468 -0.039520558
-0.041474439 0.19917306 -0.038878243
-0.041578874 0.19904238 -0.038287584
-0.041633874 0.19891125 -0.03772264
-0.041596174 0.19878207 -0.037204847
-0.041536719 0.19865271 -0.036698394
-0.041379102 0.19852334 -0.036242485
-0.041215979 0.19839494 -0.035789214
-0.041004963 0.19826695 -0.035360329
-0.040780582 0.19813883 -0.034938417
-0.040506974 0.19801028 -0.034542125
-0.040214367 0.19788255 -0.034155425
-0.03994634 0.19775496 -0.033755861
-0.039677195 0.19762646 -0.033357248
-0.039407 0.19749889 -0.032958746
-0.039177842 0.19737075 -0.032539435
-0.038995445 0.19724211 -0.032096058
-0.038857423 0.19711296 -0.03162998
-0.038720123 0.19698381 -0.031163638
-0.038556062 0.19685534 -0.030710714
-0.038390338 0.19672686 -0.030258777
-0.038229913 0.19659841 -0.029803975
-0.038116984 0.19646849 -0.029325187
-0.038058966 0.19633918 -0.028818019
-0.037994549 0.19620976 -0.028314054
-0.038033679 0.19607943 -0.027756996
-0.038174875 0.19594909 -0.027147336
-0.038241088 0.1958181 -0.026576588
-0.038299173 0.19568793 -0.026009716
-0.0383645 0.19555785 -0.025439095
-0.038419493 0.19542764 -0.024873827
-0.038457684 0.19529732 -0.024317311
-0.038521819 0.19516625 -0.023747543
-0.038675591 0.19503509 -0.023131689
-0.038861275 0.19490424 -0.022499226
-0.039034843 0.1947733 -0.0218731
-0.039265968 0.19464098 -0.021217724
-0.039635427 0.19450903 -0.020490797
-0.039881587 0.1943768 -0.01982756
-0.040010147 0.19424643 -0.0192245
-0.040063791 0.19411622 -0.018659949
-0.040017098 0.19398598 -0.01814712
-0.039919682 0.19385722 -0.017659968
-0.039766535 0.19372791 -0.017201746
-0.039525151 0.19359966 -0.016788768
-0.03925743 0.19347209 -0.016389025
-0.038949199 0.19334415 -0.01601035
-0.038602181 0.19321683 -0.01565153
-0.03820511 0.19308992 -0.015318289
-0.0412222 0.19997157 -0.039335161
-0.041367374 0.19984031 -0.038723767
-0.041473679 0.19970967 -0.038132127
-0.041576862 0.199579 -0.037542187
-0.041582488 0.1994493 -0.037002321
-0.041565232 0.19931935 -0.036474127
-0.04145737 0.1991905 -0.035992421
-0.041309893 0.19906124 -0.035531349
-0.041128226 0.19893262 -0.035087623
-0.040916689 0.19880466 -0.034659106
-0.040661529 0.19867626 -0.034253173
-0.040425532 0.19854809 -0.033837426
-0.040179044 0.19842073 -0.033426702
-0.039886661 0.19829297 -0.033039816
-0.039612114 0.19816536 -0.032643646
-0.039379016 0.19803719 -0.032226279
-0.039186776 0.19790845 -0.0317881
-0.039047718 0.19777925 -0.031322557
-0.038909562 0.19765106 -0.030856239
-0.038778268 0.19752197 -0.030386772
-0.038649775 0.19739291 -0.029915778
-0.038485512 0.19726442 -0.029463047
-0.038325392 0.19713598 -0.029008064
-0.038256712 0.19700652 -0.028506331
-0.038202353 0.19687626 -0.027997514
-0.038228706 0.19674674 -0.027446842
-0.03833054 0.19661607 -0.026857618
-0.038406476 0.19648513 -0.026281781
-0.03846623 0.196355 -0.025714014
-0.038589001 0.19622448 -0.025113896
-0.038711585 0.19609304 -0.024514204
-0.038781181 0.195963 -0.023941346
-0.038939938 0.19583188 -0.023322903
-0.039115489 0.1957 -0.022696028
-0.039267376 0.19556977 -0.022080731
-0.039444804 0.19543788 -0.02145288
-0.039702043 0.19530582 -0.020783925
-0.039997093 0.19517413 -0.020095332
-0.040132113 0.19504279 -0.019489208
-0.040205121 0.19491278 -0.018914565
-0.040198535 0.19478294 -0.018380934
-0.040097728 0.19465318 -0.017895896
-0.039958119 0.19452496 -0.017430393
-0.039730519 0.19439688 -0.01701027
-0.039456807 0.1942683 -0.016613981
-0.039168775 0.19414054 -0.016224768
-0.038857512 0.19401352 -0.015847381
-0.038502827 0.19388615 -0.015492579
0.010246056 0.18729202 -0.013597943
0.010644033 0.18714912 -0.013241965
0.011103372 0.18700565 -0.012913836
-0.041248262 0.20050845 -0.038575221
-0.041307084 0.20037831 -0.03800799
-0.041411437 0.20024671 -0.037417751
-0.041499883 0.20011683 -0.036835071
-0.04150492 0.19998614 -0.03629569
-0.041433215 0.19985759 -0.035795245
-0.041335613 0.19972786 -0.035308611
-0.0411755 0.19959944 -0.034853626
-0.040977433 0.19947162 -0.034418147
-0.040758133 0.19934264 -0.033993974
-0.040534176 0.19921455 -0.033571884
-0.040291823 0.19908726 -0.033159114
-0.040042169 0.19895892 -0.032750331
-0.039824195 0.19883093 -0.032325197
-0.039605193 0.1987029 -0.031900518
-0.039406009 0.19857408 -0.031465899
-0.039212093 0.19844629 -0.031028179
-0.039070539 0.19831711 -0.030564077
-0.038947947 0.19818808 -0.030089958
-0.038833335 0.19805916 -0.029611837
-0.038735837 0.19793035 -0.029124683
-0.038652427 0.19780076 -0.028630637
-0.038591318 0.19767138 -0.028124979
-0.038567394 0.19754237 -0.027600035
-0.038615957 0.19741212 -0.027038166
-0.038663998 0.19728185 -0.026476467
-0.038701564 0.1971515 -0.025920212
-0.038796775 0.19702074 -0.025334384
-0.038929835 0.19688939 -0.024729239
-0.039058395 0.19675897 -0.024126181
-0.03911534 0.19662878 -0.023559839
-0.039251305 0.19649746 -0.022953173
-0.03939461 0.19636622 -0.022342762
-0.039572619 0.19623528 -0.02171432
-0.039755851 0.19610347 -0.021083433
-0.039976195 0.195972 -0.020433251
-0.040207416 0.19583963 -0.019777784
-0.040274404 0.19570957 -0.019206267
-0.040294558 0.19558001 -0.018658798
-0.040212288 0.19545045 -0.018164217
-0.040095299 0.19532146 -0.017687149
-0.039903156 0.19519274 -0.01724897
-0.039605878 0.19506587 -0.016864253
-0.039302312 0.19493802 -0.016483266
-0.039016023 0.19481027 -0.016093165
-0.038720302 0.19468342 -0.015707746
0.010226939 0.18812622 -0.013913501
0.010466905 0.18798809 -0.01348461
0.010817178 0.18784726 -0.013106311
0.01124484 0.18770358 -0.012763932
0.011743454 0.18755922 -0.012453869
0.012163182 0.18741575 -0.012107801
-0.04117319 0.2010453 -0.037867345
-0.041197471 0.20091581 -0.03731773
-0.041372091 0.20078385 -0.036691312
-0.04135894 0.20065495 -0.036160838
-0.041317441 0.20052484 -0.035645321
-0.041234121 0.20039617 -0.03515086
-0.041094743 0.200267 -0.034685589
-0.040926956 0.20013848 -0.034234636
-0.040751398 0.20000993 -0.033787787
-0.040546805 0.19988202 -0.033355601
-0.040333182 0.19975404 -0.032928251
-0.040122584 0.19962612 -0.032499187
-0.039940298 0.19949748 -0.032055821
-0.039744705 0.19936968 -0.031619094
-0.039576501 0.19924119 -0.031168405
-0.03941422 0.19911176 -0.03071492
-0.039278761 0.19898359 -0.030247273
-0.03914167 0.19885442 -0.029780649
-0.039009631 0.1987263 -0.02931131
-0.038971536 0.19859616 -0.028794015
-0.038921915 0.19846687 -0.028282374
-0.038876235 0.19833766 -0.027768776
-0.038871713 0.19820784 -0.027234074
-0.038896635 0.19807737 -0.026684433
-0.038918443 0.19794784 -0.02613607
-0.038949914 0.19781739 -0.025582939
-0.039057665 0.19768675 -0.024990588
-0.039160743 0.19755609 -0.024400743
-0.039244242 0.19742523 -0.02382098
-0.039289996 0.19729495 -0.023260534
-0.03948307 0.19716322 -0.022624558
-0.03962484 0.19703196 -0.022014853
-0.039784402 0.19690083 -0.021395965
-0.039940789 0.19676971 -0.020778669
-0.040112272 0.19663876 -0.020153616
-0.040270187 0.19650766 -0.019535616
-0.04030972 0.19637729 -0.018978294
-0.04024902 0.19624792 -0.018472455
-0.040128618 0.19611891 -0.017997276
-0.039971493 0.19599053 -0.017540881
