# .PCD v0.7 - Point Cloud Data file format
VERSION 0.7
FIELDS x y z
SIZE 4 4 4
TYPE F F F
COUNT 1 1 1
WIDTH 1326
HEIGHT 1
VIEWPOINT 0 0 0 1 0 0 0
POINTS 1326
DATA ascii
-0.011887319 0.14512606 -0.030153435
-0.011465888 0.14499566 -0.029839739
-0.011044608 0.1448651 -0.029525496
-0.010623017 0.14473477 -0.029212207
-0.010211267 0.14459939 -0.028868843
-0.0097998865 0.14446396 -0.028524846
-0.0093883649 0.14432846 -0.028180864
-0.008968072 0.14419736 -0.027863797
-0.0085396357 0.14407025 -0.027571589
-0.0081144553 0.14394204 -0.027268972
-0.007690195 0.14381328 -0.026963461
-0.0072532315 0.14369033 -0.026697148
-0.0068052094 0.14357311 -0.026464354
-0.0063432809 0.1434623 -0.026273791
-0.0058795884 0.14335258 -0.026088655
-0.0054085124 0.14324641 -0.02592618
-0.0049237013 0.14314754 -0.025805138
-0.0044405758 0.14304762 -0.025679011
-0.0039470904 0.14295298 -0.025584131
-0.0034461468 0.14286195 -0.025512267
-0.0029500984 0.14276792 -0.025425673
-0.0024616141 0.14267124 -0.025315505
-0.0019763187 0.14257164 -0.025196072
-0.001487229 0.14247531 -0.025087692
-0.00099286251 0.14238028 -0.02499615
-0.00049191713 0.14228928 -0.024924275
2.1232292e-05 0.14220452 -0.024889026
0.00053885579 0.14212166 -0.024868045
0.0010697767 0.14204489 -0.024887491
0.001591837 0.14196457 -0.024879441
0.0021254476 0.14188944 -0.024907079
0.0026751542 0.14182293 -0.024982959
0.003223137 0.14175455 -0.025054466
0.0037666494 0.14168438 -0.025111984
0.0043284409 0.14162332 -0.025224995
0.004886603 0.14156097 -0.025326699
0.0054438747 0.14149719 -0.025426157
0.005991145 0.14142933 -0.025495164
0.0065433346 0.14136344 -0.025578976
0.0071144197 0.141307 -0.025720362
0.0076858122 0.14125079 -0.025862567
0.0082797343 0.14120533 -0.026073638
0.0089047439 0.14117567 -0.026378758
0.0095221391 0.14114235 -0.026660599
0.010137171 0.14110771 -0.02693563
0.010757083 0.14107595 -0.027225222
0.011402028 0.14105551 -0.027591377
0.012130739 0.14107695 -0.028211996
0.02026147 0.14154255 -0.036060445
0.020783376 0.14145687 -0.036021445
0.021322891 0.14137805 -0.03603255
0.021944374 0.14133732 -0.036272943
0.022629758 0.14132483 -0.036692437
0.026852161 0.14001159 -0.033513475
0.027226111 0.13985847 -0.033060204
0.027619395 0.13971397 -0.032661162
0.028056564 0.13958967 -0.032385055
0.028591206 0.13950911 -0.032382198
0.029073294 0.13940464 -0.03223224
0.029465608 0.13925959 -0.031830397
0.029811962 0.13909422 -0.031299803
0.030110924 0.13890679 -0.030636489
0.030363753 0.13869888 -0.029843867
0.03006565 0.13824227 -0.027506802
0.03016625 0.13796635 -0.02628684
0.030324131 0.13771513 -0.025228146
0.030467298 0.13745777 -0.024128076
0.030592099 0.13719232 -0.022976574
0.030667713 0.13690464 -0.021686675
0.030860955 0.13666987 -0.020726908
0.031171942 0.13648811 -0.02009752
0.031478245 0.13630463 -0.019454334
0.031788044 0.13612215 -0.018821485
0.032102089 0.135942 -0.018200295
0.032438185 0.13577193 -0.017640807
0.032777116 0.13560256 -0.017089732
0.033120885 0.13543575 -0.016551867
0.033487041 0.13527931 -0.016076602
0.03387183 0.13513114 -0.015653703
0.034290835 0.13499787 -0.015327024
0.034716181 0.13486806 -0.015017741
0.035164148 0.13474867 -0.014771741
0.035640918 0.13464218 -0.014606562
0.036106847 0.13453075 -0.014411055
0.03655066 0.1344091 -0.014153634
0.036970809 0.13427646 -0.013830118
0.037382625 0.13414025 -0.013483139
0.037797842 0.1340058 -0.013145438
0.038222224 0.13387546 -0.012833543
0.038652539 0.13374834 -0.012537979
0.039100341 0.13362798 -0.012292073
0.039547149 0.13350794 -0.012042864
0.040009666 0.13339464 -0.011838015
0.040501349 0.13329533 -0.011714279
0.040974371 0.13318682 -0.011538808
0.041450821 0.13308015 -0.011372801
0.041917209 0.13296805 -0.011179068
0.04237793 0.13285469 -0.010968659
0.042841546 0.13274197 -0.010766789
0.04331157 0.13263182 -0.010583065
0.043783799 0.13252379 -0.010404812
0.044262767 0.13241757 -0.010246266
0.044741109 0.13231194 -0.010085403
0.04523259 0.13221164 -0.0099617662
0.045738891 0.13211842 -0.0098793879
0.046246648 0.132026 -0.0098009938
0.046749786 0.1319311 -0.0097098984
0.047249109 0.13183412 -0.0096083358
0.047745682 0.13173655 -0.0094987061
0.048248302 0.13164136 -0.0094062481
0.048759744 0.13155094 -0.0093380176
0.049273957 0.1314611 -0.0092778299
0.04979546 0.13137433 -0.0092383865
0.050327931 0.13129261 -0.0092295688
0.050857656 0.13121022 -0.0092125619
0.051404409 0.1311354 -0.0092436988
0.051953517 0.13106082 -0.0092815869
0.052493993 0.13098347 -0.0092949998
0.053031862 0.13090375 -0.0093015889
0.053578641 0.1308288 -0.0093324892
0.054131899 0.13075654 -0.0093819611
0.054682683 0.13068382 -0.0094240438
0.055241726 0.13061377 -0.0094899619
0.055837575 0.13056093 -0.0096585974
0.056448732 0.13051547 -0.0098697748
0.057075847 0.13047688 -0.010126069
0.057708085 0.13044018 -0.010397105
0.05833124 0.13039936 -0.010642253
0.058906272 0.13033706 -0.01075257
0.059451498 0.13026132 -0.010779435
0.060002115 0.13018851 -0.010820953
0.06054445 0.13011123 -0.01083998
0.061070379 0.13002689 -0.01081265
0.061598994 0.12994303 -0.010793198
0.062116001 0.12985474 -0.01074094
0.062606148 0.1297546 -0.010613008
0.063115701 0.12966223 -0.010539974
0.06363859 0.12957621 -0.010504396
0.064135909 0.12947905 -0.010396776
0.064599931 0.12936658 -0.01019608
0.065043136 0.12924463 -0.0099369194
0.065487549 0.12912332 -0.0096812025
0.065962389 0.12901574 -0.0095105944
0.066454053 0.12891649 -0.0093870638
0.066950426 0.12881786 -0.009277272
0.067423791 0.1287104 -0.0091020912
0.067884982 0.12859637 -0.0088934768
0.068306774 0.12846467 -0.0085746292
0.068706974 0.12832305 -0.0081952605
0.069113642 0.1281849 -0.007833425
0.069495916 0.12803535 -0.0074035767
0.069874063 0.12788451 -0.0069620777
0.070250288 0.12773256 -0.0065148654
0.070614263 0.12757489 -0.006033509
0.07094124 0.12740086 -0.0054485099
0.071267337 0.12722544 -0.0048616948
0.071606517 0.12705708 -0.0043107723
0.071918331 0.1268757 -0.0036833733
0.072219707 0.12668955 -0.0030267881
0.072555527 0.1265194 -0.0024665189
0.07290753 0.12635612 -0.001951701
0.073270589 0.12619795 -0.0014678645
0.073657796 0.12605111 -0.0010517049
0.07406348 0.12591246 -0.0006873305
0.074486777 0.12578158 -0.00037261099
0.074925162 0.12565789 -9.9662226e-05
0.075350046 0.12552783 0.00021086168
0.075765684 0.12539272 0.00054684514
0.076178506 0.12525794 0.00089154439
0.076588079 0.12512051 0.0012446092
0.077029154 0.12499738 0.0015096804
0.077478722 0.12487881 0.0017513661
0.077935413 0.12476331 0.0019726632
0.078406155 0.12465352 0.0021545561
0.078883052 0.12454715 0.0023191823
0.079364613 0.12444234 0.002470714
0.079845868 0.12433736 0.0026230719
0.080321237 0.12423009 0.0027922401
0.080787145 0.12411864 0.0029877769
0.081270851 0.12401506 0.0031331191
0.081754684 0.12391147 0.0032784566
0.082239434 0.1238084 0.0034211874
0.082732819 0.12370911 0.0035395259
0.083228692 0.12361111 0.0036513424
0.083730802 0.12351653 0.0037458157
0.084235474 0.12342252 0.0038324287
0.084739961 0.12332831 0.0039198557
0.085265681 0.12324379 0.0039478056
0.085815176 0.1231695 0.0039087385
0.08636719 0.12309653 0.0038627209
0.086891674 0.12301137 0.0038941083
0.087408379 0.12292287 0.0039473204
0.087921277 0.12283234 0.0040109921
0.088441327 0.12274571 0.0040549925
0.088982433 0.12266777 0.0040394105
0.089543574 0.12259969 0.0039684838
0.090098105 0.12252812 0.0039155288
0.09067557 0.12246715 0.0037984652
0.091277689 0.12241676 0.0036121281
0.091898575 0.12237486 0.003372754
0.09249457 0.12232208 0.0032038428
0.093113899 0.12228014 0.0029695174
0.093781345 0.12225977 0.0026002387
0.094445452 0.12223756 0.0022401791
0.09510047 0.12221142 0.0019054627
0.095771223 0.12219191 0.0015265178
0.096522532 0.12220973 0.00092245312
0.097215787 0.12220062 0.00048051635
0.099428438 0.12223441 -0.0012168065
0.10008913 0.12221036 -0.0015674438
0.10066864 0.12215049 -0.0016900781
0.10119978 0.12206805 -0.0016777096
0.1017222 0.12198177 -0.0016407552
0.10222936 0.12188905 -0.0015608151
0.10271876 0.12178852 -0.0014309511
0.10321436 0.1216895 -0.0013191025
0.10368765 0.12157897 -0.0011311299
0.10403474 0.12141512 -0.00061135506
0.10423832 0.12118604 0.00031542731
0.10431239 0.12089762 0.0016090805
0.10460795 0.12070923 0.0022822786
0.10497479 0.12055317 0.0027555143
0.10535092 0.12040025 0.0032024961
0.1057659 0.12026574 0.0035406323
0.10620601 0.12014303 0.0038086912
0.10665159 0.12002232 0.0040614503
0.10710455 0.11990477 0.0042929994
0.10755909 0.11978804 0.0045204861
0.10801198 0.11967043 0.0047523808
0.10847539 0.11955762 0.0049547274
0.10894628 0.11944791 0.0051362077
0.10942895 0.11934463 0.0052851504
0.10991014 0.11923964 0.0054375725
0.11040933 0.11913957 0.0055562593
0.11090252 0.1190368 0.0056934683
0.11140073 0.1189356 0.0058173826
0.11190631 0.11883722 0.0059215957
0.11240032 0.11873489 0.0060565379
0.11290362 0.11863539 0.0061665243
0.11340699 0.11853676 0.0062770909
0.11390814 0.11843707 0.0063932193
0.11441045 0.11833791 0.0065065334
0.11491336 0.11823817 0.0066177053
0.11540119 0.11813277 0.0067684678
0.11587527 0.11802227 0.006955957
0.11634123 0.11790773 0.0071642781
0.1168058 0.11779246 0.0073762545
0.11727144 0.11767869 0.0075857788
0.11773471 0.1175628 0.0078009879
0.11821629 0.11745521 0.0079683745
0.11870163 0.11734851 0.0081258044
0.11919504 0.11724582 0.0082625402
0.11971576 0.11715406 0.0083273044
0.12024491 0.11706564 0.0083697448
0.1207094 0.11695036 0.0085819289
0.12099471 0.11676202 0.0092643118
0.12137237 0.11661071 0.0097037936
0.12179366 0.11647844 0.010029483
0.12220741 0.11634239 0.010374702
0.12263455 0.11621211 0.010684955
0.12306155 0.11608179 0.010995477
0.12349652 0.11595454 0.011284926
0.12393612 0.1158286 0.011562246
0.12436238 0.11569795 0.011874554
0.12480871 0.11557542 0.012134471
0.12527582 0.1154615 0.012339563
-0.015610322 0.14835128 -0.039137118
-0.015223078 0.14820406 -0.038719378
-0.015013181 0.14796811 -0.037763063
-0.014875598 0.14769705 -0.036586396
-0.014643669 0.14747238 -0.035696521
-0.014368638 0.14726901 -0.034938022
-0.014078878 0.14707352 -0.034223925
-0.013788972 0.14687805 -0.033510104
-0.013478369 0.14669232 -0.032859784
-0.013109555 0.14653587 -0.032385994
-0.012779303 0.14636005 -0.031795159
-0.012412027 0.14620265 -0.031316698
-0.012034915 0.14605029 -0.030868322
-0.011642514 0.1459052 -0.030466288
-0.011233276 0.14576843 -0.030115832
-0.010811079 0.14563848 -0.029804338
-0.010388955 0.14550844 -0.029492635
-0.0099930316 0.14536548 -0.0291012
-0.0095833372 0.14522894 -0.028751984
-0.0091730282 0.1450928 -0.028404694
-0.0087622963 0.1449578 -0.028057992
-0.0083450824 0.14482479 -0.027731434
-0.0079251789 0.14469342 -0.027413066
-0.0075043496 0.14456269 -0.027097717
-0.0070718639 0.14443794 -0.026817411
-0.0066308416 0.14431746 -0.026563272
-0.0061738435 0.14420459 -0.026357476
-0.0057071708 0.14409664 -0.026181076
-0.0052393042 0.14398858 -0.026009109
-0.0047635622 0.14388518 -0.025860459
-0.0042767599 0.14378749 -0.025745336
-0.0037820488 0.14369358 -0.025654174
-0.0032948367 0.14359519 -0.02554059
-0.0028097983 0.14349641 -0.02542017
-0.0023283139 0.14339644 -0.025288649
-0.0018496327 0.14329384 -0.025149178
-0.0013680402 0.1431931 -0.025018644
-0.00087401457 0.14309877 -0.024925493
-0.00036885962 0.14301018 -0.024865936
0.00014405884 0.14292535 -0.024830204
0.00066190399 0.14284258 -0.024809562
0.0011842679 0.14276248 -0.024802476
0.0017072037 0.14268185 -0.024797618
0.0022434145 0.14260821 -0.024832956
0.0027896035 0.14253965 -0.024898522
0.0033243988 0.14246604 -0.024928812
0.0038576163 0.14239064 -0.024955139
0.0044033527 0.14232184 -0.025019467
0.0049503036 0.14225367 -0.025087096
0.0054923249 0.1421835 -0.02513963
0.006045741 0.14211833 -0.025227159
0.0065943105 0.14205125 -0.025299944
0.0071520815 0.14198864 -0.025400344
0.0077175861 0.14192891 -0.025525149
0.008301409 0.14187923 -0.025705006
0.0089095142 0.14184132 -0.025958754
0.0095277308 0.1418094 -0.026242632
0.010154908 0.14178112 -0.026554372
0.010783436 0.14175265 -0.026870564
0.011398184 0.14171872 -0.027144164
0.012047816 0.14170104 -0.027524173
0.012727517 0.1416987 -0.027995773
0.020363875 0.14226474 -0.035928261
0.020879289 0.14217557 -0.035871539
0.021425219 0.14210023 -0.035900284
0.022055879 0.14206356 -0.036166251
0.022776682 0.14206752 -0.036684867
0.02342936 0.14204092 -0.037012313
0.023982782 0.14196874 -0.037062205
0.024493145 0.14187773 -0.036990952
0.027004153 0.14075702 -0.033519715
0.027405083 0.14061669 -0.033141762
0.027814565 0.14047913 -0.032788191
0.028265931 0.14036164 -0.032551695
0.028799653 0.14028057 -0.032546215
0.029266853 0.1401698 -0.032354176
0.029643785 0.14001828 -0.031909242
0.029971872 0.13984394 -0.031327792
0.030291216 0.13966571 -0.030721717
0.030596837 0.13948187 -0.030076679
0.030756295 0.13923156 -0.029022574
0.030670805 0.13887018 -0.027281687
0.030778836 0.13859652 -0.026083432
0.030948125 0.13835062 -0.025056861
0.031066507 0.13808161 -0.023887314
0.031130299 0.13778761 -0.02256538
0.031358201 0.13756798 -0.021702882
0.031529959 0.13732341 -0.020683091
0.031755865 0.13710359 -0.019814584
0.032024592 0.13690254 -0.019066833
0.032306831 0.13670786 -0.018356496
0.032618865 0.1365266 -0.017729815
0.032954335 0.13635622 -0.017168552
0.033276241 0.13617942 -0.016569611
0.033645939 0.13602394 -0.016104609
0.034033395 0.13587725 -0.015689066
0.034453567 0.13574462 -0.01536558
0.034893196 0.13562161 -0.015096093
0.035364218 0.13551202 -0.014915116
0.035824604 0.13539843 -0.014703776
0.036264315 0.1352746 -0.014435144
0.036687031 0.13514423 -0.014118085
0.037098948 0.13500807 -0.013771337
0.037506156 0.13487023 -0.013411155
0.037929427 0.13473931 -0.013096198
0.038351625 0.13460776 -0.012778278
0.038777284 0.13447809 -0.012469899
0.039228238 0.13435945 -0.012232671
0.039686896 0.13424496 -0.012016643
0.040160127 0.13413657 -0.011841711
0.040653132 0.13403794 -0.01172166
0.041135035 0.13393334 -0.011571155
0.041608267 0.13382493 -0.011396211
0.042068735 0.13371143 -0.011185165
0.042526543 0.13359645 -0.010966752
0.042991035 0.13348424 -0.010767283
0.043445546 0.13336749 -0.010539817
0.043919176 0.1332593 -0.010365973
0.044401564 0.13315496 -0.010216786
0.044879131 0.13304889 -0.010053832
0.04537027 0.13294929 -0.0099286605
0.045875184 0.13285534 -0.0098424386
0.046374984 0.13275954 -0.0097416937
0.04687126 0.13266177 -0.0096311737
0.047356356 0.13255891 -0.0094894338
0.047835931 0.13245304 -0.0093325181
0.048327994 0.13235393 -0.0092099141
0.048831955 0.13225946 -0.0091210976
0.049333733 0.1321647 -0.0090256985
0.049849942 0.13207597 -0.0089710746
0.050375041 0.13199113 -0.0089414846
0.050908763 0.13191009 -0.0089361398
0.051440395 0.13182878 -0.0089244395
0.051975261 0.13174836 -0.0089223301
0.052506942 0.13166706 -0.0089106662
0.053039953 0.13158563 -0.0089032995
0.053578895 0.1315074 -0.0089124441
0.054121803 0.13143042 -0.0089326818
0.054669917 0.13135625 -0.0089675309
0.055223249 0.13128491 -0.0090165939
0.055811677 0.13122895 -0.0091642775
0.056409348 0.13117711 -0.0093380082
0.057002049 0.13112341 -0.0094972644
0.057612874 0.13107698 -0.0097084697
0.058186043 0.13101454 -0.0098130573
0.058756109 0.13095044 -0.0099091772
0.059307292 0.13087703 -0.009952927
0.059862886 0.13080601 -0.010008775
0.060402438 0.1307281 -0.010019315
0.060938358 0.1306482 -0.010019943
0.061466414 0.13056499 -0.009998532
0.061989341 0.13047989 -0.0099623697
0.062501557 0.130389 -0.00989684
0.062999338 0.13029207 -0.0097904671
0.063507035 0.13019969 -0.0097121103
0.064014807 0.13010721 -0.0096335551
0.064489275 0.12999955 -0.0094623212
0.064946488 0.12988426 -0.0092421975
0.065413393 0.12977333 -0.0090493364
0.065898523 0.12967046 -0.008907645
0.066372372 0.12956238 -0.0087343492
0.066839434 0.12945154 -0.0085420404
0.067289323 0.12933318 -0.0083013251
0.067710944 0.1292014 -0.0079819225
0.068125844 0.12906677 -0.0076431581
0.068556085 0.12893866 -0.0073478627
0.069003396 0.12881899 -0.0071002599
0.069373146 0.12866446 -0.006634864
0.069757432 0.12851508 -0.0062110275
0.070154794 0.12837285 -0.0058233729
0.070523314 0.12821767 -0.0053545316
0.070881367 0.12805684 -0.004857216
0.071241952 0.12789822 -0.0043660002
0.071581006 0.12772891 -0.0038151764
0.07191053 0.12755531 -0.0032376372
0.072227888 0.1273769 -0.0026254468
0.072588742 0.12721761 -0.0021357648
0.072953172 0.1270602 -0.0016557816
0.073331073 0.12690915 -0.0012132516
0.073710546 0.12675814 -0.00077590253
0.074121118 0.12662123 -0.00042551709
0.074557438 0.12649646 -0.00014700508
0.075005352 0.12637705 9.9215657e-05
0.075453885 0.12625794 0.00034378842
0.075885639 0.1261307 0.00063482765
0.07630644 0.12599842 0.00095649809
0.076717801 0.12586276 0.0013055326
0.07715819 0.12573929 0.0015723249
0.077600338 0.12561682 0.0018342352
0.078043424 0.12549572 0.0020939661
0.078502879 0.12538069 0.0023075966
0.078979082 0.12527393 0.0024742261
0.079470456 0.12517448 0.0025985809
0.079958938 0.12507343 0.0027310597
0.080443837 0.12497044 0.0028733723
0.080922961 0.12486427 0.0030317772
0.081411079 0.12476309 0.0031650141
0.08189214 0.12465885 0.0033185687
0.08238133 0.1245573 0.0034485376
0.082869358 0.12445603 0.0035821144
0.083354875 0.12435341 0.0037226388
0.083854169 0.1242573 0.0038248859
0.084362775 0.12416534 0.0039009033
0.084867738 0.12407137 0.0039870897
0.085386552 0.12398405 0.0040345332
0.08593224 0.12390856 0.0040064268
0.086472631 0.12383112 0.0039934879
0.086987883 0.12374189 0.0040506301
0.087497339 0.12365042 0.0041242344
0.088012971 0.12356132 0.004180613
0.088541172 0.1234782 0.0042016106
0.089084193 0.12340122 0.004181006
0.089640327 0.12333056 0.0041234409
0.090206735 0.12326449 0.004037356
0.090790428 0.12320684 0.0039033676
0.091383517 0.1231534 0.0037428048
0.092002831 0.12311147 0.0035086228
0.092621244 0.12306909 0.0032767849
0.093250714 0.12303177 0.0030139638
0.093935348 0.12301891 0.0025962647
0.094609633 0.12300222 0.0022082748
0.095264427 0.12297589 0.0018743053
0.095942594 0.12296133 0.0014755121
0.096641369 0.12295516 0.0010186476
0.097324133 0.12294216 0.00060683116
0.099570826 0.12299265 -0.0011853953
0.10022098 0.12296377 -0.0015065037
0.10078221 0.12289584 -0.0015779044
0.10131055 0.12281273 -0.0015570382
0.10184349 0.12273125 -0.0015496234
0.1023743 0.12264952 -0.001535641
0.10289632 0.12256388 -0.0014968794
0.10341702 0.12247314 -0.0014362368
0.10390052 0.12236553 -0.0012741229
0.10430486 0.12222575 -0.00090444414
0.10458843 0.12203649 -0.00021731947
0.10457391 0.12171037 0.0013072472
0.10480251 0.12149209 0.0021680845
0.10514338 0.12132375 0.0027139541
0.10552271 0.12117258 0.003151984
0.10594179 0.12104025 0.0034791185
0.10637363 0.12091308 0.0037698084
0.10680442 0.1207853 0.0040635252
0.10725058 0.12066495 0.0043144943
0.10768368 0.12053935 0.004602327
0.10812613 0.12041696 0.0048635444
0.10858524 0.12030273 0.0050783763
0.10902996 0.12018158 0.0053332699
0.10949595 0.12007017 0.0055286018
0.10996638 0.11996026 0.0057111895
0.11045057 0.11985594 0.0058636293
0.11093909 0.11975087 0.0060126754
0.11143578 0.11964896 0.0061403029
0.11193911 0.11955032 0.0062510064
0.11244572 0.1194533 0.0063532414
0.11293713 0.11934881 0.006494225
0.11342612 0.11924481 0.0066428753
0.11391607 0.11914044 0.0067884196
0.11440989 0.11903706 0.0069234632
0.11493091 0.11894639 0.0069879172
0.11543047 0.11884588 0.0071082497
0.11590979 0.11873712 0.007281539
0.11639376 0.11862976 0.0074424166
0.11689193 0.11852943 0.0075669782
0.11736185 0.11841691 0.0077649876
0.11782076 0.11829975 0.0079919137
0.11830616 0.11819309 0.0081491442
0.11878563 0.11808439 0.0083221616
0.11925904 0.11797354 0.0085113738
0.11976186 0.11787467 0.0086232387
0.12023709 0.11776385 0.0088071218
0.12059554 0.1176057 0.0092975879
0.12091304 0.11742982 0.0098949736
0.12133747 0.11729816 0.010212232
0.12175558 0.1171643 0.010546182
0.12219334 0.11703843 0.010828546
0.12264334 0.11691682 0.011078455
0.1230837 0.11679224 0.011354071
0.1235383 0.11667296 0.01159208
0.12397475 0.11654729 0.011878463
0.12441646 0.11642249 0.012150134
0.12488534 0.1163094 0.01235089
0.12535502 0.11619677 0.01254939
0.12583336 0.1160875 0.012725358
0.126331 0.11598694 0.012851081
0.12681594 0.11588009 0.013009419
-0.015072186 0.148938 -0.038746163
-0.014762118 0.14875191 -0.038094264
-0.014588363 0.14849886 -0.037027415
-0.014311459 0.14829569 -0.036274929
-0.014022075 0.14809997 -0.035559796
-0.013694197 0.14792272 -0.034961876
-0.013368875 0.14774475 -0.034355681
-0.01307128 0.14755303 -0.033665337
-0.012749055 0.14737236 -0.033050638
-0.012462277 0.14717512 -0.032327801
-0.012134809 0.14699848 -0.031728063
-0.011779428 0.14683495 -0.031213667
-0.011392955 0.14668724 -0.030793585
-0.011000156 0.14654247 -0.030393139
-0.010589395 0.14640656 -0.030046947
-0.010177102 0.14627157 -0.029705439
-0.0097792707 0.14612974 -0.029319573
-0.0093652532 0.1459949 -0.028983936
-0.0089492872 0.1458621 -0.02865329
-0.0085456017 0.14572285 -0.028285537
-0.008148754 0.1455805 -0.027896989
-0.0077359267 0.14544581 -0.027556922
-0.0073210672 0.14531149 -0.027223833
-0.0068869684 0.14518774 -0.026948411
-0.0064433552 0.14506869 -0.026701558
-0.0059963316 0.14495084 -0.026465815
-0.00554033 0.14483744 -0.02625706
-0.0050725024 0.14473018 -0.026084308
-0.0045975968 0.14462629 -0.025933255
-0.0041178837 0.14452522 -0.025796156
-0.0036324598 0.14442675 -0.02567704
-0.0031495672 0.14432663 -0.025550019
-0.0026727542 0.14422387 -0.025404532
-0.0021963995 0.14412083 -0.025257673
-0.0017211139 0.14401712 -0.025107648
-0.0012384541 0.14391692 -0.024980005
-0.00073914602 0.14382581 -0.024902742
-0.00023456104 0.14373605 -0.024842318
0.00027097017 0.1436477 -0.024783928
0.00078779273 0.14356515 -0.024759546
0.0013106894 0.14348541 -0.024754178
0.00184613 0.14341131 -0.024787042
0.002389309 0.14334188 -0.02484322
0.0029068431 0.14325885 -0.024821483
0.003426915 0.14317742 -0.024807651
0.0039511155 0.14309846 -0.024806071
0.0044840798 0.14302377 -0.024831131
0.005022428 0.14295147 -0.024872798
0.0055608526 0.14287911 -0.024914537
0.0061050486 0.14280933 -0.024974048
0.0066518998 0.14274208 -0.025041096
0.0072038602 0.14267606 -0.025124297
0.0077731479 0.14261945 -0.025259595
0.0083415275 0.14256237 -0.025392558
0.0089374054 0.142519 -0.025608901
0.0095478054 0.14248241 -0.025869388
0.010165099 0.14244999 -0.026150513
0.010783793 0.14241745 -0.026436139
0.011394399 0.14238106 -0.026697498
0.01202919 0.14235725 -0.027031764
0.01266163 0.14233115 -0.027359724
0.013341602 0.14232986 -0.027831502
0.021540301 0.14282835 -0.035803299
0.022166327 0.14279006 -0.036056075
0.022867611 0.14278616 -0.036519267
0.023502972 0.14275113 -0.036798771
0.024047051 0.14267567 -0.036821786
0.02457064 0.14259093 -0.036787465
0.027121997 0.14148848 -0.033429366
0.027577475 0.14137226 -0.033204637
0.027997158 0.14123932 -0.032879632
0.028470758 0.14113209 -0.032705352
0.029002586 0.14104998 -0.032694709
0.029452471 0.14093161 -0.032453854
0.029808253 0.14077044 -0.031949613
0.030127428 0.14059214 -0.03134311
0.030435147 0.14040853 -0.030704439
0.030760132 0.14023341 -0.030114058
0.031043364 0.14003927 -0.029406521
0.031222921 0.13979711 -0.02840906
0.031116869 0.13942553 -0.026611511
0.031345926 0.13920659 -0.025752254
0.031531587 0.13896768 -0.024771597
0.031480562 0.13862145 -0.023128048
0.031669606 0.13838442 -0.022156648
0.031932641 0.13818021 -0.021393068
0.032115363 0.13793978 -0.020404506
0.032325763 0.13771252 -0.019492891
0.032580253 0.13750549 -0.018704757
0.032838199 0.13729945 -0.017926622
0.033161037 0.13712315 -0.01733017
0.033462048 0.13693592 -0.016673177
0.033829562 0.13678019 -0.016201673
0.034239814 0.13664311 -0.01585044
0.034664191 0.13651368 -0.01553796
0.035104483 0.13639015 -0.015270843
0.035566702 0.13627754 -0.015064531
0.036002323 0.13615242 -0.014784089
0.036416017 0.13601719 -0.014442292
0.036818612 0.13587683 -0.014069391
0.037221141 0.13573647 -0.013696335
0.037616313 0.13559301 -0.013302465
0.038033716 0.13545978 -0.012970827
0.038455747 0.13532814 -0.012652441
0.038890362 0.13520247 -0.012369202
0.039345734 0.13508618 -0.012144177
0.03981154 0.13497557 -0.011947731
0.040296003 0.13487235 -0.011804178
0.040793002 0.134775 -0.011695744
0.041275494 0.13467073 -0.011546819
0.041745849 0.13456164 -0.011363385
0.042205863 0.13444789 -0.01115109
0.042660184 0.13433108 -0.010923118
0.043122515 0.13421857 -0.010717142
0.043578941 0.13410288 -0.010494996
0.044049583 0.13399306 -0.010312926
0.044519745 0.13388389 -0.010129014
0.044998333 0.13377841 -0.0099688526
0.045501653 0.13368358 -0.0098782927
0.046010654 0.1335918 -0.0098032877
0.046506386 0.1334947 -0.0096907951
0.046999551 0.13339527 -0.009571719
0.047476821 0.13328908 -0.0094079319
0.047947899 0.13318039 -0.0092265382
0.048434053 0.1330781 -0.0090876985
0.048930198 0.13298029 -0.0089768097
0.049421154 0.13288058 -0.0088511985
0.049920216 0.1327844 -0.0087484512
0.050435677 0.1326952 -0.0086916536
0.050963689 0.13261199 -0.0086701913
0.051504206 0.13253453 -0.0086832484
0.052035067 0.13245288 -0.0086696064
0.05255682 0.13236715 -0.0086303176
0.05307474 0.13227932 -0.0085804053
0.053595636 0.13219313 -0.0085386941
0.05412348 0.13210976 -0.008516415
0.054675441 0.1320377 -0.0085618952
0.055216148 0.13196038 -0.0085755354
0.055782557 0.13189431 -0.0086616045
0.056364723 0.13183591 -0.0087917242
0.056931373 0.13176998 -0.0088785579
0.05751162 0.13171142 -0.0090027517
0.058083802 0.13164844 -0.0091045126
0.058611099 0.13156481 -0.0090810386
0.059160724 0.13149141 -0.0091197342
0.059727672 0.13142562 -0.0092072655
0.060266096 0.13134712 -0.0092148371
0.060790241 0.13126272 -0.0091822594
0.061316475 0.13117847 -0.0091556218
0.061807007 0.13107856 -0.009028852
0.062288225 0.13097446 -0.0088758525
0.062795997 0.13088204 -0.0087975692
0.063308224 0.1307912 -0.0087321699
0.063797377 0.1306905 -0.0086014159
0.064280123 0.13058725 -0.0084526809
0.064790621 0.13049629 -0.0083816852
0.065288022 0.13039918 -0.0082744155
0.06574665 0.13028377 -0.0080587864
0.066212982 0.13017346 -0.0078638392
0.066666931 0.13005635 -0.0076347054
0.067112863 0.12993589 -0.00738311
0.067568645 0.12981987 -0.0071593449
0.068009794 0.12969679 -0.0068944707
0.06846036 0.12957881 -0.0066556111
0.068885714 0.12944904 -0.0063465987
0.069287054 0.12930797 -0.0059700459
0.06969288 0.12916934 -0.005605944
0.070081845 0.12902348 -0.0051946705
0.070457101 0.12887107 -0.0047450545
0.070843749 0.128723 -0.0043278835
0.071202964 0.12856364 -0.0038328136
0.071556494 0.12840126 -0.0033223964
0.071892276 0.12823014 -0.0027625668
0.072228707 0.12806028 -0.0022039432
0.072611064 0.12791082 -0.0017744433
0.072991438 0.12776029 -0.0013395716
0.073383316 0.12761502 -0.00093650818
0.073781513 0.12747315 -0.00055085169
0.074193075 0.1273368 -0.00020328956
0.074635342 0.12721528 5.8717094e-05
0.075092554 0.12709999 0.00027884357
0.075559378 0.12698899 0.00047204271
0.075994186 0.12686341 0.00075468654
0.076419309 0.12673345 0.001064592
0.076826036 0.12659536 0.0014260802
0.077264078 0.12647064 0.0016992753
0.077704579 0.12634802 0.0019665724
0.078148387 0.12622648 0.0022238055
0.078609928 0.12611352 0.0024320325
0.079081133 0.12600397 0.002612683
0.079560608 0.125899 0.0027701557
0.080055095 0.12580121 0.0028861919
0.080546342 0.12570073 0.0030105943
0.081041686 0.1256025 0.0031235712
0.081537083 0.12550516 0.0032371348
0.082025409 0.12540407 0.0033698827
0.082524486 0.12530787 0.0034726094
0.083018072 0.12520866 0.0035906145
0.083495803 0.12510271 0.0037529757
0.083993442 0.12500572 0.0038597612
0.084501505 0.12491347 0.0039373627
0.085007161 0.12481992 0.0040215636
0.085531004 0.12473536 0.0040549664
0.086063087 0.12465422 0.0040657157
0.086590298 0.12457058 0.0040893955
0.087095112 0.12447658 0.0041757235
0.087601021 0.12438408 0.0042597456
0.088126495 0.12429942 0.004288449
0.088668488 0.12422282 0.0042711673
0.089210942 0.12414651 0.0042525176
0.089764543 0.1240744 0.0042021684
0.090334922 0.12401046 0.0041052224
0.090910159 0.12394921 0.003994653
0.091503695 0.12389602 0.0038329903
0.092110366 0.12384813 0.0036341222
0.092752971 0.12381792 0.00333519
0.093385331 0.12378216 0.0030645179
0.094084874 0.12377641 0.0026055994
0.094761141 0.12376082 0.0022120951
0.095423661 0.12373957 0.0018574493
0.09608651 0.12371762 0.0015012035
0.096772611 0.12370647 0.0010800241
0.097472541 0.12370098 0.00061992602
0.099739596 0.12376238 -0.0012278855
0.10036341 0.12372293 -0.0014746608
0.10093484 0.12365957 -0.001574493
0.10147835 0.12358379 -0.001595899
0.10201829 0.12350611 -0.0016077524
0.10255855 0.12342857 -0.0016202666
0.10309853 0.12334707 -0.0016162344
0.1036166 0.12325495 -0.0015442879
0.10410865 0.12315157 -0.0014039828
0.10454362 0.12302433 -0.0011145296
0.10488334 0.12285769 -0.00057532871
0.1050946 0.1226379 0.00030058436
0.10501616 0.12228343 0.0020006001
0.10531723 0.12209716 0.0026580095
0.10568594 0.12194117 0.0031256573
0.10609154 0.12180248 0.0034902226
0.1065115 0.12166972 0.0038143145
0.10692762 0.12153579 0.0041494938
0.10736455 0.12141138 0.0044262214
0.10778785 0.12128044 0.0047412151
0.10820968 0.12114961 0.005060642
0.10865006 0.1210261 0.0053275721
0.10908531 0.12090073 0.0056091212
0.10953331 0.1207814 0.005854859
0.11000104 0.12067091 0.0060454467
0.11047603 0.12056343 0.0062156403
0.11095943 0.12045771 0.0063743535
0.1114573 0.12035724 0.0064995959
0.11196224 0.12025949 0.0066058254
0.11247439 0.12016434 0.0066933148
0.11297329 0.12006354 0.0068152351
0.11345804 0.11995746 0.0069746273
0.11394122 0.11985058 0.0071382197
0.11443147 0.11974642 0.0072826594
0.1149345 0.11964757 0.0073943166
0.11542142 0.11954172 0.007547426
0.11591133 0.11943819 0.007693748
0.11640058 0.11933349 0.0078408653
0.11690265 0.11923423 0.0079548052
0.11738802 0.11912847 0.0081126802
0.11786012 0.11901697 0.0083052618
0.11834006 0.11890853 0.0084768953
0.11881817 0.11879914 0.0086534815
0.11926821 0.11867844 0.0089038247
0.11971492 0.11855611 0.0091627119
0.12012251 0.11841798 0.0095239272
0.1204937 0.1182643 0.0099807596
0.12089463 0.11812276 0.01035945
0.12132134 0.11799229 0.010670803
0.12175786 0.11786669 0.010956827
0.12221556 0.11774893 0.01118693
0.12266813 0.11762862 0.011430229
0.12311044 0.11750498 0.011700896
0.12357004 0.11738821 0.011925972
0.1240194 0.11726719 0.012178038
0.12449348 0.11715671 0.012365394
0.12497475 0.1170489 0.012533867
0.12544414 0.11693606 0.012733321
0.1259169 0.11682403 0.01292346
0.1264077 0.11672095 0.013067449
0.12691298 0.11662241 0.013172477
0.12744775 0.11653769 0.013201057
-0.014611945 0.14948632 -0.038118266
-0.014214884 0.14934401 -0.037730064
-0.013931632 0.14914462 -0.03699664
-0.01355605 0.14899132 -0.036543582
-0.01326048 0.1487975 -0.035847899
-0.012978841 0.14859711 -0.035109457
-0.01266066 0.14841589 -0.034481764
-0.012351213 0.14822942 -0.0338278
-0.012095461 0.14801627 -0.033010576
-0.011778016 0.14783372 -0.032381192
-0.011463204 0.1476505 -0.031743459
-0.011106437 0.14748776 -0.031233322
-0.010737635 0.14733133 -0.030759398
-0.010328326 0.14719452 -0.030408874
-0.0099176373 0.14705858 -0.030062616
-0.0095358696 0.14690895 -0.029627789
-0.0091256313 0.1467728 -0.029280432
-0.0087196119 0.14663406 -0.028920207
-0.0083162356 0.14649463 -0.028551497
-0.0079206862 0.14635149 -0.028159168
-0.0075120218 0.14621519 -0.027806211
-0.0070998073 0.14608017 -0.027464349
-0.0066708419 0.14595334 -0.027173586
-0.0062407181 0.14582722 -0.026886474
-0.0057976432 0.14570786 -0.026638042
-0.0053573847 0.14558694 -0.026381701
-0.0048997737 0.14547448 -0.026177831
-0.0044311024 0.14536777 -0.026007622
-0.003955368 0.1452643 -0.0258587
-0.0034837127 0.14515935 -0.025697224
-0.0030114111 0.14505389 -0.025538322
-0.0025336053 0.14495172 -0.025395799
-0.0020577833 0.14484832 -0.025247216
-0.0015849806 0.1447441 -0.025089391
-0.0011007823 0.1446448 -0.02496643
-0.00060271099 0.1445529 -0.024885315
-9.5866621e-05 0.14446537 -0.024830982
0.00041567162 0.14437972 -0.024790984
0.00093551353 0.14429812 -0.024776403
0.0014627818 0.14422099 -0.024784032
0.0019961894 0.14414655 -0.024810199
0.0025235638 0.14406855 -0.024818689
0.0030254694 0.14397898 -0.024748988
0.0035232091 0.14388603 -0.024667621
0.0040367786 0.14380248 -0.024633098
0.0045693498 0.14372754 -0.024656858
0.0051031113 0.14365247 -0.024684906
0.0056380611 0.14357898 -0.024715748
0.0061772522 0.14350714 -0.024759959
0.0067286436 0.14344168 -0.024840932
0.0072728908 0.14337288 -0.02490028
0.0078360224 0.14331348 -0.025016636
0.0084096314 0.14325856 -0.025165375
0.008997133 0.14321105 -0.025356241
0.0095798504 0.14316161 -0.025532153
0.010182072 0.14312197 -0.025767274
0.010788143 0.14308374 -0.026014443
0.011388671 0.14304221 -0.026245084
0.012015929 0.1430148 -0.026556417
0.012621918 0.1429766 -0.026803516
0.013274392 0.14296152 -0.027191509
0.022275524 0.14351593 -0.035942551
0.022967935 0.14350814 -0.036380861
0.023556968 0.14345255 -0.036530331
0.02410657 0.14338005 -0.036568522
0.02463009 0.1432953 -0.036534004
0.027742555 0.14212471 -0.03324667
0.02818431 0.142002 -0.032983586
0.028673299 0.14190121 -0.032852538
0.029190591 0.14181396 -0.032800343
0.02963547 0.14169294 -0.032545872
0.029955568 0.14151518 -0.031941991
0.030274507 0.14133668 -0.03133459
0.030603386 0.14116275 -0.030755378
0.030921806 0.14098406 -0.030146673
0.031246632 0.14080884 -0.029555745
0.031532735 0.14061537 -0.028856784
0.03173038 0.1403812 -0.02791021
0.031637233 0.14001478 -0.026148975
0.031945128 0.1398313 -0.025511008
0.032234143 0.13963938 -0.024819911
0.031984724 0.13920191 -0.022621132
0.032213997 0.13898306 -0.021762487
0.032515973 0.13879634 -0.02110815
0.03274126 0.13857535 -0.020238735
0.032935664 0.13834031 -0.019282682
0.033163294 0.13812058 -0.018419601
0.033418052 0.13791284 -0.017632768
0.03372971 0.13773136 -0.017005021
0.034080476 0.13756745 -0.016486954
0.034498923 0.13743483 -0.016158164
0.034928046 0.13730614 -0.015859868
0.035350047 0.13717537 -0.015540867
0.035766706 0.13704175 -0.015207179
0.036173269 0.13690266 -0.014845733
0.036573723 0.13676211 -0.014466469
0.036959045 0.1366142 -0.014045019
0.037338927 0.13646334 -0.013608585
0.037737686 0.13632186 -0.013224593
0.038144901 0.13618313 -0.012864948
0.038579188 0.13605814 -0.012580273
0.039016701 0.135934 -0.012305032
0.039471813 0.13581757 -0.012079189
0.039950661 0.13571222 -0.011919692
0.040441833 0.13561264 -0.011794637
0.040928304 0.13551049 -0.011656665
0.041398324 0.13540125 -0.011472382
0.04186625 0.13529085 -0.011282283
0.042320464 0.13517401 -0.011054086
0.042771243 0.13505612 -0.010815794
0.043233208 0.13494252 -0.010609363
0.043693468 0.13482891 -0.010397725
0.044157442 0.1347173 -0.010196235
0.044624411 0.13460636 -0.010003525
0.04510475 0.13450181 -0.0098481951
0.04560855 0.13440727 -0.0097589102
0.046121605 0.13431771 -0.0096950801
0.046624668 0.13422365 -0.0096032377
0.047119081 0.1341249 -0.009487628
0.0475915 0.13401701 -0.0093099363
0.048054591 0.13390489 -0.0091060773
0.048539758 0.13380206 -0.0089644985
0.049019955 0.13369742 -0.0088087246
0.04950482 0.13359439 -0.0086662993
0.04999676 0.13349524 -0.0085434131
0.050502729 0.1334018 -0.0084599257
0.051031291 0.13331978 -0.0084393248
0.051559195 0.13323653 -0.0084176324
0.052089065 0.13315424 -0.0084010307
0.05261033 0.13306823 -0.0083602127
0.053122379 0.13297813 -0.0082936427
0.053625152 0.13288395 -0.0082011325
0.054135289 0.13279277 -0.0081291255
0.054670572 0.13271347 -0.0081274621
0.055208821 0.13263485 -0.0081346119
0.05576003 0.13256235 -0.008177761
0.056317065 0.13249305 -0.0082371887
0.05687603 0.13242474 -0.0083015403
0.057418633 0.13234851 -0.0083207479
0.057975519 0.13227817 -0.0083801094
0.058513988 0.13220058 -0.0083872443
0.059035171 0.13211457 -0.0083463369
0.059576172 0.13203739 -0.0083608013
0.060125653 0.13196397 -0.0083993617
0.060668856 0.13188802 -0.0084199375
0.061181415 0.13179824 -0.0083547905
0.061642438 0.13168502 -0.0081452597
0.062133983 0.1315847 -0.0080216834
0.062636703 0.13149048 -0.0079289963
0.063133091 0.13139369 -0.0078181177
0.063630804 0.13129677 -0.0077118101
0.064150758 0.13121001 -0.0076673306
0.064645275 0.13111135 -0.0075520799
0.065088212 0.13099015 -0.0072916569
0.06552051 0.13086323 -0.0070022098
0.065966591 0.13074276 -0.0067507564
0.066431649 0.13063177 -0.0065524383
0.066929735 0.13053507 -0.00644702
0.067427963 0.13043833 -0.0063417442
0.067896165 0.13032813 -0.0061525316
0.068354443 0.13021342 -0.0059354343
0.06878458 0.13008617 -0.0056392853
0.069197975 0.12995082 -0.0052966685
0.069611654 0.12981559 -0.0049548848
0.070025355 0.12968038 -0.0046131015
0.070431396 0.12954187 -0.0042494778
0.070795298 0.12938422 -0.00376819
0.07114996 0.12922242 -0.0032608774
0.071511045 0.1290632 -0.0027716737
0.07186 0.12889834 -0.0022486025
0.072222158 0.12873967 -0.0017622933
0.072606556 0.1285913 -0.0013383608
0.073015645 0.12845448 -0.00098326942
0.073437974 0.12832306 -0.00066586304
0.073859587 0.12819117 -0.00034618657
0.074274719 0.12805673 -8.3185732e-06
0.074718729 0.12793612 0.00024907477
0.075183496 0.12782404 0.00044771098
0.075648122 0.12771188 0.00064689619
0.076082744 0.12758708 0.00093059847
0.076506943 0.12745665 0.0012429832
0.076914713 0.1273182 0.00160114
0.077345379 0.12719125 0.0018958403
0.077789642 0.12706986 0.0021519763
0.078229614 0.12694703 0.0024205856
0.078691781 0.12683445 0.0026270179
0.079163112 0.12672499 0.0028072642
0.079635575 0.12661712 0.0029846448
0.080127843 0.12651809 0.0031067943
0.08062768 0.1264223 0.0032073306
0.081135385 0.12632988 0.0032858169
0.081645124 0.12623852 0.0033588829
0.082141846 0.12614104 0.0034681475
0.082640424 0.12604547 0.0035728952
0.083141163 0.12595013 0.0036712261
0.083628349 0.1258484 0.0038070744
0.084126063 0.12575144 0.0039136568
0.084633306 0.12565874 0.0039933873
0.085128613 0.12556136 0.0041071447
0.085652798 0.12547603 0.0041393619
0.086185418 0.12539533 0.0041481135
0.086706601 0.12530924 0.0041891513
0.087221965 0.12522098 0.0042465245
0.087737046 0.12513253 0.0043048589
0.088271119 0.12505163 0.0043093199
0.088819057 0.12497829 0.0042755371
0.08935602 0.12489896 0.0042721573
0.089921564 0.1248333 0.0041889912
0.090499237 0.12477335 0.004071814
0.09106084 0.12470563 0.0039993823
0.091657192 0.12465392 0.0038300818
0.092253521 0.12460227 0.0036606509
0.09288159 0.12456508 0.0034021838
0.093525231 0.12453449 0.0031001987
0.094227105 0.124531 0.0026349686
0.094903022 0.12451605 0.002243218
0.095560826 0.12449229 0.0019013649
0.096221983 0.12447028 0.0015505711
0.096919738 0.12446448 0.0010970393
0.099936634 0.12454569 -0.0013494738
0.10054579 0.12450004 -0.00155464
0.10112033 0.12443839 -0.0016630762
0.10168778 0.12437378 -0.0017514001
0.10223718 0.12430035 -0.0017898846
0.10276194 0.1242138 -0.0017486452
0.10328075 0.12412205 -0.0016786316
0.10377212 0.12401831 -0.001536462
0.1042616 0.12391374 -0.0013899636
0.10473575 0.12380324 -0.0012025414
0.10514986 0.12366736 -0.00085835205
0.10550277 0.12350644 -0.00035349932
0.10531268 0.12311251 0.0016007209
0.10552661 0.12288623 0.0025020735
0.10586175 0.1227157 0.0030640662
0.10624313 0.12256563 0.0034965212
0.10662889 0.12241799 0.0039167413
0.10703176 0.12227779 0.0042888895
0.10745748 0.12214822 0.0045970194
0.10787324 0.12201404 0.0049333675
0.1082799 0.12187594 0.0052949293
0.10870304 0.1217449 0.0056103328
0.10913089 0.12161645 0.0059126774
0.10958003 0.1214977 0.0061554508
0.1100418 0.12138487 0.0063630659
0.11051261 0.12127519 0.0065444792
0.11098756 0.12116849 0.0067157382
0.11148286 0.12106676 0.0068475837
0.11198084 0.12096546 0.0069719767
0.11249054 0.12087003 0.0070661716
0.11299232 0.12077063 0.0071807895
0.11347798 0.12066504 0.0073377071
0.11396488 0.12056004 0.0074915979
0.11446018 0.12045831 0.007623448
0.11493933 0.12034943 0.0077972757
0.11541432 0.12023939 0.0079824245
0.11589365 0.12013066 0.0081555909
0.11637411 0.12002246 0.0083260499
0.11686384 0.11991884 0.0084727844
0.11735711 0.11981609 0.0086097904
0.11782762 0.11970384 0.008806292
0.11829649 0.11959075 0.0090070488
0.11876275 0.11947729 0.0092150671
0.11920681 0.11935359 0.009480889
0.11964988 0.11923042 0.0097493595
0.12005012 0.11908854 0.010129903
0.12049468 0.11896604 0.010394785
0.12092292 0.11883543 0.010701499
0.12135975 0.11870994 0.010986985
0.12179918 0.11858491 0.011265085
0.12225212 0.11846475 0.011507497
0.12270664 0.11834634 0.011746219
0.12315659 0.1182256 0.011996767
0.12361892 0.1181102 0.012214693
0.12408004 0.11799414 0.012436041
0.12455754 0.11788447 0.012614015
0.12504262 0.11777854 0.012772723
0.12552291 0.11767027 0.012943464
0.12600556 0.11756311 0.0131085
0.126495 0.11745941 0.01325578
0.12701041 0.11736593 0.013334676
0.12756744 0.11728955 0.013304566
-0.013514845 0.15001211 -0.037830781
-0.013167916 0.14984438 -0.037290696
-0.012756307 0.14970903 -0.036947194
-0.01246327 0.14951362 -0.036243871
-0.012256768 0.14927654 -0.035276879
-0.011947555 0.14908989 -0.034622155
-0.011626475 0.14890862 -0.034004215
-0.011365138 0.14869881 -0.033203568
-0.011080701 0.14849925 -0.032474294
-0.010747459 0.14832513 -0.031892199
-0.010422179 0.14814633 -0.031286579
-0.010065267 0.1479837 -0.030776858
-0.0096611883 0.14784476 -0.030410413
-0.0092892889 0.14768918 -0.029946215
-0.008885283 0.14755023 -0.029579706
-0.008483015 0.147411 -0.029207047
-0.0080746226 0.14727372 -0.028853912
-0.0076801553 0.14712989 -0.028458141
-0.0072765332 0.14699067 -0.028090458
-0.0068631694 0.14685631 -0.027752113
-0.0064441897 0.14672442 -0.027430989
-0.0060296766 0.14659072 -0.027096011
-0.0055987947 0.14646505 -0.026810959
-0.0051640868 0.14634165 -0.026537322
-0.0047200881 0.14622284 -0.026291784
-0.004261395 0.1461111 -0.026091348
-0.0038025584 0.14599936 -0.025891058
-0.0033398885 0.14589 -0.025702596
-0.0028676726 0.14578445 -0.025543213
-0.0023938008 0.14568081 -0.025388416
-0.0019240621 0.1455747 -0.025221236
-0.0014512986 0.14546958 -0.025063846
-0.00096236542 0.14537308 -0.024954781
-0.0004637409 0.14528155 -0.024875522
4.4705346e-05 0.14519501 -0.024825931
0.00056445971 0.14511329 -0.024810869
0.0010843426 0.14503261 -0.024795841
0.0016147047 0.14495642 -0.024813201
0.0021306816 0.14487343 -0.024786554
0.0026450977 0.14479038 -0.024754718
0.0031411089 0.14469731 -0.024667479
0.0036258362 0.14459831 -0.02454596
0.0041313758 0.14450999 -0.024487708
0.0046593193 0.14443319 -0.024497062
0.0051964223 0.14436105 -0.024534639
0.0057296073 0.14428648 -0.024560187
0.0062727798 0.14421703 -0.024616227
0.0068281498 0.14415394 -0.024709038
0.0073723933 0.14408511 -0.024768241
0.0079301782 0.14402261 -0.024869047
0.0084953737 0.14396447 -0.024991531
0.0090716649 0.14391114 -0.025148317
0.0096403938 0.14385515 -0.025281664
0.010222118 0.14380509 -0.025454614
0.010803448 0.14375484 -0.025626529
0.011399383 0.14371142 -0.025842931
0.011999078 0.14367031 -0.02607055
0.012604897 0.14363286 -0.026316471
0.013236344 0.14360705 -0.026640855
0.013913193 0.14360474 -0.027102612
0.023048708 0.14422128 -0.036187485
0.023602061 0.14414996 -0.036236573
0.024141379 0.14407283 -0.036245991
0.024691418 0.14399968 -0.036286026
0.025259966 0.1439357 -0.036377549
0.028335683 0.14274886 -0.032986943
0.028833549 0.14265198 -0.032880772
0.029370755 0.14257373 -0.03288443
0.029833164 0.14246038 -0.032679386
0.030117266 0.14226671 -0.031974286
0.030428678 0.14208426 -0.031346448
0.030762918 0.14191316 -0.03078172
0.031076787 0.14173201 -0.030160647
0.031419903 0.14156486 -0.029620934
0.03175392 0.14139371 -0.029055726
0.032062784 0.14120984 -0.028420899
0.032051008 0.14088033 -0.02688792
0.03221494 0.1406306 -0.025847077
0.032521915 0.1404466 -0.025206491
0.032731153 0.14021866 -0.024291608
0.032513201 0.13979377 -0.022182163
0.03280222 0.13960186 -0.021491071
0.0330984 0.13941291 -0.020820284
0.033358015 0.13920777 -0.020046804
0.033601709 0.13899402 -0.019229539
0.03383024 0.13877477 -0.018368922
0.034072161 0.138561 -0.017546255
0.034389753 0.13838181 -0.016935389
0.034768976 0.13823062 -0.016497156
0.035178058 0.1380938 -0.016142115
0.035580281 0.13795327 -0.01576823
0.035963695 0.13780433 -0.015341532
0.036337126 0.13765094 -0.014886798
0.036737781 0.13751043 -0.014508068
0.037109219 0.13735594 -0.014047916
0.037480913 0.13720156 -0.013588445
0.037883863 0.13706143 -0.013216542
0.038290761 0.1369234 -0.012855465
0.038719889 0.13679567 -0.012556616
0.039158411 0.13667116 -0.012284672
0.039618447 0.1365574 -0.012072382
0.040094748 0.13645157 -0.01190534
0.040583394 0.13635057 -0.011773305
0.041056342 0.13624294 -0.011597091
0.041512519 0.1361271 -0.011374212
0.041970812 0.13601243 -0.011157129
0.042420112 0.13589376 -0.010914836
0.0428726 0.13577682 -0.010681214
0.043334678 0.13566329 -0.010475138
0.04379902 0.13555187 -0.010274603
0.044257566 0.13543731 -0.010058327
0.044732697 0.13532993 -0.009888567
0.04522077 0.13522957 -0.0097544445
0.045719244 0.13513301 -0.0096499734
0.046235118 0.13504501 -0.0095939524
0.046727918 0.1349463 -0.0094733294
0.047219209 0.13484678 -0.0093485899
0.047690742 0.13473745 -0.0091690123
0.048148483 0.13462335 -0.0089498749
0.048622608 0.13451546 -0.0087774452
0.049098372 0.13440934 -0.0086089242
0.049582649 0.134306 -0.0084650163
0.050068274 0.13420425 -0.0083239852
0.05057355 0.13411051 -0.0082387691
0.051094729 0.13402538 -0.0081973821
0.051613528 0.13393806 -0.0081499116
0.052138284 0.13385391 -0.0081187189
0.052655451 0.13376664 -0.0080662686
0.053159624 0.13367313 -0.0079773813
0.05365536 0.13357513 -0.007865428
0.054153182 0.13347912 -0.0077586137
0.054669395 0.13339041 -0.0077041257
0.055197671 0.13330816 -0.0076824459
0.055742647 0.13323322 -0.0077081965
0.056289297 0.13315912 -0.0077382149
0.056840133 0.13308643 -0.0077803521
0.057373893 0.13300632 -0.0077746985
0.0579013 0.1329236 -0.0077507147
0.058420733 0.13283662 -0.0077049225
0.058946472 0.13275303 -0.0076765413
0.059494559 0.13267981 -0.0077108797
0.060036235 0.13260297 -0.0077270553
0.060568936 0.13252231 -0.0077185077
0.061063256 0.1324244 -0.0076019214
0.061529554 0.13231316 -0.0074075521
0.062015794 0.1322118 -0.0072684465
0.062503278 0.13211018 -0.0071330136
0.062980294 0.1320048 -0.0069681513
0.063476101 0.13190676 -0.0068562692
0.064012595 0.1318281 -0.0068580434
0.064529181 0.13174044 -0.0068036956
0.064990036 0.13162714 -0.0065937568
0.065433323 0.1315053 -0.0063350797
0.065873899 0.13138273 -0.0060679824
0.066326335 0.13126493 -0.005834993
0.066783369 0.13115047 -0.0056139422
0.067256987 0.1310423 -0.0054401685
0.067754582 0.13094616 -0.0053327344
0.068233147 0.13084066 -0.0051725097
0.068659261 0.13071117 -0.0048650084
0.069094665 0.13058595 -0.0045841504
0.06953977 0.13046499 -0.0043301554
0.06997519 0.13033971 -0.0040491642
0.070381775 0.13020149 -0.0036871298
0.070755281 0.13004814 -0.0032327618
0.071115978 0.12988876 -0.0027426733
0.071491987 0.12973668 -0.0022948426
0.071852922 0.12957746 -0.001805502
0.072229832 0.12942585 -0.0013601496
0.072621047 0.1292803 -0.00095564546
0.073047921 0.12915133 -0.00065061729
0.073480442 0.12902449 -0.00036164932
0.073924363 0.12890378 -0.00010376982
0.074347585 0.1287728 0.00021129707
0.074790448 0.12865156 0.0004719235
0.075250022 0.12853763 0.00068523968
0.075703219 0.12842014 0.00091644097
0.076147862 0.12829897 0.0011715405
0.076577015 0.12817119 0.0014703702
0.077000447 0.12804031 0.0017849561
0.077431127 0.12791345 0.0020793919
0.077881239 0.12779516 0.0023196312
0.078326419 0.12767431 0.0025731474
0.078778885 0.12755735 0.0028068461
0.079249367 0.12744838 0.0029898705
0.079720676 0.12733984 0.0031706197
0.080204815 0.1272364 0.0033151368
0.080701888 0.12713997 0.0034240177
0.08120776 0.12704659 0.0035074623
0.081727467 0.12696061 0.0035530711
0.082237884 0.12686965 0.003624131
0.082741976 0.12677619 0.0037129633
0.083246902 0.12668312 0.0037998082
0.083737738 0.12658331 0.003925886
0.084236272 0.12648682 0.0040300591
0.08473628 0.12639116 0.0041301763
0.085243471 0.12629931 0.0042108307
0.085766397 0.12621418 0.0042469865
0.086290844 0.12612988 0.0042790119
0.086814247 0.12604503 0.0043139318
0.08733952 0.12596121 0.0043435609
0.087878101 0.12588279 0.0043355683
0.088422149 0.12580732 0.0043125786
0.088969536 0.1257336 0.0042805178
0.089528732 0.12566549 0.0042152656
0.090094954 0.1256002 0.0041302433
0.090650365 0.12552997 0.0040754518
0.091230914 0.12547153 0.0039505726
