# .PCD v0.7 - Point Cloud Data file format
VERSION 0.7
FIELDS x y z
SIZE 4 4 4
TYPE F F F
COUNT 1 1 1
WIDTH 1300
HEIGHT 1
VIEWPOINT 0 0 0 1 0 0 0
POINTS 1300
DATA ascii
0.058802068 0.090429604 -0.023363071
0.056328796 0.090181567 -0.023268361
0.055700723 0.090147488 -0.023635689
0.055154398 0.090122983 -0.024023587
0.054669175 0.090105474 -0.024426674
0.054141466 0.09008301 -0.024819165
0.053581107 0.090056762 -0.025203509
0.053077593 0.090037204 -0.025602035
0.052481718 0.090006813 -0.025977416
0.051763039 0.089962281 -0.026322065
0.050986391 0.089910991 -0.026652185
0.050241884 0.08986339 -0.026990475
0.049554624 0.089822501 -0.027342955
0.048860595 0.089780807 -0.027693752
0.010464028 0.086854689 -0.03730071
0.0098323477 0.086827248 -0.03768532
0.0092461472 0.086804695 -0.038080227
0.0086287111 0.08677879 -0.038468052
0.007858023 0.086736575 -0.038821165
0.0070888982 0.086694516 -0.039174605
0.0064645889 0.086667903 -0.039560858
0.0058717444 0.086644568 -0.039954253
0.0052821669 0.086621672 -0.040348355
0.0046566683 0.086594909 -0.040734399
0.003678791 0.086530536 -0.041040514
0.0031980898 0.086519293 -0.041459262
0.0028548406 0.086522661 -0.041909277
0.0026126399 0.086536832 -0.042382192
0.0024137998 0.086555608 -0.042865016
0.0022195985 0.086574875 -0.043348733
0.0019846007 0.086589776 -0.043823343
0.001773413 0.086607285 -0.044303194
0.0015416767 0.086622521 -0.044778526
0.0013253845 0.086639427 -0.045257293
0.0011466786 0.08666037 -0.045744635
0.00095576205 0.086680099 -0.046229158
0.00062873092 0.086685158 -0.046682823
-0.0010802888 0.086582825 -0.047350965
-0.026507514 0.08479847 -0.053941738
-0.026939215 0.084792927 -0.054385561
-0.02723621 0.084801689 -0.05485658
-0.027521281 0.084811732 -0.055330072
-0.028036868 0.084797427 -0.055756852
-0.028595604 0.084778532 -0.056175027
-0.02916464 0.08475852 -0.056591053
-0.029754117 0.084736347 -0.057002947
-0.030234633 0.084725693 -0.057436883
-0.030677797 0.084719002 -0.057878427
0.079742871 0.088186666 0.038708385
0.080289245 0.088284656 0.038035184
0.081694439 0.088473454 0.037122402
0.083161533 0.088668875 0.036192317
0.083940797 0.088791445 0.03545412
0.08457911 0.088899188 0.034755297
0.085104503 0.088994861 0.034087956
0.085624136 0.089090042 0.033422276
0.086045466 0.08917468 0.032783907
0.086334541 0.089245379 0.032182574
0.086616784 0.089315467 0.031583045
0.086788863 0.08937382 0.031014239
0.086949684 0.089430921 0.030448679
0.087095611 0.089486502 0.029887211
0.087248929 0.089542836 0.029323688
0.087386563 0.089597508 0.028764563
0.087455444 0.089644954 0.028224641
0.087592542 0.089699611 0.027665591
0.087696753 0.089750759 0.027115794
0.087806039 0.089802474 0.02656449
0.087879129 0.089850321 0.026023351
0.087923825 0.089895196 0.025490129
0.087942906 0.089937314 0.024964141
0.087900661 0.089972973 0.024455173
0.087790839 0.090001553 0.023965033
0.087663703 0.090028197 0.023479795
0.087533027 0.090054475 0.022995487
0.087370232 0.090077385 0.022520183
0.087158874 0.090095147 0.022058396
0.08690469 0.090108328 0.021608593
0.086635053 0.090119973 0.021163052
0.086339697 0.090128861 0.020724734
0.086026803 0.090135805 0.020291293
0.085705169 0.090141922 0.019860262
0.085400015 0.090149738 0.019424632
0.085074849 0.09015549 0.018994614
0.084651135 0.090150759 0.01859208
0.08420103 0.090143241 0.018196931
0.083701603 0.090130553 0.017815502
0.083146311 0.090111941 0.017449712
0.060608465 0.089131221 0.0055117682
0.060729776 0.089184202 0.004957173
0.06093321 0.089245878 0.0043796496
0.061213803 0.089315675 0.0037806144
0.061354201 0.08937069 0.0032206902
0.061431568 0.089419045 0.0026784081
0.061485566 0.089464873 0.0021425614
0.061459634 0.089502215 0.0016290478
0.061330508 0.089528657 0.0011443465
0.061141219 0.089548789 0.00067641283
0.060793426 0.089552149 0.00025271787
0.060333304 0.089543559 -0.00013969024
0.06004313 0.089552991 -0.00057948404
0.059898548 0.089577779 -0.0010598639
0.059816215 0.089609206 -0.0015576484
0.059812363 0.089648932 -0.0020773255
0.059829924 0.089690991 -0.0026029611
0.059896942 0.089738145 -0.0031424344
0.060014162 0.089790724 -0.0036958645
0.060151245 0.089845382 -0.0042548124
0.060229734 0.089893773 -0.0047974745
0.06035326 0.089946978 -0.0053527225
0.060496412 0.090002216 -0.0059133489
0.060626242 0.090056121 -0.0064704064
0.060841344 0.090119042 -0.0070510637
0.060982756 0.090174109 -0.0076113027
0.061126802 0.090229489 -0.0081722131
0.061266325 0.090284355 -0.0087318923
0.061383784 0.090336964 -0.009285464
0.061507504 0.090390168 -0.0098406663
0.061589859 0.090439059 -0.01038441
0.061617464 0.090482101 -0.010912868
0.06162364 0.090522803 -0.011435278
0.061662287 0.090567082 -0.011966824
0.061643653 0.090605184 -0.012482387
0.061643001 0.090645269 -0.013002994
0.061642464 0.090685345 -0.013523583
0.061582889 0.090718128 -0.014030779
0.061528914 0.090750724 -0.014541911
0.061482809 0.090784259 -0.015054969
0.061407022 0.090814322 -0.01556058
0.061303288 0.090841226 -0.016059222
0.061192427 0.090867288 -0.016556058
0.061059128 0.090890735 -0.017047325
0.06090783 0.090912133 -0.017533967
0.060759306 0.090933792 -0.018021459
0.060605705 0.090954877 -0.018507546
0.060434163 0.090973958 -0.018989196
0.060232364 0.090989448 -0.019463239
0.060033441 0.091005385 -0.019938091
0.059756387 0.091012225 -0.020393305
0.059463214 0.091017216 -0.020844448
0.059121303 0.091016687 -0.021283453
0.058648791 0.091000944 -0.021689696
0.058106158 0.090977214 -0.022078384
0.05751884 0.090948217 -0.022455992
0.056950118 0.090921469 -0.022838075
0.056314927 0.090886965 -0.023203654
0.055777218 0.090863839 -0.023593567
0.055231955 0.090839669 -0.023981595
0.054703798 0.0908176 -0.024373943
0.054177471 0.090795681 -0.024766658
0.053616766 0.09076982 -0.025150845
0.053053766 0.090743713 -0.025534468
0.052461717 0.090714209 -0.025910798
0.051780164 0.090674482 -0.026264679
0.051012702 0.090624727 -0.026597068
0.050260823 0.090576775 -0.026933365
0.049565367 0.090535417 -0.027283845
0.048915148 0.090499222 -0.027645594
0.010725868 0.087617293 -0.037295613
0.010167346 0.087598048 -0.037696816
0.0096110003 0.087578997 -0.038098399
0.0089333775 0.087547049 -0.038472585
0.008214646 0.087510712 -0.038837433
0.0074576349 0.087470293 -0.039193552
0.0067142085 0.087431379 -0.03955286
0.0060615861 0.087402135 -0.039932702
0.0052657616 0.087357625 -0.040280044
0.004578942 0.087324671 -0.040652111
0.0035581503 0.087256245 -0.040948469
0.0030213741 0.087239243 -0.041354515
0.0026539497 0.087240353 -0.041799039
0.002391394 0.087252453 -0.042267378
0.0022088613 0.087273128 -0.042753812
0.0020217446 0.087293297 -0.043239135
0.0018190767 0.087311901 -0.043721039
0.0016461432 0.087333605 -0.044209696
0.0014501007 0.087352797 -0.044693045
0.0012586561 0.087372497 -0.045177493
0.0010767521 0.087393299 -0.045663971
0.00086277787 0.087410606 -0.046143375
0.00034332898 0.087395474 -0.046553399
-0.0004534836 0.087350823 -0.046900477
-0.0010342526 0.087329201 -0.047296561
-0.027335865 0.085506096 -0.05423912
-0.027695062 0.085508481 -0.054697651
-0.028055679 0.08551079 -0.055155806
-0.028471923 0.085507214 -0.055602711
-0.028947679 0.08549735 -0.05603759
-0.029544638 0.085474774 -0.056447927
-0.030084455 0.085458167 -0.056869857
-0.030503837 0.085454248 -0.057316121
-0.031002222 0.085442051 -0.057746377
0.079466656 0.08884038 0.03884371
0.079969965 0.088933587 0.038182553
0.081559502 0.089141034 0.037218232
0.082905114 0.089322865 0.036321942
0.083694637 0.089446135 0.035580914
0.084328741 0.089553162 0.034883287
0.084957033 0.089659423 0.034187164
0.085503384 0.089757115 0.033513952
0.085986942 0.089848243 0.032858346
0.086317539 0.08992327 0.032245282
0.086601339 0.089993343 0.031645302
0.086803332 0.090054847 0.031068245
0.086981803 0.090113796 0.03049775
0.087144285 0.090171069 0.029931676
0.087281168 0.090225719 0.029372679
0.087421335 0.090280712 0.028812859
0.087493993 0.090328537 0.028271826
0.087625563 0.090382621 0.027714374
0.087720163 0.090432808 0.027167214
0.087824926 0.090483993 0.02661724
0.087897524 0.090531819 0.026076304
0.087949887 0.090577558 0.025540883
0.087971181 0.090619996 0.025014224
0.087933645 0.090656281 0.024503989
0.087834321 0.090686075 0.024010954
0.087721527 0.090714417 0.023521682
0.087607957 0.090742618 0.02303266
0.087469786 0.090768322 0.022550453
0.087307088 0.090791345 0.022075145
0.087104216 0.090810217 0.021611014
0.086890094 0.090827942 0.021150023
0.086650819 0.090842947 0.02069607
0.086348049 0.090851277 0.020259829
0.08602035 0.090856999 0.019830538
0.085702799 0.090863816 0.019398432
0.085339017 0.090865694 0.018979186
0.084958769 0.090865962 0.018564606
0.08447963 0.090855755 0.018177561
0.083926871 0.090837762 0.017811077
0.08332888 0.090814993 0.017457172
0.082832292 0.090802915 0.017075052
0.060840268 0.089855582 0.0055071358
0.060932778 0.089905567 0.004960564
0.061204981 0.089974463 0.0043638628
0.061457518 0.09004122 0.003772672
0.061619338 0.090098448 0.0032067911
0.061726298 0.090149954 0.0026562025
0.061749928 0.090192601 0.002128843
0.061725106 0.090230204 0.0016150221
0.061613735 0.09025871 0.001125382
0.061493549 0.0902863 0.00063818204
0.061297521 0.090305798 0.00017216406
0.060950719 0.090309605 -0.00025181216
0.060469817 0.090299182 -0.00063831103
0.060205046 0.09031146 -0.0010851866
0.060082417 0.090338819 -0.0015716788
0.060080871 0.090378843 -0.0020919957
0.060119968 0.090423152 -0.0026236589
0.060208693 0.090472743 -0.0031690944
0.060323738 0.090525039 -0.0037220467
0.060464256 0.090580061 -0.0042819874
0.060585875 0.090633042 -0.0048365844
0.060765471 0.09069217 -0.005407515
0.06092453 0.09074907 -0.005972595
0.061129171 0.090810798 -0.0065504275
0.061322454 0.090871371 -0.0071251355
0.061405245 0.090920299 -0.0076689832
0.061574131 0.090978287 -0.0082368413
0.061704066 0.0910322 -0.0087938784
0.061791126 0.091081604 -0.0093388092
0.061866548 0.091129683 -0.0098806983
0.061899222 0.091173366 -0.01041055
0.061904307 0.09121412 -0.010932703
0.061905093 0.091254368 -0.011453674
0.061944142 0.091298752 -0.011985214
0.061927054 0.091337137 -0.012501198
0.061900236 0.091374539 -0.013014464
0.061876409 0.091412187 -0.013528541
0.061820548 0.091446579 -0.014033645
0.061725408 0.091475904 -0.014530381
0.061639193 0.091504909 -0.015033355
0.061526485 0.091530882 -0.015529718
0.061361279 0.091550849 -0.016012944
0.061222591 0.091573842 -0.016502777
0.061055649 0.091593534 -0.016985623
0.060858663 0.091609843 -0.017460803
0.060640119 0.091623664 -0.017930698
0.060414761 0.09163668 -0.018398808
0.060145155 0.09164466 -0.018855928
0.059891969 0.091654502 -0.019317048
0.059650525 0.09166567 -0.019781183
0.059369393 0.091672316 -0.020235339
0.05903196 0.091672488 -0.020675367
0.058663853 0.09166915 -0.021107774
0.058262434 0.091661967 -0.021531794
0.057811938 0.091649152 -0.021943571
0.057377886 0.091638185 -0.022359446
0.056912582 0.091623679 -0.022767434
0.056376413 0.091601029 -0.023157755
0.05584855 0.091579355 -0.023550093
0.055307768 0.091556191 -0.023939205
0.054757133 0.091531865 -0.024325861
0.054197408 0.091506541 -0.024710272
0.053640503 0.091481522 -0.025095308
0.053020414 0.091449223 -0.025464559
0.052436352 0.09142106 -0.025842847
0.051783368 0.091384955 -0.026203806
0.050991144 0.091332942 -0.026529927
0.050232235 0.09128467 -0.026864443
0.049595919 0.091250524 -0.027229639
0.011516623 0.088395536 -0.036882594
0.010992628 0.088380307 -0.03729156
0.010459844 0.08836399 -0.037698634
0.009921167 0.088347115 -0.038104296
0.0092912652 0.088320658 -0.038489204
0.0085470835 0.088281989 -0.038848255
0.007816284 0.088244826 -0.03921032
0.0069394452 0.08819209 -0.039539371
0.0063024811 0.088164814 -0.039922658
0.0034092076 0.087979108 -0.040850028
0.0028379082 0.087958701 -0.041248243
0.0024786496 0.087960869 -0.041694611
0.002218168 0.087973453 -0.042163439
0.0020307067 0.087993696 -0.042648625
0.0018434084 0.088013984 -0.043134082
0.0016715357 0.088035934 -0.04362287
0.0015180761 0.08805988 -0.044115882
0.0013537414 0.088082664 -0.044606481
0.0011710876 0.088103421 -0.045092832
0.00099443155 0.088124856 -0.045580558
0.00075420243 0.088139534 -0.04605398
0.00020697498 0.088121787 -0.046457667
-0.00046687602 0.088090613 -0.046832714
-0.00099111651 0.088075265 -0.047241651
-0.027643764 0.086228855 -0.054110739
-0.028152954 0.086215824 -0.05453885
-0.028552862 0.086214207 -0.054989036
-0.028986657 0.086208977 -0.055432301
-0.02938862 0.086207166 -0.055882074
-0.029924428 0.086191349 -0.056304827
-0.03035344 0.086186729 -0.056749139
-0.030836361 0.086176366 -0.057182502
-0.031424988 0.086155035 -0.057594519
0.079972744 0.089616515 0.038240124
0.081377745 0.089803927 0.037327252
0.082448334 0.089956239 0.036507603
0.083286762 0.09008427 0.035752866
0.084008634 0.090200067 0.03503067
0.084790543 0.090322182 0.034291718
0.085386269 0.090424843 0.033604708
0.085902639 0.090519175 0.032939803
0.086284533 0.090599395 0.03231252
0.086581141 0.090670779 0.031708952
0.086809509 0.090734959 0.031124501
0.086998925 0.090795048 0.030550878
0.08717972 0.090854213 0.029979723
0.087307759 0.090907924 0.029423246
0.087451726 0.090963304 0.028862309
0.087551489 0.091014035 0.028313769
0.087673791 0.091067076 0.027758928
0.087758578 0.091116287 0.027214464
0.087847441 0.0911659 0.026668953
0.08792723 0.091214478 0.026125999
0.087994792 0.091261856 0.025586372
0.088028014 0.091305658 0.025056401
0.087994583 0.091342449 0.024544982
0.087908931 0.091373719 0.02404817
0.087772503 0.091399811 0.023565544
0.087655962 0.091427855 0.023077302
0.087557167 0.091457777 0.022584165
0.087462366 0.091488197 0.022089902
0.087318659 0.091513418 0.021609291
0.087132007 0.091534182 0.021140644
0.086897701 0.091549926 0.020685291
0.086617649 0.091560952 0.020242767
0.086339623 0.091572084 0.019799631
0.08601854 0.091578841 0.019368505
0.085651964 0.091580763 0.018950133
0.085260034 0.091579966 0.018538775
0.084840596 0.09157645 0.018135138
0.08426211 0.091556199 0.017775875
0.083628006 0.091530085 0.017432109
0.083041668 0.091508955 0.017075079
0.082528196 0.091495574 0.016697681
0.061322857 0.090646185 0.004911771
0.061563943 0.09071178 0.0043237312
0.06180346 0.090777107 0.0037361484
0.061970357 0.090834886 0.0031688332
0.062004019 0.090878636 0.0026387142
0.061984055 0.090916865 0.0021235829
0.061962102 0.09095481 0.0016089536
0.06188551 0.090987109 0.0011095775
0.06177501 0.091015853 0.00061969901
0.061629545 0.091040909 0.00013960595
0.061403602 0.091057554 -0.00031807297
0.061022252 0.091057979 -0.00073235505
0.060602367 0.091054335 -0.001135871
0.060440447 0.091077693 -0.0016114062
0.06038725 0.091112316 -0.0021173006
0.060447525 0.091158941 -0.0026548451
0.060581114 0.091213219 -0.0032129234
0.060735177 0.091269583 -0.0037765752
0.060896106 0.091326796 -0.004342203
0.061024055 0.091380507 -0.0048987055
0.061188634 0.091437988 -0.0054653818
0.061406419 0.09150105 -0.0060469247
0.061685219 0.091570564 -0.0066453852
0.061805438 0.091623403 -0.0071997158
0.061912417 0.091674887 -0.0077503594
0.06205897 0.091730498 -0.008311878
0.062162634 0.091781624 -0.0088616069
0.062238254 0.091829799 -0.009403443
0.062257558 0.091872141 -0.0099295313
0.062253151 0.091911927 -0.010449023
0.062241681 0.091951072 -0.010966561
0.06223473 0.091990642 -0.011485343
0.06223122 0.092030592 -0.012005116
0.062196571 0.092067212 -0.012516225
0.062179565 0.092105687 -0.013032179
0.062149879 0.09214294 -0.013544609
0.06211181 0.092179216 -0.014054725
0.062040072 0.092212051 -0.014555462
0.061927631 0.092240505 -0.015044903
0.061768007 0.092261247 -0.015529493
0.061593045 0.092280254 -0.016010221
0.061433982 0.092301011 -0.01649498
0.061220672 0.092315681 -0.016966108
0.060976371 0.092326716 -0.017429505
0.060705442 0.092334732 -0.017886218
0.06043867 0.092343241 -0.018343944
0.06012883 0.092346869 -0.018790888
0.059836861 0.092352517 -0.019242292
0.059562311 0.092360079 -0.019698074
0.059284244 0.092367359 -0.020152971
0.058972556 0.092370711 -0.020599464
0.058638394 0.092371516 -0.021040285
0.058256153 0.09236683 -0.021469124
0.057842907 0.092358634 -0.021890221
0.057450563 0.09235277 -0.022316458
0.056989629 0.092339069 -0.022725478
0.056499887 0.092322126 -0.023127332
0.055961519 0.092299566 -0.023517044
0.05539434 0.092273802 -0.023899581
0.054837532 0.092249185 -0.024284558
0.054306608 0.092227474 -0.024676099
0.053732086 0.092200845 -0.025056785
0.053123564 0.092170276 -0.025428841
0.052474532 0.092135139 -0.025790816
0.051738933 0.092090033 -0.026131047
0.050987765 0.092043199 -0.026467362
0.050200343 0.091992207 -0.026794599
0.049466059 0.091947362 -0.027135203
0.012314522 0.089173809 -0.036471248
0.01174418 0.089153856 -0.036869805
0.011224052 0.089139283 -0.037279632
0.010702841 0.089124471 -0.037689228
0.010164783 0.08910802 -0.038095005
0.0094659477 0.08907456 -0.038464352
0.0088033769 0.089044966 -0.038841888
0.0080732815 0.089008227 -0.039204054
0.0074076219 0.088978201 -0.03958093
0.0067412718 0.088948265 -0.039957657
0.0027306692 0.088686384 -0.041159265
0.002359851 0.088687547 -0.041602958
0.0020773502 0.088697962 -0.04206669
0.0018786227 0.08871714 -0.042549547
0.0017050987 0.088739105 -0.04303791
0.0015495836 0.088762879 -0.043530509
0.0013850273 0.088785745 -0.044021044
0.0012585658 0.088812567 -0.044520147
0.0011104455 0.088837147 -0.045014389
0.00091560901 0.088856891 -0.045498006
0.0006365857 0.088867664 -0.045962512
0.00018201926 0.088859953 -0.046387184
-0.00048006914 0.088830404 -0.046764906
-0.028712051 0.086912952 -0.054359499
-0.029264446 0.086895622 -0.054778766
-0.029645311 0.086896285 -0.055232789
-0.029974006 0.086902328 -0.055697408
-0.030275894 0.086911283 -0.056167338
-0.030718764 0.086905383 -0.056608841
-0.031228187 0.086892627 -0.057036866
-0.031813044 0.086871937 -0.057449572
0.080092005 0.090311602 0.038265117
0.080915213 0.090437725 0.037514556
0.081874765 0.090577938 0.036725905
0.08274135 0.090708442 0.03596326
0.083675474 0.090846024 0.035181817
0.084599264 0.090982512 0.034403138
0.085247174 0.091090314 0.033701595
0.085774049 0.091185562 0.033033747
0.086198658 0.091270052 0.03239451
0.086522743 0.09134417 0.031783294
0.086780153 0.091411352 0.031190684
0.086999275 0.091474481 0.030608751
0.08719442 0.091535144 0.030033568
0.087323889 0.091589026 0.02947673
0.087472998 0.091644943 0.028914416
0.087606251 0.091699116 0.028356455
0.08773683 0.091753148 0.027799278
0.087811328 0.091801271 0.027257791
0.087902077 0.091851071 0.026711715
0.088001199 0.091901682 0.026163327
0.088075601 0.091949791 0.025621803
0.08810021 0.091992788 0.025094224
0.088072844 0.092030272 0.024581138
0.087974608 0.092060402 0.024087865
0.087831989 0.092085995 0.023606949
0.087711915 0.092113875 0.023119738
0.087622166 0.092144839 0.0226241
0.087553516 0.092178114 0.022122514
0.087461345 0.092208855 0.021627555
0.087320723 0.092234634 0.021146078
0.087112561 0.092253357 0.020683484
0.086863771 0.092267796 0.02023221
0.086592346 0.092279948 0.019787259
0.086284056 0.092288211 0.019352607
0.085932933 0.092291981 0.018929929
0.085555904 0.092293121 0.018514447
0.085175738 0.092294 0.018099872
0.084663481 0.092281066 0.017722158
0.084041364 0.092256717 0.017375166
0.083389148 0.09222921 0.017036512
0.082806468 0.09220887 0.016678417
0.062182974 0.091435313 0.00473163
0.062200416 0.091477461 0.0042060465
0.062338606 0.09153226 0.0036467507
0.062401209 0.091579109 0.0031085319
0.062338956 0.091612987 0.0026051921
0.062272947 0.091646485 0.0021029308
0.062231336 0.091682576 0.0015938289
0.062147111 0.091714203 0.0010966014
0.062046234 0.091744028 0.00060405093
0.061918411 0.091771126 0.00011901534
0.06174279 0.091793217 -0.00035263994
0.061501727 0.091808535 -0.00080607762
0.061141785 0.091811396 -0.0012263099
0.060889784 0.091825582 -0.0016766705
0.060792327 0.091855757 -0.0021701755
0.060930856 0.091910586 -0.0027295838
0.061068956 0.091965273 -0.0032889007
0.061268955 0.09202648 -0.0038654336
0.061437506 0.092084348 -0.0044331793
0.061609376 0.092142694 -0.0050019259
0.061822284 0.092205204 -0.0055820206
0.062033333 0.092267551 -0.0061616553
0.062215272 0.092326783 -0.0067332536
0.062355101 0.092381753 -0.0072929487
0.062500805 0.092437215 -0.007854376
0.062592104 0.092487156 -0.0084006041
0.062675886 0.092536226 -0.0089447154
0.062724218 0.09258166 -0.0094788633
0.062701173 0.092619546 -0.0099932346
0.062663198 0.092656016 -0.010503311
0.062639348 0.092693873 -0.011017366
0.062604271 0.092730574 -0.011528366
0.062565081 0.092766881 -0.012038132
0.062573127 0.092808075 -0.01256107
0.062529653 0.092843957 -0.013069645
0.062480543 0.092879191 -0.013576653
0.062473029 0.092918828 -0.014095252
0.062369157 0.092948392 -0.01458695
0.062238928 0.092975192 -0.015071362
0.062112644 0.093002371 -0.01555684
0.061936904 0.093022101 -0.016035618
0.061744861 0.093039341 -0.01651209
0.06150328 0.093050905 -0.016976116
0.061252713 0.093061469 -0.017437873
0.060934007 0.093064286 -0.017882599
0.060616702 0.093067259 -0.018327596
0.060271598 0.09306708 -0.018765697
0.059926257 0.093066983 -0.019203739
0.059626065 0.093071848 -0.01965308
0.05934887 0.093079381 -0.020108158
0.059064239 0.093086161 -0.020561391
0.058758337 0.093090378 -0.021009289
0.058412232 0.093090147 -0.021447117
0.058028903 0.093085609 -0.021875693
0.057633575 0.093079709 -0.0223011
0.057213079 0.093070954 -0.022720294
0.056698788 0.09305159 -0.023115939
0.05613016 0.093025945 -0.023497993
0.055527456 0.092996538 -0.023871522
0.054996949 0.092975341 -0.024263119
0.054480672 0.092955679 -0.024658242
0.053901881 0.092928872 -0.025037812
0.053287763 0.092898138 -0.025408452
0.052650969 0.092864856 -0.025773371
0.051852576 0.092813164 -0.026097853
0.050991423 0.09275429 -0.026406638
0.01328055 0.089968711 -0.036098104
0.012614474 0.08993908 -0.036474835
0.011967787 0.089911483 -0.036855973
0.011428302 0.089895174 -0.037261467
0.010864144 0.089876182 -0.037661321
0.010287622 0.089855962 -0.038058404
0.009652744 0.089829579 -0.038442139
0.0089607071 0.089797206 -0.038813032
0.0082473373 0.089762598 -0.03917899
0.0076584895 0.089741141 -0.039573293
0.0070948894 0.089722261 -0.039973214
0.0026372566 0.08941558 -0.041073401
0.0022598102 0.089416251 -0.041515648
0.0019537888 0.089424327 -0.041974045
0.0017444461 0.089442641 -0.042454299
0.0015562454 0.089463182 -0.042939432
0.0014087779 0.089487888 -0.043433812
0.0012814689 0.089514792 -0.043932799
0.0011898519 0.089545436 -0.044439819
0.0010587226 0.089571968 -0.044937909
0.00084122893 0.089589417 -0.045416396
0.0005093987 0.089594774 -0.045868926
0.0001035246 0.089592502 -0.04630471
-0.00049236912 0.089570239 -0.046697393
-0.029274514 0.08761026 -0.054179393
-0.0299257 0.08758302 -0.054578744
-0.030252585 0.087589532 -0.055043604
-0.030503495 0.087603889 -0.055523884
-0.030712506 0.087622583 -0.056012701
-0.031136362 0.087618969 -0.05645794
-0.031760704 0.087594658 -0.05686269
-0.03235532 0.087573268 -0.057273377
0.080414124 0.091068022 0.037712738
0.081288025 0.091198899 0.036947966
0.082177363 0.091331407 0.036178943
0.083442666 0.091502748 0.03530493
0.084365904 0.091638707 0.034526374
0.085050695 0.091750003 0.033814482
0.085608989 0.091848277 0.033137914
0.086072065 0.091936626 0.032487817
0.086440623 0.092015207 0.03186417
0.086720884 0.092084683 0.031265233
0.086984582 0.092152379 0.030670887
0.08718536 0.092213608 0.030094134
0.087329186 0.092268899 0.029533261
0.087504037 0.092327476 0.028963707
0.087649837 0.092383049 0.02840231
0.087763324 0.092435248 0.027849905
0.087863006 0.092485987 0.027301339
0.087963998 0.092536889 0.026752396
0.08806733 0.092588007 0.026202785
0.088141926 0.09263622 0.025661334
0.088166781 0.092679232 0.025133615
0.088147566 0.092717707 0.024618275
0.088054739 0.092748508 0.024123495
0.087924384 0.092775494 0.023639193
0.087808587 0.092803992 0.02315083
0.087717414 0.092834964 0.022655563
0.087644786 0.092867851 0.0221551
0.087556705 0.092899188 0.021658996
0.08743716 0.092927292 0.021171657
0.087262981 0.092949755 0.0206996
0.087045744 0.092967726 0.020239552
0.086796612 0.092982352 0.019788409
0.086498916 0.09299203 0.019350804
0.086173616 0.09299887 0.018920919
0.085848764 0.09300562 0.018490976
0.085506707 0.093010738 0.018065734
0.085113533 0.093010485 0.017654797
0.084630281 0.093000971 0.017269053
0.084108606 0.092987373 0.016894029
0.083411105 0.092955664 0.016568104
0.062875755 0.092165604 0.0051188953
0.062830158 0.0922013 0.0046109315
0.062935024 0.09225259 0.0040609213
0.063044526 0.092304394 0.0035096284
0.063040011 0.092344396 0.0029901422
0.062910318 0.092371404 0.0025056552
0.062733702 0.092393652 0.0020342616
0.062559076 0.092415988 0.0015623129
0.062408514 0.092440888 0.0010836495
0.062296487 0.092469767 0.00059422082
0.062168777 0.092496976 0.00010915822
0.062000107 0.092519902 -0.00036444725
0.061791271 0.092538789 -0.00082684332
0.061567843 0.092556149 -0.0012851313
0.061346866 0.092573754 -0.0017441709
0.061317399 0.092611127 -0.0022566414
0.061479758 0.092668399 -0.0028226397
0.061634533 0.092724808 -0.0033866318
0.061782658 0.092780583 -0.0039486866
0.062033009 0.092846937 -0.0045393687
0.062261056 0.092910998 -0.0051237037
0.062444963 0.092970513 -0.0056958254
0.06262508 0.093029544 -0.0062667467
0.06276726 0.093084745 -0.006827198
0.062888689 0.093137734 -0.0073818378
0.062988795 0.093188599 -0.0079304893
0.063041672 0.09323445 -0.0084659774
0.063094333 0.093280323 -0.0090014087
0.063118495 0.093323305 -0.0095288455
0.06313549 0.09336552 -0.010054268
0.063113086 0.093403637 -0.010568773
0.063087486 0.093441501 -0.011082329
0.063043989 0.093477391 -0.011590902
0.063015193 0.093514912 -0.012103607
0.062957659 0.093549326 -0.012608186
0.062873341 0.093581133 -0.013105364
0.062847845 0.093618922 -0.013618994
0.062799379 0.093654357 -0.014126135
0.062685579 0.093683034 -0.014615057
0.062544949 0.093708925 -0.015096501
0.062388018 0.093733132 -0.015573481
0.062232789 0.09375751 -0.016050754
0.062016744 0.093772791 -0.016519491
0.061778665 0.09378501 -0.016984362
0.061508689 0.093793564 -0.017441206
0.061237 0.09380205 -0.017897751
0.060889013 0.093801729 -0.018335013
0.060469706 0.093793534 -0.018754475
0.060109563 0.09379185 -0.019188723
0.059789211 0.0937948 -0.019633012
0.059493043 0.09380044 -0.020083262
0.059241168 0.093811035 -0.020544717
0.058947202 0.093817003 -0.020995542
0.058610082 0.093817972 -0.02143562
0.058259811 0.09381745 -0.021872418
0.057876982 0.093813315 -0.022300934
0.057444967 0.09380354 -0.022717224
0.056947879 0.093786478 -0.023117164
0.05637037 0.093760319 -0.023496976
0.055773865 0.093731977 -0.023871897
0.055203486 0.093706556 -0.024253527
0.054656968 0.093683921 -0.02464108
0.054134864 0.09366399 -0.025034647
0.053505644 0.093631968 -0.025401535
0.052894387 0.093601957 -0.02577286
0.013491791 0.090724103 -0.036081593
0.012914772 0.090704165 -0.036478564
0.01227684 0.09067785 -0.036861692
0.011618854 0.090649359 -0.037240174
0.010943012 0.090619102 -0.037614688
0.010309787 0.090593301 -0.037998892
0.0096552791 0.090565152 -0.038378257
0.0089912573 0.09053611 -0.038755365
0.008358418 0.090510324 -0.039139684
0.007769438 0.090489142 -0.039533887
0.0072286711 0.090472981 -0.039939057
0.0021726971 0.090146311 -0.041431163
0.001873316 0.090155393 -0.041891064
0.0016329593 0.090170547 -0.042364363
0.0014389844 0.090190627 -0.042848155
0.001316116 0.090218112 -0.043348078
0.0012181911 0.09024819 -0.043853682
0.001127254 0.090278983 -0.044360932
0.00098444778 0.09030439 -0.044856284
0.00074943126 0.090320185 -0.045330815
0.00041563128 0.090325549 -0.04578289
4.7873415e-05 0.090327442 -0.046227317
-0.030456176 0.08828453 -0.05440494
-0.030685427 0.088301286 -0.05488966
-0.030934481 0.088316031 -0.055370383
-0.031292651 0.088319525 -0.055828858
-0.031809125 0.08830668 -0.056255411
-0.03242927 0.088283047 -0.056660939
-0.033084285 0.088255852 -0.057059348
-0.033775531 0.088224858 -0.057450496
0.080117017 0.091719933 0.037853986
0.080737472 0.091824308 0.03716002
0.081690505 0.091962911 0.03637315
0.083175056 0.092156202 0.035437778
0.084080644 0.092289895 0.034664128
0.084812388 0.092405669 0.033939052
0.085446291 0.092511401 0.033241354
0.085926786 0.092601411 0.03258644
0.086316548 0.092682004 0.031956866
0.08666084 0.092758 0.031339996
0.086951137 0.092828371 0.030738207
0.087167703 0.092891179 0.030157065
0.087342881 0.092949681 0.029587377
0.087527677 0.093009248 0.029015053
0.087665439 0.093063928 0.028455855
0.087784074 0.093116678 0.027902072
0.087912902 0.093170524 0.02734538
0.088001311 0.093220122 0.026799964
0.088093601 0.093270101 0.026253464
0.088171646 0.093318678 0.025710916
0.088220537 0.093364254 0.025176605
0.088221975 0.093404934 0.0246555
0.088148557 0.093437873 0.024155317
0.088043913 0.093467705 0.023663854
0.087946773 0.0934982 0.023170264
0.087870613 0.093530908 0.022670811
0.087807588 0.09356495 0.022167716
0.087705038 0.093594879 0.02167565
0.087578639 0.093622476 0.021190252
0.087424874 0.093647115 0.020712497
0.087209851 0.0936656 0.020251838
0.08694537 0.093678877 0.019805005
0.086664438 0.093690455 0.019362766
0.086339921 0.093697637 0.018932693
0.086036809 0.093706943 0.018496655
0.085782468 0.093721315 0.018047012
0.085453205 0.093727954 0.017618254
0.085036069 0.093725637 0.017214041
0.084618807 0.093723208 0.016809877
0.084161155 0.093716636 0.016417019
0.083528675 0.093692079 0.016072934
0.063320644 0.092869394 0.0055752452
0.063236982 0.092901342 0.0050779171
0.063329034 0.09295132 0.0045315269
0.063520111 0.09301158 0.003957429
0.063649133 0.093065344 0.003400699
0.063747056 0.093115993 0.0028526185
0.063709192 0.09315256 0.0023425107
0.063491397 0.093170695 0.0018826441
0.063069515 0.093167849 0.0014797577
0.062759556 0.093176425 0.0010456459
0.062567055 0.093197204 0.00057869568
0.06242796 0.093223363 9.6856384e-05
0.062294949 0.093250223 -0.00038672262
0.062145609 0.093275391 -0.00086574187
0.061976708 0.093298592 -0.0013392207
0.061848238 0.093325868 -0.0018241017
0.061899103 0.093371637 -0.0023589463
0.062052112 0.093427859 -0.0029224569
0.062232245 0.093487002 -0.003493462
0.062428057 0.093547598 -0.0040687975
0.062701255 0.09361624 -0.0046658088
0.062864833 0.093673676 -0.0052322131
0.062994868 0.093727581 -0.0057892259
0.063129306 0.093781911 -0.0063475054
0.063218944 0.093831651 -0.0068932297
0.063284941 0.093878962 -0.0074323136
0.063378446 0.093929105 -0.0079792226
0.063428998 0.093974851 -0.008514042
0.063475907 0.094020233 -0.0090478212
0.063542366 0.094067551 -0.0095871016
0.063543133 0.094108202 -0.010108039
0.063533403 0.094147727 -0.010625951
0.063510999 0.094185948 -0.011140444
0.063485734 0.094223827 -0.011654115
0.06343881 0.094259553 -0.012161683
0.063337922 0.094289765 -0.012654246
0.06322699 0.0943188 -0.013143988
0.063146383 0.094351083 -0.013642076
0.063040435 0.094380654 -0.014133245
0.062916256 0.094408438 -0.014619295
0.062751435 0.094432056 -0.015093906
0.062571302 0.09445402 -0.015564336
0.062405281 0.094477482 -0.016038636
0.06219748 0.094495654 -0.016504049
0.061968599 0.094509192 -0.016971214
0.061709251 0.094519138 -0.017430719
0.061427988 0.094526768 -0.017884709
0.061118044 0.094531104 -0.01833161
0.060757119 0.094529688 -0.018765604
0.060376372 0.094526052 -0.0191947
0.060026854 0.094525851 -0.019631596
0.059727538 0.094531484 -0.020081168
0.059437938 0.094538026 -0.020533046
0.059133019 0.09454298 -0.020981146
0.058839601 0.094549164 -0.02143213
0.058492813 0.094549283 -0.021869678
0.058109555 0.094545357 -0.02229817
0.057669424 0.094535083 -0.02271235
0.057187427 0.094520003 -0.023115972
0.056632131 0.094496764 -0.023501271
0.056005303 0.094465442 -0.023868648
0.055374958 0.094433658 -0.024235165
0.054811884 0.09440957 -0.024618506
0.054267112 0.094387397 -0.025006426
0.053658232 0.094358094 -0.02537824
0.053043332 0.09432812 -0.025748584
0.01425514 0.091496356 -0.035662573
0.013727633 0.091481872 -0.036070671
0.013217901 0.091469258 -0.036482848
0.01263677 0.091449134 -0.036878876
0.011820062 0.091404609 -0.037221365
0.011069337 0.091366887 -0.037578914
0.010331074 0.091330484 -0.037939198
0.0096328668 0.091298245 -0.038308587
0.0089928545 0.091272049 -0.038691271
0.0083694113 0.091247573 -0.039077625
0.007791826 0.091227807 -0.039474402
0.0072216219 0.091208942 -0.039872814
0.0066315834 0.091187924 -0.040266745
0.0021228332 0.090880401 -0.041355133
0.0018115805 0.090888359 -0.041812338
0.0015874624 0.090905435 -0.042289365
0.001416561 0.090928011 -0.042778373
0.0012944432 0.090955719 -0.043278404
0.0012019768 0.090986453 -0.043785308
0.0010979583 0.091016077 -0.044289544
0.00092575949 0.091038503 -0.044778258
0.00065958564 0.091051213 -0.045245662
0.00034910132 0.09105932 -0.04570308
1.9986823e-05 0.091065399 -0.04615622
-0.030897683 0.088995732 -0.054249227
-0.031225307 0.089002512 -0.054714032
-0.031505112 0.089014277 -0.055188451
-0.031998012 0.089004107 -0.055619661
-0.032655951 0.088976979 -0.05601744
-0.033262793 0.088955082 -0.056425657
-0.033656996 0.088955104 -0.056876894
-0.034098726 0.088950254 -0.057318427
0.080421135 0.092474274 0.037306651
0.081220545 0.092596628 0.036562674
0.082745507 0.092793278 0.03561594
0.083746582 0.092936315 0.034815621
0.084453933 0.09304931 0.034097273
0.085202098 0.093166381 0.03336763
0.085732162 0.093261182 0.032698866
0.086141914 0.093343742 0.032063682
0.086571217 0.093428276 0.031422999
0.086923555 0.09350495 0.030803902
0.087162197 0.093569919 0.03021655
0.087358244 0.093630642 0.029641079
0.087521285 0.093687959 0.029074833
0.087666549 0.093743399 0.028513506
0.087785751 0.093796179 0.027959548
0.087916896 0.093850248 0.027402194
0.088000201 0.093899369 0.026858294
0.088109836 0.093951203 0.026306883
0.088181034 0.093999058 0.025766315
0.088238753 0.094045565 0.025229491
0.088253319 0.094087683 0.024704756
0.088211156 0.094123922 0.02419582
0.088150665 0.094158404 0.023692016
0.088146232 0.094198585 0.023172569
0.088119194 0.094236389 0.022659438
0.088039704 0.094268829 0.022160912
0.087909341 0.094296113 0.02167665
0.087776221 0.094323158 0.021193113
0.087610632 0.094346836 0.02071871
0.087381691 0.09436395 0.020261977
0.087089933 0.094374694 0.019822778
0.086766943 0.094382338 0.019392332
0.08648856 0.09439446 0.018949367
0.086194478 0.094404981 0.018510848
0.085928224 0.094418384 0.018064549
0.085655801 0.094431087 0.01761994
0.085316353 0.094436936 0.017194102
0.084915005 0.094436571 0.016785473
0.084514402 0.094436154 0.01637673
0.084100574 0.094434395 0.01597164
0.083726689 0.094436772 0.015555374
0.063567087 0.093592875 0.005566312
0.063583314 0.093635075 0.005041061
0.063779563 0.09369579 0.0044655586
0.063951336 0.093753919 0.0038968388
0.064069644 0.093806647 0.0033431358
0.064173289 0.093857884 0.002793499
0.064185105 0.093899652 0.002269495
0.064120859 0.093933754 0.0017667336
0.063919291 0.093953766 0.0013023445
0.063370787 0.093938187 0.00093486882
0.062974624 0.093938291 0.00052483357
0.062781766 0.093959242 5.8023958e-05
0.062676124 0.093989015 -0.0004331267
0.062617727 0.094023593 -0.00093754311
0.062504575 0.094052702 -0.0014265918
0.062467601 0.094089516 -0.0019370068
0.062587909 0.094142452 -0.002491304
0.062746972 0.094199255 -0.0030563923
0.062889911 0.094254516 -0.0036170615
0.063076802 0.094314277 -0.0041899923
0.063260786 0.094373696 -0.0047620032
0.063373491 0.094425865 -0.0053141909
0.063465998 0.094475836 -0.005860744
0.063537851 0.094523832 -0.0064015444
0.063584998 0.094569333 -0.0069354586
0.063652977 0.094616823 -0.00747508
0.06371823 0.094664089 -0.0080140401
0.063759707 0.094709001 -0.0085462807
0.063845463 0.094758354 -0.0090909153
0.063931584 0.094807751 -0.0096357623
0.06392993 0.094848171 -0.010155971
0.063942276 0.094890073 -0.010680074
0.063959591 0.094932519 -0.011205606
0.063908048 0.094967812 -0.011711953
0.063806154 0.094997972 -0.012204145
0.063692786 0.095026985 -0.012693142
0.063604362 0.095058598 -0.013189158
0.063478731 0.095086314 -0.01367474
0.06330698 0.095109381 -0.01414747
0.063123196 0.095131181 -0.014616838
0.062915213 0.095150508 -0.015079396
0.062730096 0.095172122 -0.01554838
0.062547959 0.095194206 -0.016018244
0.062342312 0.095213734 -0.016481461
0.062109116 0.095227517 -0.016945716
0.061858106 0.095238745 -0.017407311
0.061607614 0.095249988 -0.017868981
0.061322629 0.095257357 -0.018322043
0.060969062 0.095257081 -0.018757964
0.06063937 0.095259391 -0.019199826
0.06027602 0.09525796 -0.019633172
0.059955321 0.09526138 -0.020077292
0.059663758 0.095268048 -0.020528706
0.059352577 0.095272414 -0.020975184
0.059019048 0.095274448 -0.021416048
0.058665354 0.095274068 -0.021851899
0.058251295 0.095267005 -0.02227257
0.057824846 0.095258579 -0.022690173
0.05732641 0.095242031 -0.023089658
0.056806952 0.095223151 -0.02348393
0.056208473 0.095195405 -0.023858339
0.055554446 0.095161431 -0.024218827
0.054922543 0.095129982 -0.02458486
0.054314412 0.095101185 -0.024956753
0.053657219 0.095066868 -0.025316495
0.053043615 0.095037431 -0.025687089
0.014993264 0.092265211 -0.035237819
0.014447034 0.09224911 -0.035641722
0.013956741 0.092238754 -0.036058262
0.013518223 0.092233755 -0.036486629
0.01298925 0.09221939 -0.036894348
0.012042939 0.092161819 -0.03720744
0.010374636 0.092069946 -0.037884627
0.0095365085 0.092023507 -0.038222268
0.0089381235 0.092002019 -0.038614232
0.0083705019 0.091983691 -0.039013319
0.0077835093 0.091963306 -0.03940789
0.0071842098 0.09194167 -0.039799787
0.0065738191 0.091918871 -0.040189117
0.0021451644 0.091621943 -0.04129548
0.0017968749 0.091626279 -0.041744251
0.0015558784 0.091641821 -0.04221746
0.0014209233 0.091668278 -0.042714629
0.0013209151 0.091698356 -0.043219704
0.0012032872 0.091726579 -0.043720867
0.001111673 0.091757536 -0.044227857
0.00093806599 0.091779999 -0.044716291
0.00065513392 0.091791101 -0.045179956
0.00030553777 0.091795385 -0.045628421
-6.1480619e-05 0.091797799 -0.046072934
-0.031409539 0.089700013 -0.054079216
-0.031947341 0.089685589 -0.054501381
-0.032284301 0.089691669 -0.054964174
-0.032735657 0.089686118 -0.055403769
-0.033250857 0.089673914 -0.055830467
-0.033684783 0.089670077 -0.056273617
-0.034035373 0.089674801 -0.056733653
-0.03441713 0.089676335 -0.057187404
0.080432013 0.093157902 0.037361901
0.081044644 0.093260914 0.03667004
0.082346976 0.093434058 0.035785452
0.083253011 0.093566895 0.035011623
0.083962031 0.093679674 0.034292832
0.084824353 0.093808077 0.033531208
0.085481159 0.093915537 0.032826941
0.085928664 0.09400174 0.032181222
0.086433664 0.094093814 0.031519439
0.086847514 0.09417659 0.0308831
0.087126896 0.094245739 0.030284336
0.087346114 0.094308674 0.029702401
0.087506056 0.094365627 0.02913703
0.087679803 0.09442395 0.028567793
0.087816447 0.094478585 0.028008949
0.087925181 0.094530366 0.027457824
0.087987527 0.094577387 0.026919788
0.088077709 0.094627254 0.026373904
0.088165469 0.094676815 0.025828645
0.088223748 0.094723441 0.025291696
0.088271551 0.094768979 0.024757616
0.088275522 0.094810061 0.024235815
0.088298142 0.094853066 0.023708802
0.088341393 0.094898164 0.02317608
0.088314675 0.094936162 0.02266285
0.08823552 0.094968848 0.022164267
0.08812017 0.094997749 0.021675782
0.087982722 0.095024474 0.021193534
0.087794289 0.095045947 0.020725485
0.087547235 0.095061585 0.020273848
0.087275125 0.095074587 0.019829175
0.08696527 0.095083758 0.019395063
0.086684108 0.095095836 0.018952925
0.086409792 0.095108628 0.018508907
0.086134814 0.095121309 0.018065032
0.085874408 0.095135488 0.017617097
0.085557699 0.095144019 0.017184941
0.085188679 0.09514714 0.016767325
0.084779695 0.095146209 0.01636092
0.084377199 0.095146008 0.015952703
0.083953001 0.095143542 0.015550537
0.063928992 0.094327651 0.0055250656
0.063957475 0.094371237 0.0049964106
0.06414976 0.09443146 0.004421996
0.064295024 0.0944869 0.0038606867
0.064411029 0.094539434 0.0033076198
0.064523287 0.094591573 0.0027555597
0.064524934 0.094632357 0.0022343954
0.064495355 0.094670139 0.0017219668
0.064398758 0.094700947 0.0012282708
0.064167932 0.094718158 0.00077209598
0.063594364 0.094700553 0.0004116816
0.063248061 0.094705962 -1.2270408e-05
0.063143194 0.09473598 -0.00050361198
0.063071653 0.094769426 -0.0010043366
0.062974408 0.094800197 -0.0014978752
0.063040175 0.09484759 -0.0020369014
0.063161507 0.094900586 -0.0025915673
0.063312598 0.094956718 -0.0031544159
0.063477524 0.095014118 -0.0037212234
0.063632488 0.095070623 -0.0042851623
0.063803904 0.095128737 -0.0048537357
0.063923262 0.09518154 -0.005407867
0.063999608 0.095230043 -0.0059497962
0.064025007 0.095273279 -0.0064776335
0.064019606 0.095313415 -0.006996816
0.064075127 0.09535972 -0.0075330604
0.064131185 0.09540613 -0.0080693699
0.064199716 0.095453754 -0.0086091515
0.064304926 0.095505163 -0.0091593079
0.064348735 0.095550284 -0.0096922033
0.064399198 0.095596135 -0.010227037
0.064434923 0.095640466 -0.010757631
0.064345062 0.095672004 -0.011253179
0.064268462 0.095704906 -0.011752512
0.064209186 0.095739543 -0.012256663
0.064088628 0.09576799 -0.012743632
0.063975148 0.095797189 -0.013232633
0.063841693 0.095824227 -0.013716042
0.063640565 0.095844485 -0.014180567
0.063391067 0.095859781 -0.014631478
0.063129343 0.095873892 -0.015079059
0.062916711 0.095892988 -0.015540283
0.06273216 0.095914848 -0.01600942
0.062519118 0.095933929 -0.016470646
0.062274519 0.09594848 -0.016926434
0.062024266 0.095960036 -0.017388225
0.061796986 0.095974043 -0.017855672
0.061540298 0.095984817 -0.0183159
0.061218567 0.095988296 -0.018759646
0.060861159 0.095987834 -0.019194553
0.060535718 0.095990933 -0.019637378
0.060215447 0.095994689 -0.020081572
0.059879478 0.095996611 -0.020521788
0.059552982 0.095999569 -0.020964475
0.059202887 0.095999941 -0.021401143
0.058795724 0.095993899 -0.021823553
0.058405746 0.095989831 -0.022250181
0.057955086 0.095978998 -0.022661699
0.057460889 0.095963344 -0.02306213
0.056922995 0.095942698 -0.02345174
0.056323644 0.09591534 -0.023825916
0.055688459 0.095883921 -0.024191089
0.054988828 0.095845349 -0.024540043
0.054310028 0.09580902 -0.024894265
0.053618852 0.095771432 -0.025245411
0.052894 0.095729999 -0.025587952
0.015258199 0.093024954 -0.035233594
0.01473723 0.093011759 -0.035643179
0.014211701 0.092998058 -0.036051653
0.013784805 0.092994466 -0.03648264
0.013321201 0.092987165 -0.036905222
0.012745691 0.092968374 -0.037302438
0.0094333747 0.092748269 -0.038134333
0.0089445896 0.092738375 -0.038551185
0.0084299399 0.092725754 -0.038962282
0.0077958251 0.092700906 -0.039346199
0.007114464 0.092671104 -0.039719421
0.0065604527 0.092654549 -0.04012144
0.002150093 0.092361726 -0.041231956
0.0017984386 0.092365935 -0.041680001
0.0015524074 0.09238115 -0.042151991
0.0014381434 0.092409804 -0.042653844
0.0013528287 0.092441522 -0.043162227
0.0012383654 0.092470191 -0.04366412
0.0011276936 0.092499301 -0.044166822
0.00093665969 0.092520118 -0.04465127
0.00063726463 0.092529699 -0.045111123
0.0003056514 0.092535958 -0.045563716
-0.032634012 0.09037292 -0.054295849
-0.033057012 0.090370446 -0.054741185
-0.03342006 0.090374149 -0.055198655
-0.03379783 0.090376228 -0.055653147
-0.034084126 0.090387724 -0.05612627
-0.034437213 0.090392441 -0.056585785
-0.034844529 0.090391621 -0.05703428
0.080904163 0.093928896 0.036767561
0.08186806 0.094067149 0.035977498
0.082644306 0.094186388 0.035239886
0.083439097 0.094307519 0.034497041
0.084331691 0.094438508 0.033726897
0.085201971 0.094567299 0.032963019
0.085711636 0.094659634 0.032299906
0.086254962 0.094755366 0.031627409
0.08667662 0.094838701 0.030988898
0.087025888 0.094914861 0.03037056
0.08730296 0.094983593 0.029772429
0.087486543 0.095042907 0.02920041
0.087671749 0.095102489 0.028627986
0.087810852 0.095157251 0.028068397
0.087917358 0.095208809 0.027517956
0.08796823 0.095254764 0.026983131
0.088050671 0.095303856 0.02643943
0.088137195 0.095353357 0.025894584
0.088201471 0.095400579 0.025355866
0.088273853 0.095448703 0.024815002
0.088337667 0.095495895 0.024276456
0.088366017 0.095539577 0.023747854
0.088410825 0.095584847 0.023214662
0.088408843 0.095625453 0.022694511
0.088354185 0.095660709 0.022189127
0.0882705 0.09569294 0.021691857
0.08813151 0.095719725 0.021210009
0.087947927 0.095741913 0.020740636
0.087724164 0.095760055 0.020282507
0.087468281 0.095774963 0.019833308
0.087218456 0.095790446 0.019382467
0.086981669 0.095807277 0.018927945
0.086730428 0.095822588 0.018477505
0.086443841 0.095834404 0.018036911
0.086167537 0.095847301 0.017593436
0.085859664 0.095856883 0.017158797
0.085505858 0.095861927 0.016736997
0.085101932 0.095861845 0.016329238
0.084614336 0.095853299 0.015944839
0.084128611 0.095844947 0.015559906
0.083753631 0.095847778 0.015143981
0.065056585 0.095098756 0.0057904311
0.064531781 0.095086403 0.0054164343
0.064436622 0.095117591 0.0049223378
0.064602956 0.095175155 0.0043551847
0.064648777 0.095220588 0.0038216745
0.064739063 0.095270462 0.0032757798
0.064788401 0.095316254 0.0027412863
0.064790927 0.095357187 0.0022198928
0.06474445 0.09539333 0.0017122186
0.064677976 0.095427312 0.0012101324
0.064539447 0.095454112 0.00072814873
0.064188838 0.095459394 0.00030546892
0.063782595 0.095459104 -0.00010166434
0.063570321 0.095478423 -0.0005630434
0.06347315 0.09550941 -0.0010565037
0.063494898 0.09555237 -0.0015832849
0.063619323 0.095605709 -0.0021388179
0.063741833 0.095658854 -0.0026936999
0.06389451 0.095715061 -0.0032570886
0.06400013 0.095766485 -0.0038072413
0.064158522 0.095823258 -0.0043721804
0.064316586 0.095880024 -0.0049369968
0.064385034 0.09592776 -0.0054768911
0.064452693 0.095975339 -0.006016477
0.064511746 0.096022099 -0.0065536816
0.064512402 0.096062928 -0.0070745256
0.064545289 0.096107021 -0.0076043895
0.064605646 0.096153848 -0.0081418864
0.064723976 0.096206598 -0.008695649
0.064793527 0.096254379 -0.0092357937
0.064864263 0.096302308 -0.0097762458
0.064893849 0.096346147 -0.010305182
0.064870551 0.096384525 -0.010819364
0.064785652 0.096416704 -0.01131633
0.064691477 0.096447937 -0.011810676
0.064586267 0.096478045 -0.012301927
0.064447507 0.096504815 -0.012783861
0.064307421 0.096531421 -0.01326541
0.06415838 0.096557088 -0.013744371
0.063958339 0.096577689 -0.014209116
0.063734263 0.096595742 -0.01466723
0.063459255 0.096608713 -0.015111007
0.063207671 0.096624009 -0.015561385
0.062950246 0.096638829 -0.016010132
0.062720291 0.096656278 -0.016466521
0.062506795 0.096675523 -0.016927535
0.062292669 0.096692428 -0.017394822
0.062042162 0.096704081 -0.017856454
0.06174434 0.09671054 -0.018306209
0.061420985 0.096714146 -0.018749608
0.061098728 0.096717805 -0.019193262
0.060761247 0.096719861 -0.019633118
0.060423765 0.096721902 -0.020072969
0.060079679 0.096723162 -0.020511093
0.059699237 0.096720435 -0.020940131
0.059319906 0.096717872 -0.021369504
0.058891132 0.096709721 -0.021786403
0.058497857 0.096705608 -0.022212179
0.058039505 0.096694216 -0.022621693
0.057541043 0.096678481 -0.0230211
0.056973554 0.096654966 -0.023403188
0.056377571 0.096628353 -0.023778128
0.0557428 0.096597441 -0.024143355
0.055090714 0.096564561 -0.024504194
0.054248754 0.096510634 -0.024817446
0.053354166 0.096450903 -0.025117377
0.052611146 0.096408054 -0.025455467
0.016105734 0.093803689 -0.034833726
0.015570566 0.093789257 -0.03524005
0.015020617 0.093773395 -0.035643082
0.014502089 0.093760714 -0.036053162
0.014031318 0.093752891 -0.036474124
0.013549752 0.093744017 -0.036892641
0.01308224 0.093736552 -0.037314434
0.0094053289 0.093480811 -0.038063392
0.0090551134 0.09348537 -0.038511779
0.0084863212 0.093467586 -0.038910467
0.0078119286 0.093438886 -0.039285306
0.0071017579 0.093406521 -0.039651923
0.0064644418 0.093381628 -0.040035065
0.0022310147 0.093109235 -0.041185625
0.0018106361 0.093106642 -0.041618034
0.0015385745 0.093119301 -0.042084083
0.0014423819 0.09314996 -0.042590037
0.001386727 0.093184784 -0.043105278
0.0012664578 0.093212977 -0.043605745
0.0010970987 0.093236238 -0.04409514
0.00086718955 0.093253151 -0.0445708
0.00056399655 0.093262568 -0.04502983
-0.033663448 0.091026135 -0.054020755
-0.033832777 0.091049664 -0.054517448
-0.034022357 0.091071174 -0.055010069
-0.034264605 0.091087282 -0.055492103
-0.034580689 0.091095924 -0.055959094
-0.034913551 0.091102891 -0.056422669
-0.035269346 0.091107592 -0.056881592
