# .PCD v0.7 - Point Cloud Data file format
VERSION 0.7
FIELDS x y z
SIZE 4 4 4
TYPE F F F
COUNT 1 1 1
WIDTH 1304
HEIGHT 1
VIEWPOINT 0 0 0 1 0 0 0
POINTS 1304
DATA ascii
0.02679752 0.16938162 -0.013425356
0.026249874 0.16940689 -0.013429059
0.02573205 0.16941254 -0.01350561
0.025218291 0.16941638 -0.013592131
0.024709098 0.16941598 -0.013689835
0.024178537 0.16943042 -0.013735313
0.023624916 0.16945989 -0.013724238
0.023022272 0.16952024 -0.01359334
0.022370473 0.16961263 -0.013342369
0.021698952 0.1697177 -0.013042936
0.020993289 0.16984548 -0.012659954
0.020216012 0.17001878 -0.012101827
0.019593921 0.17009161 -0.011923214
0.019047944 0.17011575 -0.011930987
0.018502958 0.17013921 -0.011941219
0.017949697 0.17016838 -0.011931051
0.017384306 0.17020492 -0.011891378
0.016775826 0.17026934 -0.011746269
0.016111258 0.17037064 -0.011463804
0.014395617 0.17082183 -0.0099535258
0.01378274 0.17088927 -0.0097976448
0.013290958 0.17087783 -0.0099379346
0.012824027 0.17085123 -0.010139001
0.012352724 0.17082666 -0.010329267
0.011858495 0.17081794 -0.010463723
0.0069201821 0.17170806 -0.0077866111
0.0064691287 0.17167045 -0.0080265002
-0.011574872 0.1765296 0.0078759659
-0.01176188 0.17632721 0.0070217755
-0.011974189 0.17614014 0.0062249936
-0.012307491 0.17602773 0.0057037994
-0.012725681 0.17596832 0.0053755296
-0.013200944 0.175943 0.0051773591
-0.013704749 0.17593622 0.0050442144
-0.014229046 0.17594273 0.0049573835
-0.014757374 0.17595084 0.0048798416
-0.015301445 0.17596819 0.0048382934
-0.015848704 0.17598863 0.0048037898
-0.016398065 0.1760094 0.0047743828
-0.016926149 0.17601834 0.0046961987
-0.017419824 0.17600499 0.0045398986
-0.017875753 0.17596816 0.0042977645
-0.018264396 0.17589058 0.0039023422
-0.018534249 0.1757389 0.0032366042
-0.018695392 0.17552072 0.0023235546
-0.018913677 0.17533655 0.0015405349
-0.015590413 0.17296475 -0.0073015438
-0.016080068 0.17294879 -0.0074670538
-0.016548792 0.17292023 -0.007680078
-0.017016951 0.17289132 -0.0078944564
-0.017522048 0.17288536 -0.0080247894
-0.018050909 0.17289387 -0.0081010079
-0.018605409 0.17291892 -0.0081191277
-0.019175839 0.1729534 -0.0081008598
-0.019766791 0.17300016 -0.0080357734
-0.020354114 0.17304458 -0.0079789469
-0.020931305 0.17308344 -0.0079453317
-0.021466466 0.17309597 -0.0080073364
-0.021956073 0.17307994 -0.008172866
-0.022416567 0.17304604 -0.0084047122
-0.022858763 0.17300126 -0.0086781532
-0.023310469 0.1729627 -0.0089299772
-0.023758447 0.17292063 -0.0091903107
-0.024188487 0.17286895 -0.0094915153
-0.024599692 0.17280407 -0.009835491
-0.024993444 0.17272982 -0.010219315
-0.025401356 0.17266381 -0.010570704
-0.025764907 0.17256998 -0.011023161
-0.026106464 0.17246285 -0.011525782
-0.026471527 0.17237003 -0.011974601
-0.024679439 0.17094405 -0.01733245
-0.025073109 0.17086977 -0.017716456
-0.02547654 0.17080081 -0.018078212
-0.025926923 0.17076038 -0.018332789
-0.026398959 0.170734 -0.018538464
-0.026870606 0.17070727 -0.018744927
-0.027338488 0.1706782 -0.018959919
-0.027813142 0.17065346 -0.019159662
-0.028293507 0.17063245 -0.019346302
-0.028773034 0.17060988 -0.019534813
-0.029206244 0.1705593 -0.019828696
-0.029710265 0.17055261 -0.019961553
-0.030254511 0.17057106 -0.020002918
-0.030758159 0.17056414 -0.020136578
-0.031278193 0.17056695 -0.020232737
-0.031826422 0.17058796 -0.020265175
-0.032441065 0.17064908 -0.020146141
-0.033069119 0.17071892 -0.019996781
-0.033707552 0.17079553 -0.019823682
-0.03438396 0.17089581 -0.019564191
-0.035122544 0.17103338 -0.01916313
0.051204585 0.16870365 -0.014280166
0.050682731 0.16872524 -0.014319861
0.050242916 0.16868611 -0.014574958
0.049801379 0.1686482 -0.014825556
0.049346298 0.16862032 -0.015040686
0.048898786 0.16858788 -0.015275626
0.048438989 0.16856356 -0.015478248
0.047956511 0.16855596 -0.015621435
0.047484115 0.16854095 -0.015791019
0.046991445 0.16853991 -0.01590725
0.046457976 0.16856807 -0.015920399
0.04588294 0.16861135 -0.015856991
0.045288011 0.16866738 -0.015745036
0.044675671 0.16873448 -0.01559034
0.044063799 0.16880125 -0.015436903
0.04345604 0.16886614 -0.015293516
0.042854503 0.16892578 -0.015165238
0.042273834 0.16897294 -0.015088152
0.041736662 0.16899197 -0.015117481
0.041230656 0.16899039 -0.015223032
0.040737234 0.16898018 -0.015359236
0.040247753 0.16896813 -0.015505238
0.039748915 0.16896161 -0.015628241
0.039248928 0.16895689 -0.015748564
0.038725574 0.16896638 -0.015811607
0.038171381 0.1689962 -0.015799239
0.037615012 0.16902649 -0.015781432
0.037029929 0.16907676 -0.015693599
0.036439605 0.1691296 -0.015592774
0.035821598 0.16920054 -0.015424417
0.035162408 0.16929814 -0.015155191
0.034534194 0.1693763 -0.014961701
0.033958152 0.16941923 -0.014895828
0.033437099 0.16942808 -0.014964614
0.032927305 0.16942911 -0.01506092
0.032391429 0.16944627 -0.01509322
0.031845242 0.16947053 -0.015100464
0.031279683 0.16950822 -0.015060386
0.030662714 0.16957854 -0.01489445
0.030019158 0.16966628 -0.014663434
0.029340832 0.16977604 -0.014347479
0.028670991 0.16987996 -0.014052091
0.028006967 0.16998084 -0.013771093
0.02730171 0.17010826 -0.013389278
0.026720339 0.17015591 -0.013310449
0.026182398 0.17017554 -0.013337832
0.025688494 0.17016555 -0.013472931
0.025195394 0.17015609 -0.013609981
0.024685638 0.17015615 -0.013706224
0.024166565 0.17016363 -0.013779899
0.023589268 0.17020847 -0.013711032
0.022966366 0.17028189 -0.013530362
0.022275399 0.17040041 -0.013183668
0.021562025 0.17053349 -0.012781775
0.020766746 0.17071925 -0.012179831
0.020106401 0.17081761 -0.011907749
0.019561935 0.17084076 -0.011919023
0.019034743 0.17085285 -0.011972712
0.018498324 0.17087136 -0.012003871
0.017958362 0.1708913 -0.012026383
0.0173856 0.17093298 -0.011968574
0.016798684 0.17098443 -0.011876399
0.014221976 0.17166504 -0.0096030133
0.013728194 0.17165507 -0.0097382795
0.01326977 0.17162351 -0.0099603655
0.012816037 0.17158775 -0.010193786
0.012349652 0.17156073 -0.010396319
0.011860085 0.17154783 -0.010541829
-0.011075877 0.17728873 0.007936364
-0.01145049 0.17720106 0.0075091487
-0.011619115 0.17698677 0.0066133635
-0.011909379 0.17684832 0.0059938915
-0.012272151 0.17675401 0.0055397935
-0.01270636 0.17670406 0.005248243
-0.013180861 0.17667924 0.0050482471
-0.013681509 0.17667137 0.0049076527
-0.014207438 0.17667794 0.0048244866
-0.01473044 0.17668365 0.004734979
-0.015259819 0.17669243 0.004659812
-0.015795104 0.17670505 0.0045981668
-0.016336292 0.17672154 0.0045498945
-0.01687122 0.17673391 0.0044873189
-0.017373711 0.17672633 0.0043511922
-0.017849347 0.17670217 0.0041537769
-0.018270375 0.1766447 0.0038321088
-0.018605053 0.1765331 0.0033138031
-0.018786164 0.17632687 0.0024462319
-0.018918702 0.17609014 0.0014682501
-0.019211158 0.17595212 0.00085405027
-0.016168866 0.17374867 -0.0073480066
-0.01663178 0.17371736 -0.0075744204
-0.01709158 0.17368299 -0.0078079645
-0.017587246 0.17367092 -0.0079596061
-0.018112428 0.17367795 -0.0080444496
-0.018667353 0.17370239 -0.0080612656
-0.019245785 0.17374198 -0.0080250008
-0.01983236 0.17378691 -0.0079699848
-0.020413881 0.17382859 -0.0079264054
-0.020977875 0.17385888 -0.0079227164
-0.021504743 0.17386708 -0.0080035366
-0.021999164 0.17385414 -0.0081583355
-0.022467533 0.17382537 -0.0083721634
-0.022903616 0.17377663 -0.00865955
-0.023333834 0.17372404 -0.0089602731
-0.023764404 0.17367274 -0.0092602884
-0.02418354 0.17361297 -0.0095863314
-0.024582325 0.17354202 -0.0099586211
-0.024995381 0.17347832 -0.010298431
-0.025398975 0.17340949 -0.010659651
-0.025783045 0.17332898 -0.01106536
-0.026137205 0.17323008 -0.011539295
-0.02372939 0.1714194 -0.018297756
-0.024262311 0.17143053 -0.018364616
-0.02466687 0.17136233 -0.018723799
-0.0251028 0.17131346 -0.019011686
-0.025586007 0.1712943 -0.019191852
-0.026017467 0.17124258 -0.019489689
-0.026425807 0.17117676 -0.019840352
-0.02690105 0.17115243 -0.020038614
-0.027383907 0.17113304 -0.020219693
-0.027860792 0.17110983 -0.020414079
-0.028334139 0.17108428 -0.020616667
-0.028819999 0.17106678 -0.020791015
-0.029316543 0.17105527 -0.02094081
-0.029817769 0.17104685 -0.021079855
-0.030388957 0.17108175 -0.021059958
-0.030957645 0.17111509 -0.021045636
-0.031546421 0.17116147 -0.020985542
-0.032230683 0.17126678 -0.020708315
-0.032903604 0.17136474 -0.020456962
-0.033571132 0.17145923 -0.020217584
-0.034271359 0.17157391 -0.019904062
-0.035032861 0.17172742 -0.019450972
0.051147014 0.16947301 -0.014195623
0.050658293 0.16947003 -0.014322421
0.050215095 0.16943339 -0.01456869
0.049787708 0.169386 -0.014856545
0.049344435 0.16934942 -0.015102616
0.048901863 0.16931336 -0.01535056
0.048438832 0.16929138 -0.015544772
0.04793632 0.16929866 -0.015635151
0.047429085 0.16930942 -0.015713319
0.046910554 0.16932856 -0.015761709
0.046340302 0.16936924 -0.015707139
0.04573036 0.16943567 -0.015558522
0.045081384 0.16952716 -0.015314322
0.044445306 0.16961072 -0.015101779
0.043853171 0.16966484 -0.014996475
0.043273523 0.16971131 -0.01492192
0.042731754 0.16973348 -0.014939956
0.042216539 0.16973732 -0.015022926
0.041727051 0.16972534 -0.015168795
0.041234545 0.16971543 -0.015307408
0.040745877 0.16970286 -0.015455326
0.040251501 0.16969429 -0.015589349
0.039744571 0.1696934 -0.015692528
0.039218888 0.16970445 -0.015749875
0.038673069 0.16972949 -0.015758084
0.038085703 0.16978027 -0.015664617
0.037479799 0.16984393 -0.015525695
0.036863223 0.16991496 -0.01536081
0.036226347 0.16999803 -0.015146159
0.035517 0.17012833 -0.014754416
0.034889393 0.170206 -0.014562441
0.034340672 0.17023301 -0.014563536
0.033834931 0.1702313 -0.014669662
0.033345491 0.17021929 -0.014815649
0.032856591 0.17020687 -0.014963109
0.03233419 0.17021567 -0.015028477
0.031775124 0.17024888 -0.01500424
0.031181516 0.17030402 -0.014895389
0.030531509 0.17039621 -0.014648641
0.029864933 0.17049992 -0.014361499
0.02916489 0.1706237 -0.013992351
0.028507339 0.17072113 -0.013727251
0.027835334 0.17082754 -0.013426734
0.027212108 0.17090216 -0.013245577
0.026673388 0.17092231 -0.013271004
0.026168671 0.17091984 -0.0133797
0.025688212 0.17090161 -0.013547625
0.025205579 0.17088492 -0.013710283
0.024693554 0.1708875 -0.013801087
0.024149466 0.1709113 -0.013813578
0.023557557 0.17096528 -0.013708897
0.022884231 0.17107259 -0.013405293
0.022178452 0.17120139 -0.013022166
0.021325119 0.17142542 -0.012278108
0.020620449 0.17155246 -0.011897705
0.020072706 0.17157887 -0.011900956
0.01955523 0.17158423 -0.011978595
0.019042619 0.17158727 -0.012067843
0.018514682 0.17160092 -0.012119731
0.017969944 0.17162423 -0.012130398
0.017408833 0.1716588 -0.012101358
0.014164804 0.17244558 -0.0095393145
0.013696182 0.17241915 -0.0097360406
0.013261739 0.17237207 -0.010016621
0.012809632 0.17233513 -0.010254143
0.012336412 0.17231292 -0.010439744
-0.0092483219 0.17723334 0.0049718833
-0.0098872632 0.17731026 0.0051461607
-0.010500517 0.1773715 0.0052618324
-0.011261091 0.17752531 0.0057124496
-0.011682443 0.17746703 0.005391621
-0.012101712 0.17740841 0.0050659929
-0.012587979 0.17739116 0.0048924843
-0.013098123 0.17738849 0.0047736992
-0.013620818 0.17739299 0.0046833674
-0.0141607 0.17740956 0.0046319603
-0.014694417 0.17742124 0.0045668827
-0.015221877 0.17742974 0.0044871843
-0.015745459 0.1774348 0.0043989667
-0.016277952 0.17744662 0.0043308097
-0.016812624 0.17745887 0.0042677685
-0.017326271 0.17745845 0.0041567478
-0.017812196 0.17744102 0.0039825845
-0.018264731 0.17740302 0.0037326985
-0.018638041 0.17731546 0.0033023334
-0.018869285 0.17713977 0.0025489226
-0.018953582 0.17687266 0.0014610593
-0.01918342 0.17669606 0.00070448476
-0.01613827 0.17448683 -0.0075032553
-0.016620722 0.17446718 -0.0076853037
-0.017100094 0.17444555 -0.0078741312
-0.017609181 0.17444217 -0.0079954257
-0.018155511 0.17446198 -0.008032063
-0.018733962 0.17450164 -0.0079955235
-0.01930571 0.17453693 -0.0079741683
-0.019904295 0.17458963 -0.0078920731
-0.020480337 0.17462772 -0.0078610368
-0.021022806 0.17464504 -0.0079062358
-0.021540565 0.17464733 -0.0080078505
-0.022035124 0.1746355 -0.008162369
-0.022503832 0.17460695 -0.0083756838
-0.022939378 0.17455781 -0.0086642308
-0.023349656 0.17449331 -0.0090104416
-0.023760652 0.17442933 -0.0093547851
-0.024174014 0.17436682 -0.0096939206
-0.024575742 0.17429674 -0.010059556
-0.024991749 0.17423595 -0.010392639
-0.025395146 0.17416696 -0.01075452
-0.025797339 0.17409725 -0.011118909
-0.026181379 0.17401665 -0.011525014
-0.023335749 0.17193098 -0.019278638
-0.023820421 0.17191277 -0.019455459
-0.024240812 0.17185381 -0.019778585
-0.024673553 0.17180391 -0.020073671
-0.025118863 0.17176114 -0.020340165
-0.025527494 0.17169456 -0.020690016
-0.025993595 0.1716653 -0.020909181
-0.026488015 0.17165238 -0.021063861
-0.026977671 0.1716374 -0.021229435
-0.027447077 0.17160928 -0.021441022
-0.027950158 0.17160305 -0.021575972
-0.028460016 0.17160018 -0.021695632
-0.028966775 0.17159529 -0.021822225
-0.029512236 0.17161456 -0.021860702
-0.030103663 0.17166263 -0.021794673
-0.030723939 0.17172843 -0.021663057
-0.031366311 0.17180757 -0.02148121
-0.032123744 0.17195836 -0.021037493
-0.032882608 0.17211011 -0.020590601
-0.033564821 0.17221509 -0.020318119
-0.034292184 0.1723474 -0.019942893
-0.035061479 0.1725049 -0.019472146
-0.040027492 0.17367241 -0.015851172
-0.040775552 0.17381816 -0.015428796
0.050648056 0.17020534 -0.014362309
0.050205715 0.17016806 -0.014610864
0.049767293 0.17012887 -0.014869735
0.049315408 0.17009868 -0.01509315
0.048852921 0.17007731 -0.015288839
0.048388816 0.17005613 -0.015480259
0.047876947 0.17007035 -0.015546124
0.047339603 0.17010339 -0.015545202
0.046790458 0.17013316 -0.015539899
0.046193607 0.17019054 -0.015423138
0.04553809 0.17028655 -0.015163006
0.044817053 0.17042597 -0.014742609
0.044191904 0.17050189 -0.014556762
0.043673918 0.17050868 -0.01463292
0.043195717 0.17048886 -0.014806466
0.042709962 0.17047532 -0.014961526
0.042227514 0.17045844 -0.015124712
0.041761544 0.17043117 -0.01532812
0.041271105 0.17041983 -0.015471654
0.040764943 0.17041837 -0.015576795
0.040251285 0.17042319 -0.015663683
0.039715379 0.17044131 -0.015696188
0.039156936 0.17047408 -0.015673472
0.038543575 0.17054288 -0.015516389
0.037905343 0.17062695 -0.015298355
0.037285991 0.17069994 -0.015126674
0.03669782 0.17075229 -0.015031302
0.035940334 0.17091489 -0.014521737
0.035249516 0.17103334 -0.014175184
0.034727916 0.17104264 -0.014242653
0.034260117 0.1710166 -0.014441604
0.033800907 0.17098464 -0.014661575
0.033326324 0.17096332 -0.014843974
0.032831483 0.17095509 -0.014976749
0.032297879 0.17097162 -0.015014833
0.031726301 0.17101349 -0.014960021
0.031088913 0.17109798 -0.01474419
0.03042898 0.17119704 -0.01447331
0.029740043 0.17131418 -0.014131295
0.029065156 0.17142363 -0.013823837
0.028343532 0.1715624 -0.013401985
0.027706254 0.17164676 -0.013186477
0.027169803 0.17166531 -0.013217518
0.026676187 0.17165621 -0.013353363
0.026200019 0.17163497 -0.013531735
0.025719006 0.17161812 -0.013698513
0.025223382 0.17161037 -0.013829499
0.024697043 0.17162193 -0.0138852
0.024121383 0.17166664 -0.013820451
0.02350701 0.17173517 -0.013660762
0.022788152 0.17187303 -0.013245765
0.021523122 0.17236519 -0.011494823
0.021074345 0.17232706 -0.01174018
0.020567421 0.1723261 -0.011843653
0.020069055 0.17232022 -0.011967914
0.019569486 0.17231531 -0.012088951
0.019060932 0.17231552 -0.012188319
0.018529627 0.17233047 -0.012231961
0.017983509 0.17235576 -0.01223932
0.014131737 0.17320938 -0.0095343906
0.013678841 0.17317413 -0.0097696949
0.013250773 0.17312258 -0.010065944
0.012804989 0.17308234 -0.010318777
-0.0071949679 0.17767298 0.0040533105
-0.0077472329 0.17769767 0.004030271
-0.0083547924 0.17775518 0.0041328501
-0.0089449752 0.17780246 0.0041961102
-0.0095415991 0.17785388 0.004273681
-0.010101954 0.17788278 0.004268914
-0.01066033 0.1779104 0.0042597568
-0.011270979 0.17797095 0.0043694596
-0.011847898 0.17800964 0.0044024684
-0.012402363 0.17803468 0.0043841861
-0.012955569 0.17806 0.0043633026
-0.013514081 0.17808768 0.004354259
-0.014081812 0.17812033 0.0043662987
-0.014621524 0.17813683 0.0043144817
-0.015150221 0.17814617 0.0042376788
-0.01567487 0.17815194 0.0041519771
-0.01620744 0.1781638 0.0040838686
-0.016746908 0.17818017 0.004031742
-0.017270589 0.17818628 0.0039435308
-0.017757902 0.17816876 0.0037725808
-0.018228285 0.17814225 0.003563107
-0.018633815 0.17807466 0.0032062358
-0.018931216 0.17793992 0.002603373
-0.019072339 0.1777077 0.0016448114
-0.015508002 0.17517063 -0.0077429144
-0.016016398 0.17516778 -0.007865971
-0.016515693 0.17515804 -0.0080096312
-0.017024346 0.17515439 -0.0081318971
-0.017566461 0.17517245 -0.0081782248
-0.01813795 0.1752086 -0.0081576454
-0.018731426 0.17525801 -0.0080870511
-0.019320512 0.17530456 -0.0080263289
-0.019924816 0.17536095 -0.0079312678
-0.020510374 0.17540523 -0.0078785997
-0.021059802 0.17542705 -0.0079081617
-0.021562355 0.17541942 -0.0080443751
-0.022052025 0.17540449 -0.0082098003
-0.022509327 0.17536944 -0.0084492359
-0.022927457 0.17531008 -0.0087774359
-0.023338167 0.17524582 -0.009122638
-0.023748806 0.17518157 -0.009467911
-0.024166821 0.17512211 -0.0097965756
-0.024574811 0.17505611 -0.010147915
-0.024991052 0.17499447 -0.010480334
-0.025399486 0.1749288 -0.010830688
-0.02581417 0.17486717 -0.011166723
-0.022491002 0.17248058 -0.020005982
-0.02299512 0.17247392 -0.020138754
-0.023399265 0.17240547 -0.020498784
-0.023816662 0.17234559 -0.020828838
-0.024247808 0.17229465 -0.021127488
-0.024693811 0.17225231 -0.021392405
-0.025153751 0.17221807 -0.021625463
-0.025648778 0.17220657 -0.021778846
-0.026140591 0.17219295 -0.02193963
-0.026613342 0.17216705 -0.022143586
-0.027072055 0.17213291 -0.022379722
-0.027575077 0.17212559 -0.022514779
-0.028083475 0.17212288 -0.022637604
-0.028663551 0.1721635 -0.022597583
-0.029283406 0.17222899 -0.022466943
-0.029910861 0.17229949 -0.022319015
-0.030559154 0.17238349 -0.022123711
-0.032286398 0.17281897 -0.02075341
-0.032982849 0.17293216 -0.020448577
-0.033627845 0.17301302 -0.020260679
-0.034303829 0.17311394 -0.020002509
-0.035051338 0.17325932 -0.01958145
-0.040854581 0.17463133 -0.0153361
-0.041590393 0.17476913 -0.014941614
-0.04238417 0.17494351 -0.014415566
0.04532218 0.17115378 -0.014709672
0.044600621 0.17129357 -0.014288075
0.044055641 0.17131799 -0.014298303
0.043601044 0.17128386 -0.014529591
0.043166205 0.17123602 -0.014809111
0.042713776 0.17120038 -0.015045684
0.042251617 0.1711705 -0.015258444
0.041778892 0.17114788 -0.015445424
0.041271821 0.17114806 -0.015548496
0.040733509 0.17116791 -0.015574953
0.040180497 0.17119791 -0.015565578
0.039599359 0.17124541 -0.015487237
0.039016679 0.17129399 -0.015405281
0.038399741 0.17136624 -0.015239617
0.037809119 0.17142032 -0.015138118
0.037204005 0.17148343 -0.015001269
0.036260463 0.17176795 -0.014036736
0.035608381 0.17186259 -0.013785075
0.035135187 0.17184035 -0.013970811
0.034666467 0.17181493 -0.01416765
0.034225479 0.17177136 -0.014432147
0.033785898 0.17172682 -0.014700098
0.033310242 0.17170624 -0.014879839
0.032798626 0.17170858 -0.014971675
0.032256395 0.17173114 -0.014988609
0.031648397 0.17179725 -0.014844792
0.030998718 0.17189026 -0.014598876
0.030314663 0.17200504 -0.014268918
0.029620435 0.17212684 -0.013914198
0.028860791 0.17229097 -0.013399359
0.0281539 0.17242062 -0.013013477
0.027638791 0.17242633 -0.013096943
0.027157104 0.172409 -0.013261816
0.026702538 0.1723748 -0.013493201
0.026236244 0.17234772 -0.013695935
0.025748119 0.17233481 -0.013845032
0.025229968 0.17234169 -0.013920937
0.024672229 0.17237501 -0.013899969
0.024102176 0.17241579 -0.013848934
0.021510271 0.173113 -0.011539062
0.021034034 0.17309286 -0.011717392
0.020557968 0.17307258 -0.011896266
0.020073488 0.17305711 -0.012054302
0.019591231 0.17304114 -0.012218036
0.019085888 0.17303914 -0.012325076
0.018552028 0.17305689 -0.012362549
-0.0046876706 0.17814887 0.0033821645
-0.0052409805 0.17817321 0.00336143
-0.0057869218 0.17819372 0.0033236574
-0.0063528921 0.17822626 0.0033316582
-0.0069288835 0.17826432 0.0033625253
-0.0075155441 0.17831028 0.0034175396
-0.0081234593 0.17836908 0.0035209558
-0.0087123699 0.17841552 0.0035811502
-0.0093006101 0.17846245 0.0036396042
-0.00989623 0.17851324 0.0037150958
-0.01047398 0.17855349 0.0037499783
-0.01104404 0.17858866 0.0037672454
-0.011618778 0.17862687 0.0037950119
-0.012217026 0.17867935 0.0038764295
-0.012816383 0.17873259 0.0039603985
-0.013390418 0.17877038 0.0039868327
-0.01397305 0.1788137 0.0040325038
-0.014536416 0.17884459 0.0040345923
-0.015073374 0.17885828 0.0039767101
-0.015598563 0.17886537 0.0038919933
-0.016131934 0.17887776 0.0038258166
-0.016672356 0.17889474 0.0037757116
-0.017199289 0.17890298 0.0036948142
-0.017697038 0.17889325 0.0035476945
-0.018178124 0.17887267 0.0033625243
-0.018615836 0.17882493 0.0030787541
-0.01898749 0.17873639 0.0026447591
-0.019337952 0.17863506 0.0021625238
-0.015445042 0.17588775 -0.0079717208
-0.015914718 0.17586085 -0.0081826597
-0.016403012 0.17584498 -0.0083513558
-0.016929334 0.17585275 -0.0084337611
-0.017492179 0.17588325 -0.0084328419
-0.018066004 0.17592096 -0.0084068375
-0.018652823 0.17596598 -0.0083514974
-0.019243691 0.17601468 -0.0082870126
-0.019867267 0.17608261 -0.0081479121
-0.020467253 0.17613626 -0.0080624148
-0.021037763 0.17617172 -0.0080441609
-0.021551648 0.17617247 -0.0081547946
-0.02204564 0.17616032 -0.0083104055
-0.022505237 0.17612581 -0.0085443798
-0.02291753 0.1760626 -0.0088860383
-0.023340927 0.17600662 -0.009202349
-0.023749454 0.17594099 -0.0095523717
-0.024172651 0.17588484 -0.0098693743
-0.0245935 0.17582722 -0.010191429
-0.025006952 0.1757648 -0.010530375
-0.025416179 0.17569962 -0.010878812
-0.025837416 0.17564121 -0.011200106
-0.022169018 0.17303462 -0.020823723
-0.022633275 0.17300317 -0.021046823
-0.023029411 0.17293049 -0.021425307
-0.023446726 0.17287056 -0.02175555
-0.023878405 0.17281894 -0.02205294
-0.024286205 0.17275281 -0.022404682
-0.02473137 0.17270996 -0.022671541
-0.025247695 0.17271228 -0.022776397
-0.025726957 0.17269057 -0.022965726
-0.026203534 0.17266706 -0.023161121
-0.026674764 0.17264116 -0.023368649
-0.027200846 0.17264879 -0.023451364
-0.027785262 0.17269228 -0.023401393
-0.028411938 0.17276327 -0.023255311
-0.029076466 0.17285679 -0.023023129
-0.032400914 0.17364821 -0.020578926
-0.033039369 0.17372684 -0.02040609
-0.033653215 0.17378843 -0.020289185
-0.034314789 0.17388102 -0.020063758
-0.035056345 0.17402358 -0.01965633
-0.041691177 0.17559738 -0.014799716
-0.042495884 0.17577887 -0.014248749
-0.043289252 0.17595302 -0.013723413
-0.044016793 0.17608644 -0.013347974
0.044538349 0.17206137 -0.014210643
0.044007875 0.17207679 -0.01425636
0.043562606 0.1720362 -0.014510361
0.043145552 0.17197704 -0.014833549
0.042699568 0.17193693 -0.015085841
0.042240143 0.17190614 -0.015305353
0.041751139 0.17189381 -0.015452476
0.041228145 0.17190401 -0.015516467
0.040665798 0.17194058 -0.015484229
0.040089473 0.17198569 -0.01541784
0.039525971 0.172023 -0.015382895
0.038940504 0.17207347 -0.015293969
0.038384251 0.17210576 -0.015276682
0.037787348 0.1721642 -0.015159843
0.036008425 0.17266431 -0.013495518
0.035536095 0.17264143 -0.013683377
0.035106368 0.17259105 -0.013975572
0.034668501 0.17254534 -0.014247671
0.034231652 0.17249888 -0.01452234
0.033778816 0.17246352 -0.014757887
0.033289246 0.1724526 -0.014903713
0.032770231 0.17246006 -0.014977474
0.032199584 0.1725013 -0.014924871
0.031602737 0.17255968 -0.014808282
0.030893972 0.17269157 -0.014417998
0.030226531 0.17279689 -0.014128724
0.029458677 0.17296672 -0.013593893
0.028598236 0.17319764 -0.012832649
0.028058812 0.17321831 -0.012856347
0.027610147 0.17318001 -0.013102179
0.027168661 0.17313781 -0.013365615
0.026727457 0.17309439 -0.013629606
0.026259433 0.17306851 -0.01382806
0.025760092 0.17306337 -0.013949869
0.025225662 0.17308155 -0.013985926
0.024652973 0.17312421 -0.013928371
0.021507554 0.17385377 -0.011608096
0.021026623 0.17383687 -0.011774937
0.02056564 0.17380714 -0.011990698
0.020087082 0.17378759 -0.012163308
0.019603014 0.1737729 -0.012322409
0.01911173 0.17376216 -0.012463933
0.01858229 0.17377679 -0.012512324
-0.0024632383 0.17879735 0.0033548842
-0.0029005846 0.17875044 0.0030702241
-0.0034034671 0.17874402 0.0029345967
-0.0039378665 0.17875707 0.0028707662
-0.0044712024 0.17876941 0.0028044195
-0.0050231144 0.17879385 0.0027803374
-0.0055977441 0.17883195 0.0028078852
-0.0061934888 0.17888284 0.0028836098
-0.0067720637 0.17892358 0.0029203109
-0.0073569492 0.17896838 0.002971217
-0.0079508033 0.17901906 0.0030425503
-0.0085455552 0.17906928 0.0031160836
-0.0091409218 0.17912087 0.0031906655
-0.0097377393 0.17917238 0.0032687865
-0.010338062 0.17922723 0.0033548612
-0.010906179 0.17926119 0.0033677588
-0.011486329 0.17930293 0.0034078774
-0.012085721 0.17935717 0.0034918031
-0.012681538 0.17940804 0.0035675839
-0.013272112 0.17945656 0.0036314628
-0.013858905 0.17950265 0.0036868216
-0.014439441 0.17954463 0.0037278917
-0.014994416 0.17956999 0.0037106671
-0.015526308 0.17958145 0.0036412477
-0.016063012 0.17959596 0.0035825828
-0.016600264 0.17961089 0.0035252273
-0.017133193 0.17962301 0.0034580564
-0.017649952 0.1796256 0.0033540465
-0.018135358 0.17960784 0.0031786913
-0.018586457 0.17956884 0.002925375
-0.018997183 0.17950465 0.0025802988
-0.019417571 0.17944664 0.0022569757
-0.015397018 0.17661466 -0.0081664007
-0.015870292 0.17658903 -0.008369158
-0.016355339 0.17657204 -0.0085453726
-0.016880408 0.17657901 -0.0086305616
-0.017435716 0.17660467 -0.0086466316
-0.017994884 0.17663379 -0.0086543374
-0.018568816 0.17667145 -0.0086283609
-0.019147201 0.17671207 -0.0085922088
-0.019755162 0.17677087 -0.0084886169
-0.020357374 0.17682694 -0.0083983634
-0.020953359 0.17687798 -0.0083220694
-0.021507638 0.17690392 -0.0083408169
-0.022019004 0.17690302 -0.0084570386
-0.022501418 0.17688334 -0.0086391158
-0.022938063 0.17683493 -0.0089254016
-0.02335679 0.17677589 -0.0092523396
-0.023792965 0.17672822 -0.0095396005
-0.024219045 0.17667295 -0.0098498948
-0.024635142 0.17661221 -0.010182758
-0.025055112 0.17655405 -0.010506809
-0.025459139 0.17648549 -0.010867174
-0.025881568 0.1764289 -0.011185685
-0.021841528 0.17358415 -0.021653565
-0.022251369 0.17351937 -0.022000613
-0.022608435 0.17342231 -0.022468017
-0.023050489 0.17337745 -0.022741823
-0.023458676 0.17331161 -0.023092622
-0.023915896 0.17327662 -0.023332007
-0.024381125 0.17324673 -0.023553384
-0.024782894 0.17317668 -0.023918873
-0.025216473 0.17312732 -0.024212016
-0.025722018 0.17312166 -0.024341363
-0.026301621 0.17316301 -0.024302576
-0.026912609 0.17322482 -0.024192179
-0.027555568 0.17330532 -0.024009157
-0.028194292 0.17338404 -0.023835847
-0.032437354 0.17443086 -0.020582121
-0.033084452 0.17451407 -0.020389561
-0.033731826 0.17459743 -0.020196527
-0.034440652 0.17471966 -0.019863784
-0.035189509 0.17486696 -0.019439811
-0.042646512 0.17663951 -0.0139936
-0.043409951 0.1767952 -0.013536479
-0.044124141 0.17692092 -0.013191545
-0.044833496 0.17704356 -0.012857366
0.043973781 0.17282717 -0.014247844
0.043525979 0.17278829 -0.01449581
0.043105081 0.17273176 -0.014809521
0.042655729 0.172694 -0.015053593
0.042186566 0.17266895 -0.015249178
0.04167448 0.17267263 -0.015339924
0.041112356 0.17270899 -0.015308317
0.035954751 0.17343125 -0.013439372
0.03550265 0.1733954 -0.013676757
0.035085827 0.17333607 -0.014000403
0.034669392 0.1732765 -0.014324971
0.034234844 0.17322946 -0.014605369
0.03377609 0.17319822 -0.014826506
0.033280596 0.17319036 -0.01495778
0.03274855 0.17320688 -0.014999617
0.032172523 0.17325185 -0.014933931
0.028522523 0.17398298 -0.01272288
0.028035663 0.17397018 -0.012875328
0.02760797 0.1739174 -0.01317233
0.027187021 0.17386197 -0.013485964
0.026743896 0.17381983 -0.013745287
0.026268795 0.17379889 -0.01392648
0.025768394 0.17379448 -0.014045632
0.02148157 0.17461069 -0.011620233
0.021001751 0.17459302 -0.011789823
0.020573856 0.17454138 -0.012086483
0.020105222 0.17451596 -0.012283394
0.019595999 0.17451762 -0.012381157
-0.0021334151 0.17966811 0.0037985537
-0.0024132403 0.17952196 0.0031558929
-0.0027806927 0.17943065 0.0027121599
-0.0032636309 0.17941129 0.0025314081
-0.0037718127 0.17940836 0.0024077801
-0.0043121781 0.17942528 0.0023575136
-0.0048842821 0.17946281 0.0023792754
-0.0054732654 0.17951021 0.00243947
-0.0060568247 0.17955419 0.0024874019
-0.0066403896 0.17959812 0.0025352149
-0.0072238352 0.17964202 0.0025829361
-0.0078237485 0.17969657 0.0026680531
-0.0084207579 0.17974927 0.002746362
-0.0090132356 0.17979899 0.0028144333
-0.0096019059 0.17984627 0.0028739858
-0.010196123 0.17989713 0.0029461228
-0.010797659 0.17995274 0.0030349528
-0.01138629 0.17999999 0.0030942014
-0.011988943 0.18005535 0.0031856464
-0.012577757 0.18010271 0.00324558
-0.013164708 0.18014883 0.0033010661
-0.01375431 0.18019675 0.0033627604
-0.014333282 0.18023871 0.0034000727
-0.014902269 0.18027316 0.0034148318
-0.015449822 0.18029474 0.0033808921
-0.01599481 0.18031469 0.0033410606
-0.0165428 0.18033656 0.0033080997
-0.017083984 0.18035401 0.0032595105
-0.017610956 0.18036324 0.0031787038
-0.018110199 0.18035448 0.0030349456
-0.01857819 0.1803264 0.0028198629
-0.019008964 0.18027423 0.0025204625
-0.019443622 0.18022554 0.0022295732
-0.019916479 0.18020064 0.0020257717
-0.015891856 0.17735903 -0.0084058503
-0.016397348 0.17735437 -0.0085353041
-0.016906422 0.17735195 -0.0086567886
-0.017436992 0.1773635 -0.0087296264
-0.017985489 0.17738575 -0.0087614171
-0.018551063 0.17741798 -0.008754367
-0.019104103 0.17744316 -0.0087758992
-0.019675361 0.1774791 -0.0087560173
-0.020266918 0.17752825 -0.0086898208
-0.020860059 0.1775784 -0.0086201988
-0.021444717 0.17762408 -0.0085699353
-0.021988643 0.17764328 -0.0086122528
-0.022498174 0.17764021 -0.0087325461
-0.022972694 0.1776164 -0.0089326072
-0.023407878 0.17756806 -0.0092222979
-0.023848681 0.17752236 -0.0094990302
-0.024294501 0.17747991 -0.0097643388
-0.024723707 0.17742771 -0.010067496
-0.025131242 0.17736141 -0.010419949
-0.025531596 0.17729147 -0.010788815
-0.025939682 0.17722555 -0.011139808
-0.021421066 0.17407535 -0.022694787
-0.021765249 0.17397 -0.02319123
-0.022129143 0.17387637 -0.023642903
-0.022495108 0.17378414 -0.024089722
-0.022896247 0.17371368 -0.024456725
-0.023176672 0.17356788 -0.025098274
-0.023628829 0.17353058 -0.025349159
-0.024177806 0.17355315 -0.025379937
-0.024807604 0.17362604 -0.025227005
-0.025416298 0.17368528 -0.025121938
-0.026043406 0.17375651 -0.024974862
-0.026697731 0.1738454 -0.024766138
-0.0273693 0.17394444 -0.024518199
-0.033217974 0.17535774 -0.020171991
-0.033924043 0.17547816 -0.019845659
-0.034641854 0.17560627 -0.019492349
-0.035372853 0.17574286 -0.019109251
-0.036128744 0.17589466 -0.018669467
-0.043545716 0.17764716 -0.013315337
-0.044247381 0.17776477 -0.012998899
-0.04495614 0.17788796 -0.012666419
-0.045681089 0.1780207 -0.012296809
0.035935417 0.17417541 -0.013467288
0.035470635 0.17414837 -0.013673702
0.035068143 0.17408012 -0.014032429
0.034646768 0.17402399 -0.014344892
0.034223966 0.17396878 -0.014653932
0.033770353 0.17393394 -0.014887659
0.033267058 0.17393157 -0.01499982
0.028497243 0.17473534 -0.012736516
0.028035317 0.17470627 -0.012949958
0.027612541 0.17465106 -0.013259079
0.027199326 0.17458926 -0.013591453
0.026752569 0.1745507 -0.013841964
0.026258431 0.17454191 -0.013976617
0.021461783 0.17536326 -0.011647644
0.02097301 0.1753508 -0.01179524
0.02053488 0.17530628 -0.012066929
-0.0016494598 0.18044084 0.0038921016
-0.0020380355 0.18036327 0.0034966224
-0.0023384169 0.18022943 0.0029004193
-0.0027033184 0.18013747 0.0024510056
-0.00317242 0.18011017 0.0022385933
-0.0036916984 0.1801134 0.002140362
-0.004237988 0.18013519 0.0021034188
-0.0048071928 0.18016979 0.0021185926
-0.005396096 0.1802182 0.0021785181
-0.005964404 0.18025228 0.0021918318
-0.006541634 0.18029307 0.0022250866
-0.0071411915 0.1803474 0.0023092655
-0.0077294651 0.18039542 0.0023677808
-0.0083311982 0.18045114 0.0024568927
-0.0089232679 0.18050064 0.0025242595
-0.009507319 0.18054487 0.0025731013
-0.010097921 0.1805944 0.0026369225
-0.010700518 0.18065074 0.0027281195
-0.011298232 0.18070385 0.0028081632
-0.011890747 0.18075362 0.0028763893
-0.012482939 0.18080312 0.0029437281
-0.01307 0.18085036 0.0029993614
-0.013661368 0.18089934 0.0030650159
-0.014233669 0.18093708 0.0030874317
-0.014819549 0.18098246 0.0031404174
-0.015388053 0.18101767 0.0031540683
-0.015930846 0.18103614 0.0031093196
-0.016482063 0.18106011 0.0030833909
-0.017035078 0.18108524 0.003061987
-0.017575152 0.18110296 0.003010768
-0.018093543 0.18110561 0.0029104224
-0.018573703 0.18108545 0.0027231658
-0.01901532 0.18104129 0.0024481735
-0.019454878 0.18099475 0.002168546
-0.019904677 0.18095589 0.0019120714
-0.016020335 0.17819646 -0.0081990929
-0.01653794 0.1781996 -0.0083012851
-0.017013777 0.17817664 -0.0084983651
-0.017519973 0.17817242 -0.0086263893
-0.01804604 0.17818101 -0.0087094363
-0.018586161 0.17819771 -0.0087604066
-0.019123819 0.17821391 -0.0088169947
-0.019687913 0.17824626 -0.0088133719
-0.020248774 0.17827545 -0.0088171028
-0.020830354 0.17831913 -0.0087737441
-0.021421878 0.17836821 -0.0087079629
-0.021977866 0.17839533 -0.0087225391
-0.022502361 0.17840292 -0.0088091511
-0.023003085 0.17839512 -0.008949697
-0.023473812 0.17836882 -0.0091585312
-0.023916679 0.1783255 -0.0094304793
-0.024356054 0.17827882 -0.0097106351
-0.024807328 0.17823993 -0.0099635646
-0.025220187 0.1781781 -0.010303933
-0.02560238 0.17809537 -0.010713879
-0.019443993 0.17391022 -0.025995938
-0.019851932 0.17384516 -0.026347646
-0.020249631 0.1737725 -0.026722366
-0.020709032 0.17373885 -0.02695681
-0.021218585 0.17373684 -0.027077178
-0.021808023 0.17378454 -0.027016124
-0.02250324 0.17389897 -0.026714351
-0.023211023 0.17402154 -0.026384158
-0.023838719 0.1740941 -0.026236055
-0.024498994 0.17418689 -0.026013661
-0.025219442 0.17431664 -0.025654534
-0.02588688 0.17441401 -0.025416082
-0.033431299 0.17625114 -0.019773094
-0.0341352 0.17637117 -0.019451747
-0.034853183 0.17650037 -0.019098381
-0.03553395 0.17660537 -0.018829437
-0.036246926 0.17673132 -0.018487331
-0.036962681 0.17685799 -0.018138964
-0.043608285 0.17845368 -0.013260569
-0.044333726 0.17858666 -0.012890192
-0.045079537 0.17873295 -0.012473343
-0.045776829 0.17884867 -0.012166962
-0.04650142 0.17898212 -0.011798607
-0.04728514 0.179152 -0.011295531
0.035056807 0.17481974 -0.014079863
0.034643903 0.1747577 -0.014413053
0.028061196 0.17542517 -0.013088683
0.027601479 0.17539456 -0.01330748
-0.0015816586 0.18115388 0.003652622
-0.0019697249 0.18107598 0.003255839
-0.002275777 0.18094589 0.0026728334
-0.0026568659 0.1808634 0.0022601467
-0.0031359466 0.18084255 0.002070494
-0.0036647264 0.18085194 0.0019937619
-0.0042150784 0.18087634 0.0019659372
-0.0047794785 0.18090886 0.0019701882
-0.0053629242 0.18095374 0.0020177038
-0.0059255138 0.18098503 0.0020177141
-0.0064949095 0.1810208 0.0020333519
-0.0070874523 0.18107058 0.0021016067
-0.0076675229 0.18111321 0.0021413369
-0.0082595553 0.18116374 0.0022084473
-0.0088517591 0.1812132 0.0022759426
-0.0094465744 0.18126547 0.0023491138
-0.0100317 0.18131046 0.0024005976
-0.010618705 0.18135761 0.002456062
-0.011218119 0.18141286 0.0025399299
-0.011802422 0.1814573 0.0025894835
-0.012394832 0.18150797 0.0026573078
-0.012982231 0.18155441 0.0027139136
-0.013565864 0.18159942 0.0027618532
-0.014149854 0.18164463 0.0028105741
-0.014738897 0.18169211 0.0028706612
-0.015314706 0.18173201 0.0029008647
-0.015874062 0.18176223 0.0028934956
-0.016441144 0.18179651 0.0029038494
-0.017002348 0.18182698 0.0029009627
-0.017547663 0.18184704 0.0028616604
-0.018071461 0.1818542 0.002773596
-0.018577313 0.18185069 0.0026444788
-0.019034583 0.18181571 0.0024052614
-0.019476701 0.18177089 0.0021314956
-0.019898769 0.18171404 0.0018120692
-0.020277463 0.18163002 0.0013940276
-0.016673028 0.17904226 -0.0080798957
-0.0171792 0.179038 -0.0082079265
-0.01767385 0.17902724 -0.008362446
-0.018189516 0.17902914 -0.0084689781
-0.01869821 0.1790265 -0.0085912943
-0.019217923 0.17903097 -0.0086888717
-0.019756515 0.17904778 -0.0087433029
-0.020318482 0.17907868 -0.0087446887
-0.020886792 0.17911373 -0.0087315813
-0.021451509 0.17914647 -0.0087264283
-0.022013543 0.17917746 -0.0087276381
-0.022545161 0.17918965 -0.0087980991
-0.023048541 0.17918359 -0.0089324368
-0.023517059 0.17915586 -0.0091463439
-0.023959039 0.17911196 -0.0094204135
-0.024410931 0.17907345 -0.0096719619
-0.024882799 0.1790479 -0.0098782079
-0.025316769 0.17899877 -0.010170393
-0.018919881 0.17465495 -0.025993232
-0.019325225 0.17458722 -0.026350496
-0.019712126 0.17450857 -0.026749881
-0.020121096 0.1744432 -0.027099172
-0.020586437 0.17441343 -0.027320059
-0.02109999 0.17441498 -0.027431561
-0.021669915 0.17445102 -0.027414864
-0.022282032 0.17451352 -0.027302155
-0.022949798 0.17461111 -0.02706279
-0.023627764 0.17471527 -0.026800619
-0.024295645 0.17481296 -0.026561046
-0.033462226 0.17703114 -0.019789187
-0.03416685 0.17715169 -0.019466
-0.034867615 0.17727071 -0.019151825
-0.035549067 0.17737617 -0.018881444
-0.036223769 0.17747825 -0.018626479
-0.036873825 0.17756531 -0.018427728
-0.037564181 0.17767657 -0.018136974
-0.046605989 0.17981678 -0.011648756
-0.047291778 0.17992608 -0.011368601
-0.047977023 0.18003404 -0.011089595
-0.0019401908 0.1818119 0.0031036944
-0.0022636801 0.18169306 0.0025601201
-0.0026546177 0.18161699 0.0021698412
-0.0031490168 0.18160607 0.0020148708
-0.0036912477 0.1816252 0.0019685631
-0.0042376844 0.18164606 0.0019320722
-0.004793087 0.18167374 0.0019156768
-0.0053508263 0.18170188 0.001904666
-0.0059123617 0.18173356 0.0019023488
-0.0064841602 0.18177086 0.0019233567
-0.0070569608 0.18180878 0.0019465704
-0.0076429676 0.18185537 0.0019999479
-0.0082305651 0.1819029 0.0020567793
-0.0088087078 0.18194431 0.0020921542
-0.0093961097 0.18199177 0.0021487111
-0.0099790059 0.18203624 0.0021947687
-0.010564776 0.18208264 0.0022475903
-0.011164412 0.18213806 0.0023318883
-0.01173972 0.18217756 0.0023606683
-0.012325883 0.18222418 0.0024144563
-0.012915406 0.182273 0.0024756205
-0.013499729 0.18231842 0.0025249973
-0.014082149 0.18236266 0.0025702934
-0.014658034 0.1824026 0.002600553
-0.015243853 0.18244897 0.0026532908
-0.015816845 0.1824871 0.0026771589
-0.016398277 0.18253066 0.0027200105
-0.016968962 0.18256722 0.0027384597
-0.017524621 0.18259504 0.0027226489
-0.018063374 0.18261188 0.002668486
-0.018586997 0.18261896 0.0025800194
-0.019073481 0.1826029 0.0024069885
-0.019525113 0.18256421 0.0021548632
-0.019925639 0.18249437 0.0017863996
-0.020295434 0.18240458 0.0013481211
-0.020642797 0.18230027 0.00085901679
-0.017405357 0.17993879 -0.0077795684
-0.017924404 0.17994288 -0.0078784283
-0.018390831 0.17991379 -0.0080970619
-0.018862264 0.17988795 -0.0083041685
-0.019348722 0.17987187 -0.0084773544
-0.019868763 0.1798766 -0.0085738953
-0.020414608 0.17989805 -0.0086120851
-0.020973301 0.1799269 -0.0086206943
-0.021538896 0.17996117 -0.0086138779
-0.022091793 0.17998618 -0.0086359102
-0.022620684 0.17999665 -0.0087125022
-0.023119597 0.17998865 -0.0088572502
-0.023580285 0.17995586 -0.0090888767
-0.024010295 0.17990418 -0.0093901027
-0.024454536 0.17986168 -0.0096593099
-0.024935057 0.17984183 -0.0098456452
-0.025424534 0.17982763 -0.010011945
-0.018882837 0.17538303 -0.026161876
-0.019286325 0.17531511 -0.026523646
-0.01967407 0.175236 -0.026920864
-0.020091122 0.17517686 -0.027251897
-0.020557785 0.17514791 -0.027469954
-0.021077963 0.17515278 -0.027566133
-0.021628635 0.17517735 -0.027593335
-0.022176201 0.17519897 -0.027627261
-0.022807287 0.17527372 -0.0274716
-0.031026362 0.17722468 -0.021576213
-0.031699084 0.17732656 -0.021325719
-0.03248971 0.17750175 -0.020807486
-0.033300117 0.17768994 -0.020244025
-0.034014672 0.17781687 -0.019898485
-0.034691937 0.17792062 -0.019637639
-0.03536056 0.17801973 -0.019396784
-0.035998754 0.17809914 -0.019224862
-0.03661494 0.1781642 -0.019102914
-0.037219875 0.17822306 -0.019006595
-0.037875287 0.17831263 -0.018795466
-0.0022888994 0.1824645 0.0025321669
-0.0027227001 0.18241526 0.0022394606
-0.003239112 0.18241857 0.0021343366
-0.0037656687 0.18242757 0.0020525572
-0.0042954357 0.18243858 0.0019779378
-0.0048299804 0.18245272 0.0019142677
-0.005384082 0.1824795 0.0018948005
-0.0059414282 0.18250847 0.0018828786
-0.0065119993 0.18254493 0.0019011321
-0.0070713274 0.1825752 0.0018937271
-0.0076544546 0.18261983 0.0019403552
-0.0082292333 0.18265998 0.0019678879
-0.0088050757 0.18269996 0.0019981042
-0.0093773715 0.18273857 0.0020200694
-0.0099533424 0.18277858 0.0020505262
-0.010544041 0.18282817 0.0021145591
-0.011131225 0.18287644 0.0021703539
-0.011707447 0.18291661 0.002201254
-0.012290185 0.18296105 0.002247184
-0.012874886 0.18300764 0.0022973074
-0.013459655 0.18305337 0.00234767
-0.014040558 0.18309656 0.0023893304
-0.014606515 0.18313111 0.0023969205
-0.015196301 0.18318005 0.0024586916
-0.015783297 0.18322726 0.0025144096
-0.016372818 0.18327606 0.0025755742
-0.016956123 0.1833218 0.0026225257
-0.017508427 0.18334746 0.0025990698
-0.018060116 0.18337174 0.0025745507
-0.018608822 0.18339506 0.002542984
-0.01911916 0.18339446 0.0024240769
-0.019587422 0.18336658 0.0022097274
-0.019987788 0.18329668 0.0018409954
-0.020333709 0.18319134 0.001348326
-0.02064695 0.18306594 0.00078178104
-0.020979969 0.18295325 0.00025971234
-0.018082215 0.18080024 -0.0076056132
-0.018522413 0.18075518 -0.007883776
-0.018972995 0.18071681 -0.0081384815
-0.019463927 0.18070365 -0.0083013307
-0.019988038 0.18071096 -0.0083888732
-0.020529659 0.18072973 -0.0084364349
-0.021078045 0.18075283 -0.008468762
-0.021636786 0.18078268 -0.0084775118
-0.022182217 0.18080382 -0.0085166674
-0.022701075 0.18080775 -0.0086160693
-0.023193045 0.1807953 -0.00877643
-0.02365935 0.18076612 -0.0089954101
-0.024086101 0.18071231 -0.0093040913
-0.024523044 0.18066509 -0.0095898425
-0.025000388 0.18064314 -0.0097834347
-0.025507739 0.18064062 -0.009909058
-0.01888269 0.17613505 -0.02624671
-0.019328687 0.17609368 -0.026511956
-0.019725444 0.1760204 -0.026888857
-0.020146925 0.17596324 -0.027209396
-0.020601815 0.17592762 -0.027454419
-0.021126805 0.1759356 -0.027539736
-0.021658523 0.17594789 -0.027609861
-0.022186099 0.17595847 -0.027689623
-0.024852263 0.17667226 -0.025465859
-0.025546869 0.17678727 -0.025165657
-0.026267601 0.17691922 -0.024806203
-0.030149227 0.1777533 -0.022377003
-0.030889122 0.17789763 -0.021974178
-0.031561531 0.17799926 -0.021724436
-0.032263361 0.17811891 -0.021408008
-0.032989383 0.17825428 -0.021036554
-0.033714324 0.17838803 -0.020667277
-0.034329638 0.17845352 -0.020547641
-0.034905091 0.1784932 -0.020518227
-0.035566755 0.17858775 -0.020293247
-0.036198802 0.17866413 -0.02013549
-0.036828816 0.17873825 -0.019982094
-0.037527911 0.17885712 -0.019672016
-0.0034383982 0.18329994 0.0025019702
-0.0039042756 0.18327151 0.0022820593
-0.0043812422 0.18324928 0.002087523
-0.0048909746 0.18324831 0.001967242
-0.0054448601 0.18327501 0.001947464
-0.00599421 0.18329874 0.0019173068
-0.0065583661 0.18333204 0.0019206479
-0.0071134586 0.18335949 0.0019036331
-0.0076752901 0.18339135 0.0019019288
-0.00824349 0.18342729 0.0019145086
-0.0088131595 0.1834632 0.0019306187
-0.0093905963 0.18350516 0.0019643439
-0.009961389 0.18354279 0.0019828142
-0.01054243 0.18358614 0.0020249749
-0.011124365 0.18363094 0.0020686714
-0.011705436 0.18367533 0.0021107667
-0.012294095 0.18372354 0.0021698533
-0.012867458 0.18376289 0.0021943266
-0.013450379 0.18380736 0.0022405395
-0.014023125 0.18384631 0.0022636317
-0.014601998 0.18388914 0.0023002813
-0.015192145 0.18393832 0.0023629828
-0.015776152 0.18398456 0.0024115047
-0.016367702 0.18403466 0.0024773702
-0.016934803 0.18406992 0.0024875398
-0.017512919 0.18411234 0.002522822
-0.018084764 0.18415065 0.002543652
-0.018643595 0.18418054 0.0025350992
-0.019168975 0.18418874 0.0024506007
-0.019659676 0.18417537 0.0022870619
-0.020098133 0.18412918 0.0020049452
-0.020452445 0.18402939 0.0015316037
-0.020716662 0.1838731 0.00085337926
-0.021040877 0.18375471 0.00031141983
-0.018074324 0.1815542 -0.0077093961
-0.018527485 0.1815175 -0.0079582036
-0.018992938 0.18148774 -0.0081790145
-0.01950822 0.18149038 -0.0082865702
-0.020041998 0.181504 -0.0083521213
-0.020585241 0.18152474 -0.0083964206
-0.02113458 0.18154849 -0.0084264586
-0.021700284 0.18158288 -0.0084193265
-0.02223595 0.18159771 -0.0084805582
-0.022752644 0.18160124 -0.0085849576
-0.023245277 0.18158913 -0.0087441336
-0.023720594 0.18156587 -0.0089424122
-0.024181208 0.18153396 -0.0091744345
-0.024627382 0.18149178 -0.0094389617
-0.02509206 0.18146253 -0.0096616149
-0.0256103 0.18146612 -0.0097624119
-0.018909523 0.17690353 -0.026270403
-0.0193864 0.17688225 -0.026465343
-0.019816846 0.17683084 -0.026765706
-0.020233007 0.17677021 -0.027098412
-0.020685365 0.17673296 -0.027349135
-0.021196237 0.17673171 -0.027466638
-0.021768136 0.17677008 -0.027445504
-0.022388881 0.17683914 -0.027313484
-0.023275698 0.1770768 -0.026576763
-0.024128007 0.17729211 -0.025918351
-0.024849107 0.17742427 -0.025558086
-0.02551586 0.1775232 -0.025321474
-0.026271438 0.17767671 -0.024882851
-0.026964134 0.17779151 -0.02458705
-0.027681721 0.17792243 -0.024234926
-0.028462788 0.17809248 -0.02373844
-0.029208465 0.17824057 -0.023322461
-0.029904617 0.17835757 -0.023018934
-0.030660374 0.17851125 -0.022579778
-0.03132268 0.17860727 -0.02235334
-0.031939186 0.17867354 -0.022230957
-0.032553822 0.17873862 -0.022112736
-0.033163689 0.17880066 -0.022005221
-0.033817984 0.1788905 -0.021796716
-0.03449145 0.17899273 -0.021544972
-0.035163373 0.17909496 -0.021296714
-0.03589119 0.17923157 -0.020920884
-0.036565974 0.17933463 -0.02066618
-0.0061046481 0.18412536 0.0020826652
-0.0066445004 0.18414399 0.0020309445
-0.007139856 0.18413362 0.0018778839
-0.0076906215 0.18415835 0.0018511512
-0.008283468 0.18421024 0.0019196221
-0.0088729914 0.18426009 0.0019807224
-0.0094574001 0.1843065 0.002030225
-0.01000871 0.18433152 0.0020045708
-0.010577625 0.18436794 0.0020187283
-0.011179116 0.1844255 0.0021071194
-0.011765046 0.18447196 0.0021600684
-0.012338649 0.18451139 0.0021848588
-0.01289832 0.18454288 0.002178306
-0.013467267 0.18457931 0.0021926183
-0.014038147 0.18461701 0.0022112858
-0.014625488 0.18466535 0.0022673344
-0.015205359 0.18470889 0.0023065698
-0.015794089 0.18475719 0.0023659663
-0.016385747 0.18480837 0.0024318299
-0.016967377 0.18485302 0.0024750256
-0.017554993 0.18490158 0.0025317997
-0.018124195 0.18493818 0.0025465626
-0.018699834 0.18497893 0.0025761877
-0.019244652 0.18499972 0.0025356514
-0.019746199 0.18499346 0.0023968383
-0.020205252 0.18496062 0.0021615308
-0.020587822 0.18487912 0.0017523174
-0.020883447 0.18474223 0.0011455594
-0.02120758 0.18462385 0.00060352124
-0.017980795 0.18225344 -0.008008033
-0.01844712 0.18222533 -0.0082268156
-0.018932633 0.18220863 -0.008402016
-0.019467043 0.18222362 -0.0084663704
-0.02001714 0.18224783 -0.0084947869
-0.020580227 0.18228045 -0.0084938193
-0.021149041 0.18231685 -0.0084796138
-0.021709995 0.18234912 -0.0084836148
-0.022251403 0.1823677 -0.0085317269
-0.022779344 0.18237852 -0.0086106807
-0.02329894 0.18238397 -0.0087084211
-0.023790156 0.18237092 -0.0088709015
-0.024268387 0.18234952 -0.0090625063
-0.024735251 0.1823217 -0.0092803594
-0.025189726 0.18228589 -0.0095260814
-0.025666447 0.18226349 -0.0097211814
-0.026143512 0.18224135 -0.0099156462
-0.019447625 0.17767309 -0.026410807
-0.019911705 0.17764249 -0.026634621
-0.020328658 0.17758331 -0.026965862
-0.020785267 0.17754786 -0.027206624
-0.021301029 0.17755078 -0.02731329
-0.0218828 0.17759557 -0.027269738
-0.022563962 0.17770383 -0.027000444
-0.023341959 0.1778729 -0.026511082
-0.024122657 0.17804272 -0.026015406
-0.024830015 0.17816696 -0.025686607
-0.025520822 0.17828147 -0.025395462
-0.026241632 0.17841448 -0.025035882
-0.027021201 0.17858458 -0.024542971
-0.027736047 0.17871265 -0.024197014
-0.028442258 0.17883615 -0.023870787
-0.02910337 0.17893143 -0.023646835
-0.02970838 0.17899126 -0.023550659
-0.030333331 0.17906302 -0.023409039
-0.03098741 0.17915374 -0.02320116
-0.031584211 0.17920725 -0.023123465
-0.032175057 0.17925788 -0.023059517
