0.009323 0.065893 0.057459
0.029321 0.043853 0.016653
-0.032408 0.077816 0.041834
-0.003758 -0.056180 -0.011405
-0.005842 0.027976 -0.041426
0.039535 -0.043841 -0.001610
-0.003360 0.034344 -0.049446
0.033590 -0.059094 -0.013555
-0.001229 0.029110 -0.057527
-0.015893 0.063726 0.043876
-0.000043 -0.073262 -0.000758
-0.015550 0.065223 0.058928
-0.003563 -0.081120 -0.047842
0.006052 0.056535 0.028672
0.031306 0.036926 0.020942
0.002949 0.029210 -0.036786
0.026482 0.037349 -0.007680
0.004908 0.026191 0.038844
-0.007931 -0.034471 0.013606
-0.006565 0.070411 0.040170
0.011153 0.062438 0.058583
-0.015133 0.068285 0.072846
0.002909 -0.017625 -0.015306
-0.010146 0.081925 0.042267
-0.001326 0.033954 -0.066893
0.033701 0.013965 -0.066423
0.013808 0.034838 0.052233
0.000160 0.049369 0.060929
-0.003131 -0.079834 -0.043765
0.035077 -0.064466 -0.044081
0.031376 -0.068234 -0.066148
0.027206 -0.057983 -0.023855
-0.006344 -0.033912 0.002724
0.020215 -0.040419 -0.003858
-0.016787 0.084524 0.042926
0.021939 0.047462 0.013931
0.028715 -0.062513 -0.033624
-0.040260 0.084415 0.039570
0.000531 0.043316 0.050780
-0.025733 0.070075 0.051449
0.005187 -0.013749 0.027930
0.018988 0.028840 0.040039
0.026593 -0.026853 0.032727
0.029769 0.021371 -0.041682
-0.001772 0.074866 0.048446
0.036403 -0.058549 -0.030693
0.030938 0.041968 0.006786
0.015842 0.047714 0.013420
0.029955 0.024804 -0.030924
-0.011107 -0.043537 0.005607
0.022235 0.019310 -0.032880
0.020316 -0.070884 0.021591
-0.008014 -0.037057 0.011434
0.019933 0.029232 -0.017134
0.040274 -0.039234 0.011842
0.029288 0.017883 -0.052268
-0.004111 0.044360 0.005411
-0.004314 0.030575 0.028092
0.014491 -0.037511 0.036428
0.027274 -0.055885 -0.026445
0.023941 0.019808 -0.040649
0.032636 -0.030899 -0.001883
-0.028062 0.088641 0.039098
-0.004642 -0.033847 -0.000975
-0.001279 0.014670 -0.005973
-0.001607 0.027483 0.031582
0.008629 0.005014 -0.018480
0.020701 0.039992 -0.009148
-0.001708 0.039098 0.027798
0.003426 0.044736 0.058906
-0.001618 -0.086249 -0.042446
0.029050 0.018942 -0.011162
0.030827 0.039648 0.020291
-0.004180 0.013174 -0.000768
0.002718 -0.071550 -0.013820
-0.007595 0.059571 0.053189
-0.020036 0.066524 0.056655
-0.001743 0.075488 0.050220
-0.008229 -0.038753 0.009076
-0.038526 0.090791 0.038143
0.033997 -0.067032 0.020571
-0.004863 0.036151 -0.061224
-0.010835 0.084751 0.045864
-0.003379 0.053415 0.045772
0.003034 0.033442 0.041275
0.029970 -0.065370 -0.027450
0.031745 -0.071530 -0.061241
-0.005858 0.031392 -0.020928
0.022255 -0.060899 -0.002131
0.004948 0.052443 0.022437
-0.004426 -0.084976 -0.044698
0.001630 0.018586 -0.017252
0.006084 0.050416 0.018481
-0.006848 0.082047 0.071238
-0.006457 0.043170 0.007881
0.019177 0.049355 0.042171
-0.007542 0.039485 -0.071745
-0.009247 0.039280 0.007955
0.041672 -0.051740 0.010994
-0.006373 -0.001734 0.018205
-0.020012 0.086253 0.043221
0.011311 -0.019560 -0.016455
-0.004057 -0.086384 -0.049419
0.005775 -0.073452 0.018144
0.033202 -0.066700 -0.037873
-0.001898 0.034040 -0.026938
-0.005966 -0.037262 0.003825
-0.002551 0.049248 0.049692
0.014997 -0.066692 0.006628
0.028549 0.022064 0.027205
0.000701 -0.077270 -0.018276
0.034803 -0.014044 0.022809
0.001495 -0.082411 -0.036958
0.024273 0.044524 0.027012
0.001609 0.040570 0.048580
0.036977 -0.056715 -0.017243
-0.003216 0.029737 -0.060347
-0.001631 -0.089727 -0.061551
0.030386 0.020836 -0.073083
0.034317 0.032673 0.009284
0.017865 -0.060011 -0.001272
-0.008622 0.030370 0.020278
-0.005657 -0.080283 -0.038429
0.037989 -0.054566 -0.015775
0.012796 0.038582 -0.010315
0.003010 -0.074171 -0.021537
-0.023340 0.076328 0.039197
-0.007567 0.039013 0.000166
-0.010688 0.060745 0.062330
0.033789 0.034721 0.003160
0.033389 -0.060178 -0.017964
0.015824 0.056861 0.037276
-0.011359 0.029037 -0.001166
0.026555 0.027802 -0.025376
-0.004792 0.069336 0.071230
-0.009639 0.022998 0.008444
0.000021 -0.085919 -0.068227
0.028239 0.011505 -0.048996
0.019556 -0.057643 -0.003365
0.005167 -0.069627 0.026049
-0.000952 0.074805 0.054347
-0.011960 -0.061032 0.002217
0.031592 -0.064029 -0.022784
0.009686 -0.067008 0.003332
0.006886 -0.071962 0.022589
0.005246 -0.063899 -0.000134
0.012703 0.059808 0.040419
-0.009117 -0.041292 0.003563
-0.000845 0.069652 0.069481
0.034565 0.024158 -0.003955
0.029468 0.011058 0.021249
-0.006823 0.025375 -0.013383
0.003707 0.069528 0.064948
0.000170 0.033906 -0.045470
0.033573 -0.041775 -0.008446
0.026492 0.014101 -0.052914
0.002837 0.005921 -0.015453
0.040864 -0.040178 0.006713
0.003345 0.015177 -0.014170
-0.009956 0.067131 0.039333
-0.001891 0.076034 0.052321
-0.010403 0.027589 -0.007650
-0.005304 -0.060046 -0.016242
0.001434 0.067661 0.068704
-0.007606 -0.070509 -0.015488
0.032499 -0.021001 0.026258
-0.002217 -0.030386 0.029229
0.030826 0.010960 -0.067530
0.033214 -0.035521 -0.004534
-0.002733 0.036804 -0.059825
-0.002133 -0.078296 -0.073717
-0.000526 -0.087226 -0.047522
-0.001072 -0.063864 0.027638
0.001109 -0.071921 0.018605
0.006988 0.063581 0.043655
-0.005854 0.059898 0.068016
-0.004491 -0.080593 -0.043370
0.010550 0.061527 0.042494
0.031746 0.021263 -0.035023
0.007327 -0.068155 0.028156
-0.005704 -0.063781 -0.020792
-0.010871 0.061572 0.058600
-0.038293 0.081626 0.039437
0.031127 0.013276 -0.048632
0.020092 0.022703 -0.022715
0.010600 -0.028113 -0.012659
0.000094 -0.071006 -0.026858
-0.005787 0.034397 -0.063376
0.033695 0.019303 -0.072907
0.006091 0.041096 0.057191
-0.005616 0.013690 0.003417
0.032245 -0.059441 -0.038401
0.007430 -0.054393 -0.005391
-0.004221 0.004612 0.019608
0.000073 0.024077 -0.032291
-0.000460 -0.083339 -0.027970
-0.006738 -0.020852 -0.007166
-0.005597 -0.064494 0.021992
0.010390 0.048695 0.015489
0.012087 0.062238 0.052472
0.031038 0.011078 -0.051936
0.016515 -0.023417 -0.014224
0.004632 -0.060869 -0.002554
0.035388 -0.070389 -0.061485
-0.004910 -0.083002 -0.045296
-0.028129 0.074117 0.056037
0.030319 0.033732 -0.010980
-0.001140 -0.087410 -0.070519
0.010348 0.064434 0.057106
0.032237 0.013443 -0.052805
-0.006010 -0.072124 -0.015891
-0.006717 0.015532 0.008091
-0.037520 0.081250 0.041006
0.011790 -0.067764 0.028674
-0.006029 0.021090 -0.009980
0.001450 0.018819 0.032328
-0.015117 0.081602 0.066382
0.034683 -0.034731 -0.002182
0.039385 -0.035819 0.017395
-0.000348 -0.082691 -0.054607
0.003707 -0.070866 -0.007279
0.037559 -0.052687 -0.019852
0.024448 0.005426 -0.011974
-0.006045 -0.086441 -0.058207
0.030811 0.016566 0.020446
0.022605 0.021381 -0.035157
-0.008893 -0.064321 -0.015532
0.024688 0.046675 0.017408
0.003731 -0.052965 -0.006152
0.022158 0.035843 0.034904
0.038108 -0.007525 0.012852
0.033813 -0.048526 -0.020675
0.022157 0.047820 0.029595
0.002616 -0.075877 -0.019694
0.001038 -0.084765 -0.070466
0.027641 0.028407 -0.022703
-0.002667 0.051379 0.042289
0.037495 -0.055129 -0.008384
0.009149 0.036253 -0.012425
0.002185 -0.079046 -0.034931
0.028194 0.025706 -0.032882
0.014863 0.030018 0.047308
-0.001423 0.035348 -0.017277
-0.008250 0.082765 0.073472
-0.007178 0.084768 0.070181
0.002259 -0.081152 -0.025979
-0.010477 0.032001 0.012750
0.005358 0.061795 0.037724
0.030462 -0.068204 0.023471
0.037152 -0.055908 -0.020465
-0.004641 0.042489 0.018334
-0.000219 -0.063324 -0.017862
0.037934 -0.064068 -0.072686
-0.004785 0.064869 0.070448
-0.004812 -0.027775 0.023198
-0.000081 0.050100 0.029490
0.028013 0.016183 -0.006915
0.035561 -0.060261 -0.034404
0.041743 -0.044685 0.009488
-0.014171 0.063674 0.054073
0.035514 -0.058232 0.028644
0.036076 -0.031058 0.006280
0.002439 -0.070579 -0.021714
0.000034 -0.078697 -0.039119
0.000093 0.005713 0.024179
0.004913 -0.037358 -0.004024
-0.033266 0.078946 0.047139
0.024649 0.035450 -0.012880
-0.004833 0.044308 0.010165
-0.008033 -0.033390 0.009962
0.003959 -0.022301 0.029495
0.001292 -0.073287 -0.028912
0.001180 -0.081646 -0.023265
0.029300 -0.068858 -0.058787
0.002640 0.031295 -0.030112
-0.004105 0.033755 -0.053979
-0.023414 0.068980 0.043402
0.026828 0.012385 -0.061896
0.033190 -0.068920 -0.046258
0.025349 0.014311 -0.040670
-0.011702 0.082068 0.067627
-0.002983 0.045181 0.007583
-0.040519 0.086583 0.041608
-0.001403 0.028312 -0.052677
-0.002414 0.049562 0.056117
-0.002515 0.076872 0.064029
0.016511 0.055588 0.034652
-0.009065 -0.064154 -0.011738
-0.027284 0.071594 0.056047
-0.007976 -0.068467 -0.011088
0.026386 0.020393 -0.043765
-0.004772 -0.071265 -0.007230
-0.001408 0.072998 0.047074
-0.006968 0.037114 -0.005109
-0.002965 0.027305 -0.049565
-0.008795 0.030409 -0.013693
0.031518 -0.000184 0.020979
-0.040591 0.088073 0.036411
-0.001550 -0.059176 -0.006551
0.025845 0.022137 -0.040692
-0.005252 0.076558 0.068785
-0.005358 -0.082522 -0.065560
0.037898 -0.011169 0.016339
-0.001209 0.046493 0.028185
0.031699 0.010808 -0.070906
0.007476 -0.073265 0.005637
0.032803 0.011616 -0.064508
-0.007718 -0.032066 0.017413
-0.007613 0.037251 -0.074601
0.033378 0.037666 0.010985
0.000170 -0.074050 -0.013897
0.002836 0.030728 0.037161
-0.006921 -0.037329 0.006906
0.004270 0.049013 0.016812
0.033179 0.006765 0.014032
-0.009736 -0.043530 0.001061
0.014883 -0.043820 -0.002730
0.030716 -0.060233 -0.012938
-0.003801 -0.070012 0.002978
0.027514 -0.067290 0.026784
0.031014 -0.035280 -0.005928
-0.006167 0.073350 0.041807
-0.038842 0.082665 0.041506
-0.003149 0.077623 0.046734
0.018478 0.053835 0.035452
0.011667 0.047051 0.011315
0.040135 -0.038398 0.005153
0.012354 0.030110 0.048806
-0.003741 0.030679 -0.062923
-0.010067 -0.003894 0.012148
0.033089 0.038237 0.012612
0.036921 -0.059777 -0.004365
0.029518 -0.056705 -0.031953
0.003408 0.020437 -0.018025
0.019121 0.050809 0.025813
0.024725 0.017301 -0.043640
0.030253 0.011021 -0.074189
0.029229 -0.032220 -0.005686
0.016633 -0.052487 -0.003863
-0.003935 0.043409 0.001358
0.024723 0.031794 -0.016465
0.029783 0.011065 -0.069539
0.035081 -0.067859 -0.049364
0.000775 -0.065797 -0.019538
-0.007289 0.041604 0.004384
0.023566 0.015870 -0.037973
0.006807 0.003007 0.028347
0.001186 0.048556 0.023669
0.004775 -0.062963 0.031266
-0.001290 -0.085226 -0.037362
0.000733 -0.000651 -0.015232
0.035656 -0.026199 0.023896
0.038101 -0.044720 0.029502
0.035099 0.016223 -0.071238
0.004035 0.017490 -0.017237
-0.005624 0.057955 0.050273
0.000139 0.023009 -0.023587
0.011336 0.053671 0.062587
0.033074 -0.068111 -0.069859
-0.000160 0.032308 -0.064242
-0.009380 0.023844 -0.007182
-0.003829 0.068344 0.071091
0.036978 -0.033389 0.008331
0.000393 0.038091 0.032069
0.002769 0.011827 -0.012669
0.005133 0.056294 0.067893
0.036713 -0.069409 -0.056965
-0.008415 -0.061269 -0.011754
-0.000604 -0.089880 -0.055637
0.000454 0.069561 0.045429
0.006664 0.038117 0.054714
0.003694 -0.074044 0.004902
-0.002098 0.025723 -0.044897
0.029674 0.008069 -0.057744
-0.009794 0.084320 0.060004
-0.024923 0.073583 0.040544
0.033275 0.003274 -0.001536
0.030453 0.018545 -0.046534
0.001031 -0.072601 -0.005596
0.026944 -0.049622 0.035797
0.029165 0.014421 -0.002624
0.041660 -0.051786 0.017061
-0.003936 -0.082102 -0.054945
0.004789 0.051450 0.021277
0.015176 0.056907 0.050215
0.031274 0.038264 0.001111
0.008342 0.044454 0.003563
0.031635 0.019420 -0.036326
-0.007651 -0.083942 -0.071717
-0.022649 0.086197 0.041501
-0.007031 -0.079426 -0.074325
-0.029519 0.075390 0.050731
0.033494 -0.062818 -0.047528
-0.015991 0.082677 0.041504
-0.007009 -0.069021 -0.005340
-0.014288 0.086788 0.053504
-0.004696 0.031631 -0.059000
-0.017772 0.071609 0.068715
0.037059 -0.066287 -0.071592
-0.004549 -0.073941 -0.022492
0.000923 -0.085097 -0.061619
0.027937 0.012937 -0.044792
0.037576 -0.027578 0.018560
0.010286 -0.024143 0.032377
0.030451 0.006465 0.019925
0.002926 0.047933 0.016117
-0.007463 0.084461 0.068833
0.040032 -0.039644 0.002411
-0.009061 -0.066231 -0.013288
-0.000303 -0.062340 -0.016266
0.023646 0.029132 -0.020415
-0.001906 -0.081414 -0.066576
0.029908 -0.065263 -0.036057
0.029444 0.024442 -0.023511
-0.002842 0.018559 0.027610
0.041324 -0.052716 0.006127
-0.012229 0.064631 0.041455
0.028863 0.044590 0.009056
0.021571 0.022356 -0.027862
0.001432 -0.083444 -0.073276
0.027521 0.011981 -0.073730
-0.018991 0.067914 0.065495
0.038554 -0.035340 0.011588
-0.003629 -0.082239 -0.059710
0.022621 0.010417 -0.016163
0.014220 0.058924 0.049311
0.038060 -0.032844 0.015756
0.000153 0.046424 0.013103
0.017082 0.020097 -0.018344
0.007882 0.067275 0.059402
0.032408 -0.070003 -0.050417
0.028350 0.014217 -0.036253
-0.006545 -0.031392 0.020785
-0.000956 -0.076439 -0.036046
0.029185 -0.029162 -0.005654
0.021396 0.036687 0.036334
-0.009208 -0.060760 -0.006547
0.026800 0.018496 -0.047799
-0.006687 0.038640 -0.069905
0.033660 -0.025156 0.026490
-0.006496 -0.055618 -0.009138
0.002572 0.046675 0.009615
-0.005434 -0.072985 -0.027076
0.030971 0.022473 -0.013337
-0.004997 0.060633 0.043493
-0.006127 0.071573 0.071247
0.030781 -0.067730 -0.072226
0.030195 -0.065947 -0.054604
0.028677 0.017080 -0.029059
0.025713 0.041700 0.027295
0.006789 0.021473 0.038267
-0.006391 0.008948 0.013811
0.038016 -0.053278 -0.012246
0.030357 0.016729 -0.057399
-0.015069 0.086669 0.047344
0.003748 0.049155 0.063802
0.024076 0.015161 -0.033689
-0.018458 0.066526 0.069239
0.031118 0.016981 -0.051917
-0.017873 0.087728 0.057444
-0.019088 0.087254 0.054616
-0.000702 -0.087287 -0.073757
0.016002 -0.031829 -0.009662
-0.005778 -0.084342 -0.055283
0.037908 -0.048465 -0.010678
0.027459 0.011915 -0.071981
0.017703 0.039407 0.046895
-0.035441 0.090672 0.035759
0.027533 0.037037 0.027604
-0.005137 -0.086638 -0.063056
-0.011756 -0.056354 -0.000844
-0.001581 -0.036113 -0.001954
-0.012184 0.079595 0.071088
0.014576 0.055029 0.055013
-0.007435 -0.070188 -0.021202
0.027980 0.022601 -0.040596
-0.004735 -0.071237 -0.002979
0.032575 0.039561 0.013591
-0.015204 0.074233 0.070626
0.035645 -0.065102 -0.063808
-0.005264 0.033042 -0.060645
0.024511 0.003989 0.026137
0.026214 0.014651 -0.071505
0.023742 -0.055453 -0.004749
0.030695 0.017087 -0.066792
0.022313 0.037204 0.034235
-0.001789 0.057825 0.068236
0.012076 -0.034476 -0.007866
0.041090 -0.050840 0.021723
-0.002442 0.042634 0.023508
0.003009 0.032916 -0.016613
0.040645 -0.058266 0.014957
0.025202 -0.070833 0.020669
-0.001859 0.076528 0.061776
-0.000816 0.045193 0.038715
-0.008592 -0.065367 -0.008987
-0.007092 0.084206 0.072156
0.005894 -0.025970 -0.012814
0.030745 -0.064685 -0.060311
0.001422 0.038346 0.042952
0.005139 -0.013647 -0.017245
-0.004908 0.034596 -0.066574
-0.008407 -0.066115 -0.005869
-0.005495 -0.059858 0.026051
-0.019896 0.087175 0.051542
0.012460 -0.062772 0.001002
-0.001886 0.034293 -0.035615
-0.010975 -0.051249 -0.001496
0.004100 0.069018 0.052189
-0.000993 0.023726 -0.033444
-0.005395 0.029333 -0.045787
-0.017821 0.065877 0.042065
0.039193 -0.039336 0.026310
-0.005838 0.014744 0.017169
-0.004306 -0.006559 -0.011375
0.031000 -0.061121 -0.041106
0.033833 0.001832 0.015903
-0.004679 0.041829 -0.001162
0.030893 -0.011917 0.025720
0.000006 0.029283 -0.051124
-0.007510 0.002796 -0.001488
-0.007926 0.020321 0.016437
0.000686 0.031397 -0.057971
0.033037 0.011241 -0.072141
0.036383 -0.058535 -0.025120
0.026816 -0.033730 -0.007157
-0.001153 -0.073286 -0.012097
0.018397 0.027438 -0.017525
-0.006122 0.035104 0.024047
0.013549 -0.018975 -0.016358
0.019247 -0.068523 0.027389
0.024141 0.046211 0.022364
-0.011245 -0.023989 0.006050
-0.010427 -0.061690 0.013165
-0.006036 -0.040637 0.000536
0.035550 -0.051698 0.031229
0.036107 -0.054012 -0.024861
-0.004457 0.028469 -0.027007
0.001354 0.010100 0.027325
-0.012002 0.073208 0.038909
0.037205 -0.003341 0.003735
0.001025 0.037224 -0.074004
0.021003 0.041531 -0.005654
0.025886 0.008970 -0.008637
0.034639 -0.070205 -0.052526
0.000581 -0.082710 -0.042529
0.015959 -0.010434 -0.017925
-0.012033 0.062783 0.051672
0.000276 0.063837 0.070169
-0.002358 -0.082255 -0.024011
0.026607 -0.071017 0.014218
-0.006340 0.080864 0.044234
-0.000822 0.060587 0.069727
-0.006603 0.011236 0.009563
-0.007573 0.061560 0.050121
-0.003029 0.038294 -0.063834
0.034034 -0.044916 -0.014139
0.026141 0.014129 -0.047179
0.029601 -0.058715 0.032289
0.017407 0.048698 0.017032
0.026302 0.016757 -0.049746
0.031090 0.028584 0.023102
-0.019817 0.084351 0.041210
0.004423 0.008498 0.029233
-0.009051 -0.045634 -0.000961
-0.008036 -0.008555 0.017793
0.036870 -0.048538 -0.017608
-0.002930 -0.074971 -0.033357
-0.021267 0.068284 0.061834
0.038867 -0.009456 0.004123
-0.002152 -0.024958 0.025737
0.020212 0.051000 0.035446
0.017104 0.029447 0.043402
0.015038 0.040179 0.054097
0.029984 0.018023 -0.031835
0.003105 0.029212 -0.033578
0.016257 0.024452 -0.017594
-0.005504 0.037024 -0.067735
0.030162 0.018881 -0.069922
0.033862 0.016161 -0.068257
0.038935 -0.037116 0.002723
0.018300 0.024860 -0.018538
0.035931 -0.068513 -0.062670
0.002167 -0.081616 -0.029422
0.032364 0.011544 0.013330
0.027876 0.011830 -0.070477
-0.006411 0.038848 0.020761
0.018673 0.049731 0.021298
0.036245 -0.065010 -0.066039
0.007086 0.039689 -0.008616
0.001540 0.033673 -0.061064
-0.001360 0.038377 -0.011252
0.001278 0.071529 0.051946
0.010683 -0.071229 0.005805
0.011276 -0.030693 -0.011023
-0.003623 0.077481 0.066125
-0.012517 -0.053841 0.005862
0.022129 0.046786 0.032935
0.030330 -0.044444 0.035588
-0.007549 -0.041239 0.026997
0.005684 0.000554 -0.018126
-0.015850 0.065853 0.069667
0.015222 0.043895 0.054854
0.002110 0.026359 0.035112
0.025072 0.026417 -0.029741
-0.005516 -0.022713 0.022021
-0.006371 0.083356 0.068821
-0.002343 0.076425 0.048063
0.017656 0.016950 -0.018356
0.005271 0.016313 -0.017153
-0.040956 0.088534 0.038671
0.027316 0.045846 0.012022
-0.008711 -0.040329 0.024370
0.036619 -0.052478 -0.021962
0.006584 -0.009238 -0.018201
0.012642 -0.024470 -0.014426
-0.019588 0.071423 0.039955
-0.003534 0.056164 0.065891
0.020167 0.019490 -0.020835
-0.015504 0.071807 0.071883
0.012121 0.040876 -0.006855
0.007641 -0.071625 0.001028
-0.023342 0.073817 0.062887
0.027517 0.003085 0.023994
0.029895 -0.069951 0.009953
-0.022678 0.087506 0.045005
-0.033669 0.090759 0.040531
-0.009144 0.080832 0.072209
0.001307 0.034321 -0.063117
0.029486 0.024771 -0.027383
-0.036105 0.080583 0.043511
0.000582 0.073581 0.056374
-0.000210 -0.084541 -0.036681
0.000953 0.069767 0.067897
0.037780 -0.061480 0.006925
-0.003843 0.044170 0.015213
0.041028 -0.055970 0.006429
0.030452 -0.069888 -0.055453
0.029052 0.011057 -0.065788
-0.017611 0.087343 0.059433
-0.008654 -0.017609 0.018145
0.039693 -0.037469 0.020762
-0.004062 -0.014280 -0.011709
-0.013832 0.063367 0.043773
-0.002131 0.076456 0.053793
0.006371 0.030866 -0.015957
-0.002808 0.024466 -0.039534
0.027345 0.013891 -0.067616
0.035060 -0.061662 -0.003975
-0.006848 0.042211 -0.072985
-0.000027 0.009806 0.025645
-0.001537 0.042332 0.028992
0.000139 0.042500 -0.073498
-0.014412 0.079988 0.040290
0.033581 -0.068533 0.017047
-0.005103 0.054176 0.060431
-0.001254 -0.082070 -0.051138
-0.002553 -0.078645 -0.040637
-0.003124 -0.088076 -0.072619
0.037756 -0.031435 0.020490
0.017046 -0.071048 0.019473
-0.010876 0.030185 -0.005515
-0.006709 0.082490 0.050923
0.032241 0.033860 -0.006177
0.037652 -0.057556 -0.005660
0.021359 0.045178 0.036333
0.001089 0.057889 0.032931
0.001564 -0.086534 -0.057301
0.000323 0.030974 -0.054852
0.000753 0.031849 -0.048897
-0.008729 -0.048400 -0.002486
-0.011689 -0.008307 0.006053
-0.038781 0.084299 0.043791
-0.009220 0.039443 0.010451
-0.009595 -0.026326 0.014645
-0.000824 0.046159 0.052555
-0.011365 0.069956 0.071199
0.001397 -0.070153 0.023049
0.002184 0.033044 -0.036477
0.000926 0.070516 0.047857
0.031394 0.017415 -0.002770
-0.014400 0.086799 0.051310
0.031518 0.016099 -0.049558
0.015657 0.057167 0.046197
-0.025403 0.069889 0.045587
0.000297 -0.079996 -0.074293
0.021853 0.015820 -0.019853
-0.003379 0.070461 0.042734
0.014654 -0.056634 -0.003377
-0.038946 0.090164 0.036535
-0.003193 -0.061019 -0.017699
-0.004737 0.030567 -0.051445
0.007629 0.029945 0.046906
-0.008063 0.075675 0.040865
-0.002937 0.074427 0.045512
-0.010858 0.025846 0.003175
-0.006458 0.079578 0.069954
-0.002759 -0.069812 0.015193
0.008909 0.005564 0.030653
0.011058 0.039479 0.057283
-0.009524 0.030109 -0.010530
0.022400 0.017979 -0.028423
0.015153 -0.040030 -0.003508
0.036257 -0.029562 0.025227
0.032787 0.014892 -0.061170
-0.037557 0.087217 0.033813
0.027880 -0.058252 -0.011589
0.011480 0.045858 0.060758
0.001245 -0.073666 0.009189
0.020124 0.003863 0.028548
0.032491 -0.067453 -0.039848
-0.011827 -0.057242 0.010394
0.032852 0.009291 -0.057773
0.025935 0.015438 -0.048794
-0.028769 0.078226 0.038641
0.030998 0.019900 -0.041355
0.009790 -0.029952 -0.011435
0.033870 -0.064941 -0.030183
0.015263 0.037267 0.052148
-0.004316 0.025025 -0.023221
0.028880 0.020988 -0.020629
0.030851 -0.067308 0.004165
-0.000034 0.048011 0.026610
-0.010713 -0.057544 -0.003265
0.022971 -0.019346 -0.013860
0.004130 -0.073278 0.000443
-0.012950 0.085806 0.046239
0.022957 -0.004900 -0.015549
0.037267 -0.047610 -0.014387
-0.004318 0.033369 -0.040275
-0.009331 -0.045325 0.024341
0.023773 0.016318 -0.024490
0.005328 0.023172 -0.017819
-0.013279 0.074723 0.070886
-0.004566 0.031381 -0.053875
-0.021945 0.071080 0.040729
-0.016941 0.087601 0.055690
0.007605 -0.011610 -0.018105
0.019167 0.052167 0.040430
0.034461 -0.061389 -0.024584
-0.008230 0.077058 0.070428
-0.000435 0.035837 -0.057973
-0.011540 -0.019715 0.002371
-0.001599 -0.080438 -0.045124
0.002228 -0.039088 -0.002502
-0.004857 0.036843 -0.011138
0.033511 -0.069527 -0.048540
0.040961 -0.047604 0.022001
0.016087 -0.004157 -0.018176
0.028373 -0.053381 -0.025814
0.018836 0.006046 0.029690
0.018954 0.048140 0.015860
-0.001783 -0.063769 -0.020167
-0.007785 -0.068312 -0.021238
-0.005729 0.026951 0.025937
-0.028899 0.077538 0.055610
-0.010487 0.035197 0.009539
-0.007790 -0.067590 -0.007881
0.028889 -0.061792 -0.071448
-0.003291 0.025018 -0.042245
0.032774 0.015632 0.013736
-0.005068 -0.037145 0.001625
-0.008439 -0.060082 -0.009214
-0.004476 0.015672 0.022637
-0.008020 0.030969 -0.016226
-0.033577 0.078825 0.040699
-0.002069 0.044242 0.019743
0.028235 0.043388 0.003801
-0.010424 -0.043027 0.012141
0.034417 -0.072084 -0.058494
-0.011079 -0.044234 0.002672
-0.008713 0.038014 0.016297
0.011455 -0.012382 -0.018260
0.027485 0.017797 -0.050881
-0.004949 0.072843 0.070519
-0.002278 -0.001088 -0.012252
-0.041182 0.086397 0.037332
-0.007891 -0.052773 -0.005184
-0.010076 0.062570 0.045847
-0.002645 -0.088254 -0.051130
0.029729 -0.063820 -0.001648
0.008623 0.031206 0.048959
0.029125 0.041998 0.021271
-0.003372 -0.090570 -0.057867
-0.003949 0.024365 -0.027096
-0.003815 -0.074530 -0.018431
-0.002115 0.053719 0.038474
0.002680 0.048225 0.017519
0.028865 0.009251 -0.054816
0.013189 0.015071 0.036747
0.002014 0.015979 -0.011337
0.030061 -0.064852 -0.041295
0.033609 0.006822 0.011499
0.037698 -0.029585 0.016494
0.035182 -0.063224 -0.000476
-0.004190 0.034393 -0.056679
-0.006460 0.015009 0.013601
0.002887 -0.074254 -0.024905
-0.003028 0.029080 -0.056784
-0.005084 -0.089088 -0.060157
-0.001152 0.034580 -0.049723
0.035231 0.013815 -0.072916
0.030883 0.025244 -0.017327
-0.002613 0.010030 0.022380
-0.010672 0.034078 0.009330
0.026324 0.045978 0.008722
0.029576 -0.022936 0.029275
-0.008414 -0.065810 -0.007550
0.026694 0.042765 0.000993
0.000087 0.041887 -0.005083
-0.009733 0.084739 0.048778
-0.007515 -0.058274 -0.010636
-0.004321 0.052151 0.056549
0.019833 0.016384 -0.018987
0.028137 -0.037206 -0.006626
-0.008337 0.019979 0.000046
-0.006857 -0.065240 0.018762
0.041619 -0.046102 0.007081
0.029416 -0.070597 0.018263
-0.004193 -0.083335 -0.033051
0.027192 0.045722 0.015608
-0.004078 0.053376 0.050008
-0.035963 0.081695 0.045994
-0.007779 0.067662 0.070804
0.029491 -0.045073 -0.012373
0.012103 0.037562 0.055425
-0.021150 0.082069 0.061434
0.000979 0.035576 -0.014804
-0.039280 0.082768 0.039171
-0.006773 0.056415 0.054412
-0.008938 -0.030907 0.008884
0.000621 -0.075222 -0.015879
-0.026197 0.085844 0.038461
0.020387 0.033390 0.038409
-0.001160 -0.084201 -0.033104
0.036642 -0.061592 0.024630
0.004582 0.070302 0.062075
-0.008891 0.039235 0.013436
-0.007964 0.034216 -0.012346
0.031184 0.021523 -0.032689
-0.004291 0.035866 -0.015293
0.003201 -0.071322 -0.017202
-0.001964 0.017454 -0.008112
0.033567 0.019789 0.007774
-0.001063 -0.072772 0.002859
-0.003491 0.037933 0.025928
0.021496 0.048037 0.019237
-0.006781 0.042251 0.013900
0.000970 0.037313 -0.070110
0.000939 0.025915 -0.039511
-0.001657 0.045337 0.032383
0.030102 -0.060032 -0.009764
0.023559 -0.035185 -0.007380
-0.010730 -0.054941 0.018540
0.037786 -0.058553 -0.003949
0.026270 -0.060004 -0.006030
-0.005981 -0.071651 -0.025283
0.029467 0.018374 -0.049859
-0.008169 -0.064937 -0.018806
-0.003293 -0.064488 -0.021720
-0.037650 0.090598 0.040634
0.031026 0.017355 -0.038368
0.017753 -0.063397 0.002347
0.033430 0.012083 -0.068427
0.027975 -0.052294 -0.022253
-0.000269 0.024343 -0.035707
-0.035656 0.087423 0.045796
0.037710 -0.044498 -0.005751
-0.007934 -0.061200 -0.014074
0.000552 0.011735 -0.008832
-0.015351 0.065002 0.066382
0.006813 0.013283 -0.017403
0.012421 0.061714 0.054478
0.032285 0.015550 0.005694
-0.004056 0.037965 -0.008340
0.002426 0.001857 -0.016167
0.035875 -0.060774 -0.069681
0.015878 0.012542 0.034607
0.036817 -0.059766 -0.072656
0.017127 0.054021 0.045631
0.021777 0.008256 0.028736
-0.001787 0.023268 -0.027950
0.003236 0.066350 0.044357
0.030498 0.023121 -0.036811
0.033070 -0.068453 0.008960
0.032360 -0.065496 -0.027216
0.001034 -0.027766 0.030055
-0.001439 -0.069991 -0.026459
-0.019898 0.085191 0.060320
0.040030 -0.050047 0.025222
0.028552 -0.063304 0.030155
0.035403 -0.058743 -0.020232
0.004145 -0.009995 -0.017429
-0.002348 -0.047250 0.032149
-0.030294 0.085507 0.035345
-0.003711 0.044426 -0.074492
0.036804 -0.061665 0.002713
0.002794 0.030527 -0.021020
-0.005188 0.011122 0.017723
0.036589 -0.028972 0.022815
0.027745 -0.061672 -0.027037
0.029481 0.030346 -0.016750
0.031037 -0.029433 -0.003669
0.008335 0.036105 0.053872
0.009209 0.026154 0.044486
0.037606 -0.059774 -0.001122
0.037880 -0.061708 -0.073396
-0.027127 0.071705 0.048610
0.033521 0.011619 -0.061950
-0.000098 0.034453 -0.041016
0.040468 -0.052971 0.001171
0.029068 -0.063382 -0.023672
0.007476 0.016426 -0.017667
-0.005064 -0.081970 -0.043074
-0.004304 0.027214 0.027971
0.035088 -0.035455 0.031295
0.017055 -0.017184 0.030830
-0.010003 0.062500 0.052696
0.010861 0.020795 0.040466
-0.008835 -0.063081 -0.009293
0.027924 -0.057356 -0.029550
-0.017882 0.065055 0.054390
-0.022058 0.066954 0.051910
0.003289 -0.070539 -0.010230
-0.016269 0.075796 0.039141
-0.007776 -0.066233 -0.020734
-0.033839 0.079539 0.038478
-0.025955 0.084265 0.055494
-0.009446 0.035309 -0.001242
-0.003880 -0.080688 -0.045439
-0.001067 0.035310 -0.074418
-0.000203 0.043784 0.047561
0.022511 0.047498 0.024196
0.036917 -0.057786 -0.027557
0.029428 -0.066736 -0.061248
0.029145 -0.040787 0.035985
-0.001711 0.004986 -0.009644
0.033615 0.011825 -0.057858
-0.005379 -0.086541 -0.054383
0.035012 -0.027823 0.026280
0.030750 -0.065732 -0.032285
0.000725 0.033303 -0.028593
-0.004199 0.033395 -0.051654
0.000170 0.030716 -0.061654
0.026294 0.013032 -0.007589
0.000658 0.040531 0.035847
-0.001922 0.048664 0.035282
-0.010993 0.062694 0.056278
0.032451 0.012896 0.011773
0.029264 0.026879 0.026381
-0.004231 0.023703 -0.018377
0.035940 -0.044278 -0.009613
0.014382 0.059163 0.045182
0.035787 -0.067181 -0.067447
0.011161 -0.015079 -0.017826
-0.007420 0.042351 -0.074273
0.023834 0.043898 0.029276
0.027450 0.011212 -0.052909
-0.005175 0.023818 -0.014709
0.033709 -0.068018 -0.043731
-0.011252 -0.046134 0.000976
0.023250 -0.044858 -0.003511
0.018318 0.050927 0.024235
0.000911 0.040149 -0.071254
0.036613 -0.013221 0.020281
-0.002953 0.024299 -0.037390
0.002230 -0.068224 -0.019910
0.020125 0.048703 0.039336
0.002540 0.072578 0.058514
-0.011175 0.085505 0.054668
0.034427 -0.065286 0.003085
0.034506 -0.064886 -0.034514
0.008094 0.052105 0.065586
0.001091 -0.076277 -0.033917
0.038112 -0.040437 0.029114
-0.039272 0.084859 0.034790
-0.012415 -0.049169 0.002435
0.023995 0.025142 -0.031817
-0.006565 -0.071192 -0.023717
-0.004717 0.029691 -0.031141
-0.000156 0.052280 0.031269
0.011040 -0.068933 0.004691
0.029335 -0.034167 0.034830
-0.006085 0.035418 -0.073608
0.006807 0.033812 0.049854
-0.025031 0.068668 0.059201
0.029533 0.024602 -0.034779
0.016348 0.052516 0.050725
0.019338 0.052577 0.037938
0.031810 0.006673 -0.001893
-0.003866 -0.078215 -0.024898
0.030256 -0.071068 -0.059368
-0.002000 0.034768 -0.047342
-0.005357 0.020779 0.023947
0.031639 0.014591 0.017859
-0.025779 0.070912 0.060634
-0.008340 -0.025631 -0.002442
0.014678 -0.069132 0.009519
-0.004150 -0.084357 -0.036927
-0.012937 0.063874 0.059240
0.033579 -0.041465 0.033822
0.018299 0.006858 -0.017601
-0.012295 -0.052161 0.001621
0.007201 0.046697 0.062900
0.036035 -0.064692 0.010113
0.006790 0.061207 0.066540
-0.002555 0.041784 -0.069732
0.021810 -0.009982 0.029083
0.037999 -0.038528 -0.001017
0.000490 0.036616 -0.067220
-0.003093 0.013914 -0.003041
-0.020816 0.067693 0.042537
-0.006322 0.041690 -0.071342
0.000226 -0.059605 -0.011487
0.032672 -0.068011 -0.042080
-0.007366 -0.083202 -0.074563
0.011134 0.029991 -0.015994
-0.005479 0.036320 -0.065509
0.013641 0.044601 0.058072
0.013463 0.059418 0.054778
-0.004091 0.066069 0.039868
-0.040120 0.083794 0.037520
0.032170 0.009922 0.003099
0.037966 -0.015113 -0.000628
0.035384 -0.062163 -0.028797
0.015374 0.027989 0.045149
-0.005263 0.029925 -0.034411
0.028981 0.020131 -0.025127
-0.018695 0.066605 0.072490
-0.029800 0.089221 0.043083
-0.007479 0.056463 0.058309
0.039727 -0.056675 0.023444
0.034294 -0.069672 -0.050270
0.030266 -0.063747 -0.043834
0.032463 0.011433 0.007851
-0.006369 -0.035946 0.005323
-0.004013 -0.033859 0.029137
0.036607 -0.056876 -0.014523
-0.010933 0.026789 0.005287
-0.026107 0.087457 0.048098
0.000277 -0.087463 -0.051304
0.038768 -0.050617 -0.005352
0.033608 0.020117 0.002320
0.000079 -0.072476 -0.008898
0.011395 -0.004809 0.028493
-0.005103 -0.083457 -0.040912
-0.005764 -0.062148 -0.018795
-0.006008 0.026883 -0.017745
0.035323 -0.062703 -0.037946
0.029813 0.016370 -0.060443
-0.005859 0.028548 -0.037502
-0.010443 -0.047209 0.021437
-0.008436 -0.068732 -0.017902
0.026173 0.025883 -0.032311
0.001107 -0.086015 -0.054312
-0.007949 0.003740 0.012599
-0.003749 -0.048929 -0.004424
-0.027792 0.072682 0.053520
0.034695 -0.067708 0.013615
0.033479 -0.061321 -0.043335
-0.005833 0.019327 -0.007261
-0.011764 -0.045462 0.003254
0.008571 0.041677 -0.004282
0.008773 0.013948 0.035619
0.032889 -0.059387 -0.010598
0.032167 0.019700 -0.005802
0.035505 -0.046638 0.032237
0.024636 -0.030370 -0.008314
0.033514 -0.028994 0.029427
0.031852 0.009283 -0.055893
-0.027945 0.083293 0.037015
-0.002109 0.032330 0.030494
0.031811 -0.005522 -0.008583
-0.003811 0.024603 -0.030889
0.006007 0.036519 0.051875
-0.029320 0.074597 0.045921
0.013558 -0.071272 0.021626
0.035030 0.029854 0.000683
0.029321 0.040904 0.001108
-0.006900 -0.067636 0.006554
-0.017197 0.066293 0.063450
-0.000047 0.072179 0.048971
0.020673 0.043033 0.037819
0.030546 -0.037333 -0.006517
0.013919 -0.069559 0.026023
-0.004813 -0.068731 -0.025365
-0.004613 0.028490 -0.048417
0.038914 -0.025506 0.010563
0.001179 -0.058705 -0.010248
-0.008196 0.037423 0.018527
-0.003494 0.021931 -0.016291
0.000852 -0.083270 -0.034228
0.021337 0.027920 -0.019873
0.010328 0.061033 0.061817
0.034383 -0.031722 0.000469
-0.012364 -0.058626 0.002449
0.030694 0.016047 -0.040681
0.023289 -0.020100 0.031193
0.038285 -0.051217 -0.016862
-0.013191 0.086842 0.057603
-0.033195 0.089930 0.035580
0.007418 0.025807 -0.017255
0.024259 -0.040809 -0.004147
0.030367 0.011617 -0.049890
-0.012444 -0.047421 0.005286
0.012897 0.002260 0.029412
-0.007932 0.020047 -0.003714
0.015732 0.021966 0.040568
0.003742 0.050122 0.019736
0.022364 0.026797 -0.024209
0.038562 -0.058825 0.001941
0.013296 -0.065856 0.004553
-0.024222 0.083358 0.038929
0.000647 -0.041753 -0.002178
0.032630 -0.070887 -0.053380
-0.031237 0.076570 0.044415
-0.004361 -0.029162 -0.004845
0.003084 -0.076402 -0.027921
0.030627 0.018779 -0.044127
-0.006207 -0.087059 -0.073007
0.004615 0.048146 0.014154
-0.005451 -0.076386 -0.029589
-0.005381 0.081527 0.068743
-0.010514 -0.063753 0.008010
0.034837 -0.063566 -0.074672
-0.000675 0.043115 -0.002136
-0.003450 -0.075859 -0.022995
0.038196 -0.061711 0.021005
0.040287 -0.043659 0.024198
0.004114 0.028493 -0.019016
0.008244 -0.005945 0.028155
0.002300 0.037258 0.045017
-0.004155 -0.066298 -0.023572
0.038641 -0.021196 0.003497
-0.007040 0.061998 0.068753
-0.012371 -0.055409 0.002551
0.036018 -0.042814 -0.007281
0.027316 0.016650 -0.053990
0.033411 -0.063763 -0.052270
0.000466 -0.089548 -0.058837
0.032739 0.025593 -0.011067
0.015988 0.033637 0.047952
0.034257 0.012528 -0.070225
0.007440 0.067803 0.055529
-0.013906 0.083988 0.064184
0.026880 0.013088 0.025537
0.032286 -0.069762 0.012693
0.036555 -0.066054 -0.056955
-0.007434 0.040457 0.016454
0.036889 -0.028655 0.021134
-0.001127 0.039261 -0.066952
0.000618 -0.085774 -0.050972
0.025619 0.015459 -0.030278
-0.004075 -0.081926 -0.050924
0.029741 0.037001 -0.004208
0.041785 -0.046038 0.013306
-0.011845 0.084399 0.044009
-0.005026 -0.076994 -0.035249
0.030644 -0.068045 -0.050909
0.002525 0.053667 0.026596
0.000680 -0.084103 -0.038945
0.023050 0.032723 0.034318
0.029947 0.022364 -0.039395
0.035713 -0.065162 -0.054303
-0.006092 -0.080404 -0.070508
-0.006076 0.081983 0.065360
-0.011074 0.084333 0.063162
0.028118 0.013383 -0.041073
-0.009883 0.074479 0.070984
-0.009868 -0.060557 0.017338
-0.003617 -0.072945 -0.030007
0.016081 0.031272 -0.015571
0.027869 -0.057803 -0.020449
0.001650 0.034386 0.034643
0.003759 0.056127 0.028515
0.002637 0.027532 -0.033034
0.023409 0.039370 0.031884
0.034949 -0.064889 -0.041275
-0.009751 0.062588 0.067600
-0.002319 -0.072463 -0.004861
-0.009527 0.032050 -0.009034
-0.002129 0.052901 0.063067
-0.021724 0.080443 0.039114
-0.000250 -0.061068 -0.014215
0.032935 -0.000046 -0.004923
0.029898 -0.047351 -0.017847
0.041187 -0.056856 0.010785
0.029164 -0.065780 -0.070651
0.039515 -0.019653 0.013475
0.006917 -0.057603 -0.004471
0.002358 0.024666 -0.022476
0.007959 -0.041033 -0.003102
0.024053 0.046104 0.006597
0.036239 -0.033466 0.003400
0.030591 -0.065337 -0.049922
0.033791 -0.055575 -0.031307
-0.012578 -0.048368 0.004092
0.023844 0.024125 0.032561
-0.000673 0.034017 -0.024488
-0.006066 -0.080005 -0.033767
-0.008877 -0.011646 -0.005960
0.017072 0.049503 0.019231
0.018136 0.018454 0.036575
-0.018542 0.087204 0.047264
-0.004816 0.031835 -0.024498
-0.001998 -0.041063 -0.001354
0.032324 -0.069135 0.019062
-0.034073 0.085265 0.033254
0.021776 0.018046 -0.023924
-0.008142 -0.066938 0.001875
-0.038807 0.082655 0.036270
0.029992 -0.066607 -0.065091
-0.010968 0.066605 0.069852
-0.010171 -0.045805 0.022193
0.016045 0.057390 0.040967
0.034979 -0.012789 -0.005688
-0.004360 0.039856 0.022881
0.007131 0.008630 -0.017887
0.018920 0.022300 -0.019870
0.003494 -0.004845 -0.017338
-0.002190 0.040519 -0.006301
0.005366 0.018131 0.035627
0.041881 -0.047197 0.010840
0.031602 0.020063 -0.038327
0.014441 0.042514 0.056212
-0.010964 -0.022656 0.012404
0.028188 -0.060940 -0.021764
-0.004435 0.021178 -0.011905
0.000545 -0.047236 -0.004086
0.009187 0.063557 0.047174
0.010837 -0.072548 0.019216
-0.016532 0.070277 0.073566
-0.035686 0.081404 0.035789
-0.010725 -0.064093 0.003129
0.010324 -0.072739 0.010383
0.008301 0.027615 0.045180
0.013174 -0.026445 -0.013360
-0.002626 0.070445 0.070233
-0.004800 -0.083609 -0.047822
-0.003592 -0.082335 -0.029294
0.030241 0.020331 -0.030298
-0.025548 0.088043 0.043605
0.004432 0.067286 0.049032
0.000230 -0.080601 -0.071416
0.000008 0.046163 0.017608
0.022100 0.038068 -0.011320
0.002333 0.056531 0.030291
-0.001602 0.073177 0.067547
0.004443 0.010867 -0.015765
0.020491 -0.065428 0.030317
0.028725 0.025991 -0.029891
-0.004710 0.078674 0.043870
0.019998 0.033328 -0.014674
0.029314 0.017490 -0.054127
0.009104 -0.064770 0.001643
0.023279 0.023232 -0.034640
0.032598 -0.063155 -0.064018
-0.004274 0.034930 -0.069630
0.034173 0.023623 0.009859
-0.002340 0.034635 -0.021342
0.012051 -0.053275 -0.004264
0.031941 0.041203 0.011696
-0.000409 0.022850 0.031590
0.034574 -0.005808 -0.005309
0.026351 0.014227 -0.034164
-0.001655 0.058846 0.037859
-0.014785 0.063131 0.051056
0.031202 0.009855 -0.054032
-0.002545 0.026491 0.030192
-0.000274 -0.079638 -0.020283
0.033196 -0.060979 -0.006402
0.000725 -0.074005 -0.030979
0.032572 -0.053350 -0.028358
-0.012074 -0.046051 0.004331
0.002062 0.025666 -0.027973
-0.000000 -0.082044 -0.068409
0.016152 -0.071024 0.017963
0.003081 0.052597 0.066161
-0.010585 -0.050429 0.020890
-0.021077 0.087349 0.049200
0.027586 0.017514 -0.020690
0.011328 0.062485 0.048777
-0.003080 0.061660 0.039322
0.024474 0.015790 -0.020678
-0.003411 0.078054 0.057990
0.007250 -0.066649 0.002221
0.031328 0.022511 -0.035420
0.028957 -0.060793 -0.018196
0.029223 0.015572 -0.034078
0.000867 0.028711 -0.045501
-0.000089 0.054234 0.066192
-0.000367 0.036622 0.030515
0.036362 -0.064809 0.015213
-0.004000 -0.056496 0.029004
0.033248 0.014096 -0.063128
-0.006793 -0.068735 -0.001310
-0.002981 -0.076275 -0.035808
0.031318 -0.067724 -0.044748
-0.009684 -0.041313 0.005315
0.012581 -0.071942 0.014227
0.024881 0.019016 0.030800
-0.000958 0.034983 -0.071303
0.018901 0.044709 0.043528
-0.008256 0.078561 0.041187
0.041826 -0.048567 0.013178
-0.001939 0.022372 -0.021032
0.033353 -0.057735 -0.073547
0.041440 -0.042639 0.007182
0.010909 -0.003802 -0.018802
0.032364 0.015320 -0.056860
0.003038 0.031218 -0.032804
-0.016604 0.072374 0.039160
-0.008080 0.083552 0.067116
-0.025568 0.086393 0.051807
0.026620 0.044879 0.020490
0.006877 0.065423 0.064320
0.021284 -0.031102 -0.009140
0.018869 -0.000576 -0.017204
-0.006243 0.017660 -0.001977
0.024002 -0.009476 -0.015190
-0.001667 0.033985 -0.029875
0.016283 -0.064362 0.031446
0.012592 0.058878 0.058344
-0.013510 0.062632 0.047498
0.002866 -0.053894 0.034057
0.001001 0.044744 0.002033
-0.001610 0.045507 0.014979
0.014126 0.047194 0.011423
-0.010920 -0.062508 -0.002103
0.037855 -0.054638 0.028018
0.026669 0.014707 -0.056715
-0.009561 0.083492 0.065369
0.003958 0.060929 0.068875
-0.026767 0.070512 0.057725
-0.027235 0.072735 0.058417
-0.029889 0.088661 0.037034
-0.000785 0.019170 -0.013884
-0.002749 -0.070262 0.008425
0.014620 0.024274 0.043011
-0.007643 -0.066124 0.014620
0.031347 0.015628 0.002038
-0.006515 0.010336 0.005678
0.001888 0.030322 -0.042914
-0.010227 0.035093 0.003620
0.029560 0.028135 -0.019450
-0.010883 0.031858 0.007142
-0.012034 0.085708 0.060329
-0.018303 0.077384 0.039276
-0.006412 0.016505 0.003420
0.028621 -0.059994 -0.015224
-0.028913 0.074841 0.041673
0.008770 0.065769 0.052737
0.032218 0.038671 0.016928
0.002173 0.031670 -0.024539
-0.025352 0.080290 0.038361
-0.007259 0.027926 0.023425
-0.005464 -0.082618 -0.039174
0.001834 0.039543 -0.009722
-0.003901 -0.072411 -0.011323
-0.004026 0.013235 0.021144
0.003214 0.029562 -0.026329
-0.004819 0.031849 -0.048936
0.035363 -0.029500 0.003139
0.031450 -0.057749 -0.035016
-0.005109 0.036322 -0.062614
0.026553 0.016220 -0.023910
-0.000186 -0.083562 -0.064084
-0.007767 0.035315 -0.009420
0.037876 -0.062895 0.017448
0.030053 0.013811 -0.043736
-0.010333 0.035620 0.006391
0.020729 0.049822 0.028290
-0.012098 -0.016406 0.009129
0.024610 0.014369 -0.018134
0.036665 -0.024306 0.021706
-0.005928 0.081258 0.062487
-0.004215 -0.042024 -0.001031
0.036589 -0.032923 0.028115
0.031627 0.009891 0.016843
-0.004219 -0.087058 -0.067390
-0.004077 0.057332 0.046034
0.032103 -0.065059 0.000312
-0.001000 -0.087164 -0.064895
-0.003331 0.034583 -0.073832
0.015210 0.005908 0.031030
0.031461 -0.043099 -0.010397
0.031008 0.016194 -0.062399
0.011097 0.058392 0.034662
0.030868 -0.039156 -0.006702
0.033040 -0.063715 0.026671
0.033543 -0.067731 -0.041357
-0.018266 0.080657 0.039816
-0.000591 -0.038021 0.032982
0.033432 -0.051117 -0.024314
0.000542 0.011495 0.027417
-0.007077 -0.067410 0.011373
0.020249 0.038904 0.039437
0.026430 -0.016163 0.029110
0.001385 0.025313 -0.032429
0.023195 0.044324 0.031036
0.032807 0.009081 -0.059972
0.023911 0.044231 0.001991
-0.004326 0.025392 -0.034673
0.020387 -0.069857 0.012325
0.003214 0.064228 0.040440
0.039824 -0.059734 0.018927
-0.000642 0.034972 -0.055429
0.000123 -0.083215 -0.047799
0.024242 0.023262 -0.036980
0.026169 0.017488 -0.073328
0.013158 0.060645 0.051246
0.000541 0.036385 -0.063947
-0.011422 0.080325 0.070490
-0.004312 0.015553 -0.002074
-0.011230 0.080336 0.072225
0.022607 0.030270 -0.017490
0.026474 -0.024782 -0.009834
0.034694 -0.064631 0.023451
-0.008199 0.039290 -0.074401
-0.039601 0.089496 0.040979
0.018269 -0.000078 0.028547
0.026707 0.024396 -0.036703
0.040314 -0.039434 0.013984
0.029409 0.008148 -0.060638
0.034693 -0.067586 -0.046254
0.005007 -0.073977 0.014137
0.026879 0.010928 -0.058254
0.035874 -0.058402 -0.022626
-0.006292 -0.067267 -0.023214
0.018306 -0.032477 -0.009054
-0.015654 0.064765 0.056519
-0.006091 0.061255 0.046694
0.030304 -0.064134 -0.064912
0.018128 0.045009 0.002032
0.030285 -0.065750 -0.046746
0.001346 0.001168 0.024471
-0.005290 0.053757 0.053621
0.022969 0.041785 -0.002530
0.001442 0.040013 -0.073830
-0.001247 0.026935 -0.047516
-0.003642 0.032889 -0.032436
0.031738 0.030432 -0.012738
0.027927 0.016801 -0.055690
0.010001 -0.066512 0.029851
0.000496 0.032149 -0.052562
0.037302 -0.031326 0.011686
0.030777 -0.061215 -0.006422
-0.003160 -0.028119 0.026331
-0.016706 0.087235 0.049842
-0.013905 0.075919 0.070508
-0.005651 0.034590 -0.017276
-0.002407 0.022805 -0.024021
-0.000640 0.015005 0.028558
0.029362 0.016423 -0.065048
0.000198 0.062632 0.038132
0.001044 -0.070351 -0.024518
-0.001594 0.034962 -0.052374
0.003050 0.028071 -0.027420
0.020286 -0.058828 0.034119
-0.009367 0.021775 0.001148
-0.012921 0.063822 0.065910
0.002694 -0.072004 0.020913
-0.009143 0.034590 -0.005932
0.036277 -0.020149 0.022103
0.013792 -0.071640 0.018903
0.040521 -0.046404 0.000896
0.027334 0.007945 0.023579
-0.010959 -0.012209 0.013089
0.031411 0.013095 0.003626
0.009790 -0.001679 0.028429
0.004788 -0.071825 -0.002749
-0.011119 0.031143 0.002324
0.035188 -0.065746 -0.047209
0.035751 -0.057531 -0.009797
0.035980 -0.055313 -0.027550
-0.001822 -0.089385 -0.053207
0.022525 0.018667 -0.036374
0.028922 0.020067 -0.016869
0.027036 0.015994 -0.027428
-0.002238 0.049351 0.040631
0.034470 -0.064104 -0.059299
0.007079 0.023648 -0.017415
-0.016045 0.077910 0.068335
0.033004 0.031322 -0.007592
0.031578 -0.066770 -0.036720
-0.025344 0.068878 0.055782
0.010650 0.064181 0.055142
-0.007818 0.058537 0.064349
-0.030650 0.081428 0.052796
0.017774 0.054802 0.041957
0.003474 0.059086 0.033041
0.029712 0.010842 -0.071560
0.032928 -0.004566 0.021323
0.003015 -0.079181 -0.027465
0.024441 -0.005164 0.027566
-0.006846 0.081969 0.058027
-0.008937 -0.065985 -0.003160
0.002249 -0.057719 -0.008195
0.029550 -0.063818 -0.038278
-0.031713 0.085192 0.050094
