31.506690 -60.788002 276.317522
-3.718012 -47.676513 275.938466
37.438831 -21.725663 268.389180
19.749999 -55.968087 273.381576
5.857815 -12.698843 266.212598
0.868145 -69.105759 281.693816
-18.167506 -25.276818 273.378472
-21.477577 -38.256086 281.577569
-29.146424 -48.180028 284.377068
-8.886515 -55.115836 285.527691
4.617270 -0.609595 270.002372
25.677733 -48.414980 277.529132
19.486158 -54.201275 279.941434
0.357911 -13.539206 267.189354
-8.154373 4.378650 265.591264
19.267593 -21.484163 265.353014
-12.479013 -0.168687 267.982085
-0.111606 -67.963455 285.263077
15.737978 -43.489704 274.119159
-33.391643 -20.913325 282.727309
9.415254 -1.573072 262.399882
33.976075 -41.755143 273.450108
44.169298 -39.906278 271.279305
14.959695 -43.987653 271.596342
-17.040095 -43.102689 284.878821
23.573298 3.965057 265.347809
34.943733 -35.856571 272.635490
28.646290 -28.237919 272.610104
24.345420 -19.458899 271.153636
22.606814 -11.608452 262.247279
-2.179996 -56.435041 277.555168
-13.797614 -64.259328 288.548768
-16.690385 -4.721499 275.571257
12.029405 -51.317179 273.650527
-16.000590 -32.817098 282.619837
28.575737 -30.367738 265.232086
9.888355 -53.519923 282.340288
25.647555 -12.720315 262.079636
12.059895 -11.836154 264.361988
25.249384 -13.942051 262.379706
-19.821238 -54.491993 287.480503
25.396613 0.081432 262.155652
32.055965 -36.132683 265.841335
-10.333426 -24.294070 274.554163
6.850830 -1.365117 269.906680
30.469310 -16.071220 265.018761
-6.958599 -57.963718 278.547138
15.631674 -59.447983 280.208736
-22.570481 -49.576506 286.770398
-31.378103 -13.876063 278.382674
8.034499 -5.795868 271.486922
-14.877645 -44.884205 277.047008
24.582831 -0.745881 260.295788
41.426147 -49.036509 274.208540
-5.719678 6.993115 269.900203
4.914618 -12.104923 277.308930
-17.650400 -9.751108 271.155057
8.961125 -1.292090 262.255818
9.741671 -0.600574 269.266704
32.203771 -53.664893 269.990802
19.941150 -19.404248 264.857039
-17.359899 -42.704921 284.230262
-18.822292 -16.913214 272.372291
-16.417142 -30.545420 274.324134
-17.123287 -12.871968 277.735770
-4.990110 -6.383795 273.896858
32.078743 -34.193683 265.534729
-5.184138 -10.871699 275.058911
21.816857 -31.349380 267.018199
33.254359 -59.530254 277.815744
-18.969761 -55.950765 280.920803
-12.789261 -45.480198 277.209893
21.728344 -49.058030 279.033721
33.465009 -55.045207 270.458221
-4.116606 -9.721158 274.804403
-25.012762 -3.509389 277.133475
19.085918 -8.324651 269.398957
31.102958 -15.506684 268.033189
-0.016103 -14.944920 271.383613
24.668609 -12.561676 269.377175
42.507915 -28.121935 269.001081
17.562424 -18.544149 264.797770
2.919408 -3.145603 271.544278
-11.679375 -17.090422 270.568639
14.743587 -17.480627 265.840292
21.417590 -17.117963 271.627327
31.530727 -32.170277 265.602723
27.939418 -34.716869 274.483928
-9.537273 -56.838915 284.581140
-0.547665 -47.138888 275.829583
44.910301 -38.964851 271.192521
28.261555 -26.918313 272.046513
29.844042 -62.663676 279.599557
40.523902 -27.550967 263.443530
44.185266 -22.940672 267.689282
9.112887 -62.982135 283.695929
-31.127015 -15.829932 276.850234
-3.176823 -49.551680 276.631475
6.018254 -2.509647 263.665477
42.746563 -44.503149 273.079056
-7.132718 -9.145197 267.988592
14.332475 -12.841405 272.272362
30.443695 -30.350323 272.550325
5.387051 -9.668436 272.512764
6.909963 8.932385 267.825439
20.447254 -51.812615 272.332052
15.758187 -43.463060 275.443852
-28.212817 -49.504362 284.600591
34.124964 -47.295090 268.082122
44.848677 -30.042179 267.205328
-1.298279 3.611720 270.547304
-18.957526 -42.567299 277.343581
-5.139743 -57.891294 285.663529
38.294915 -18.931347 267.483718
21.691344 -53.318162 272.722408
-5.577746 -42.028962 283.973723
-10.513052 -23.584141 276.581645
39.808716 -51.400211 274.991699
-26.655078 -32.029824 283.684165
-10.181123 -37.908119 277.987694
31.579830 -58.229689 271.617651
6.091737 -55.839185 276.361078
20.442657 -0.127352 260.044575
31.286495 -1.160201 265.504420
32.999280 -57.054443 271.165083
16.668437 -60.200084 281.444182
-17.302042 -9.568439 269.879341
-5.875701 -55.471268 284.997284
20.339219 -10.728405 269.470676
6.915175 -0.733352 263.058528
35.875158 -56.375016 276.828110
-9.921179 -56.240242 283.339644
26.057558 -44.516911 276.280731
11.569744 -10.871732 272.259086
44.746626 -30.194385 266.935438
14.619773 0.253074 262.669474
-25.374280 -51.232930 287.728145
33.085334 -37.812732 268.070135
-29.757786 -23.302940 275.264904
16.479386 -45.291608 276.262299
14.994806 -46.807777 271.949033
-21.457454 -52.991068 280.465230
-10.366367 -24.172161 275.267869
22.263606 -47.154134 270.709442
-10.651833 -23.230702 280.856937
-9.288679 -17.179021 270.030617
4.714040 -1.563773 263.755038
28.930461 -14.493683 261.864878
-25.472255 -3.798898 277.182877
21.199644 -33.179503 267.389178
-12.074404 -19.591604 271.208990
-30.364191 -23.291768 282.255918
-9.193268 -66.456631 288.224667
-9.768866 -12.802382 269.181855
22.553562 -50.872104 271.484196
-18.131574 -55.196097 286.810929
22.530826 -47.507301 278.462872
-30.121711 -26.321017 275.626868
-3.079399 -4.760826 273.012370
32.872419 -35.401229 272.043881
1.160754 -2.297356 271.141102
-27.782533 -32.835959 276.950389
33.286912 -51.421523 269.152373
-11.124740 -28.240474 281.853319
-15.461641 -44.157668 277.282596
33.197266 -43.189513 267.434731
-18.607569 -12.514893 273.346672
16.259961 -44.012554 273.104211
-1.901516 -48.378964 282.821253
-1.147091 -68.794998 283.036252
4.362916 -13.513181 266.281426
7.315835 -1.347453 265.811527
-10.628260 -25.011176 281.090409
45.275987 -30.156581 269.030660
19.232288 -57.487076 280.447148
17.734717 -0.970201 261.129558
-25.504377 -53.734600 288.876951
12.402370 0.154424 264.371104
22.250308 -46.466768 278.062611
-25.844955 -34.573023 277.157553
32.501298 -59.310709 276.303838
-6.860284 -67.206800 287.722508
39.579433 -10.163870 266.763747
23.098982 -34.029107 277.773573
31.390209 -57.239058 271.360964
32.097889 -1.506871 265.818804
-16.434833 -43.134336 283.439321
-24.601619 -51.708180 287.493586
35.482921 -50.674574 275.197009
-28.006325 -29.074088 276.400059
-29.073067 -48.631566 286.258482
42.961445 -45.318555 272.832006
-9.955178 -55.071214 285.697564
22.801708 3.949657 265.483767
23.132050 -21.580911 268.111043
16.846235 7.611344 267.239968
10.920708 8.978198 267.400801
25.924571 -26.983304 265.017748
-22.799672 -23.864975 281.662016
14.884075 -60.195652 275.132457
6.627060 0.140868 269.330074
39.934546 -20.060612 267.665565
32.850876 -46.696718 268.733988
19.068236 -54.561805 273.354590
-12.725820 -64.631464 288.456728
-25.429360 -35.269383 279.475671
-27.847923 -23.967588 281.900169
13.391721 -63.254919 282.735661
-0.668125 -13.661982 275.937676
-18.999303 -12.414754 270.881776
32.286208 -34.808284 265.739262
39.122003 -26.124157 262.479623
17.382119 -57.060897 274.378638
11.897759 -0.146371 268.579677
-7.086399 4.694508 271.076188
-29.918308 -24.474325 275.217176
33.395100 -17.477533 268.365314
-19.446893 -19.571877 274.407094
39.311957 -53.206894 275.978386
-18.817605 -19.949569 277.388874
-19.670293 -54.205700 280.101100
-18.556604 -30.698286 274.816513
-6.480425 5.538488 270.629346
-12.997003 -31.779657 281.816006
41.363225 -27.922781 262.781123
-34.184629 -29.518519 285.102824
-10.375566 -37.364789 282.753586
11.250247 -1.081617 261.780202
22.250055 -30.595743 270.902262
20.189280 -12.334845 262.906670
30.184168 -25.495781 270.939484
-7.464751 -18.339438 279.553727
23.796039 -12.205611 262.040302
-5.237517 -56.855293 284.839898
5.939355 -1.622383 270.238116
-13.471979 0.090644 266.876310
-19.732288 -41.467801 277.452275
6.547506 -10.304526 271.354343
21.231506 0.962871 260.202929
-14.031711 -63.883401 289.302260
-19.161942 -55.525310 280.243576
5.463019 -55.358440 283.067981
3.146343 -1.305984 270.422802
-2.573688 -7.545971 273.749874
17.119663 -7.445148 269.009430
-21.721380 -53.212214 286.743370
-14.403676 -42.166218 284.254208
-11.759619 -56.659478 280.876262
1.676587 -48.088316 274.851948
-14.661279 -55.640473 279.942642
-33.477553 -36.573857 286.437899
6.397131 -9.314606 272.058770
32.124393 -58.442216 271.888793
18.559415 -10.400232 269.678205
31.309069 -16.275211 266.058753
-28.078433 -48.192132 287.113242
-18.403436 -13.926452 271.860778
-31.897591 -15.496395 278.833211
26.512060 0.927732 262.761295
0.017004 -15.983261 268.533632
-12.080138 -22.996866 271.825502
14.364109 8.092467 266.474128
-9.032483 -56.801108 284.994110
10.957631 -0.049212 261.633828
19.489402 -10.584746 270.132124
-6.739088 -41.077364 283.830404
-3.462934 -57.510728 285.347059
-19.635797 -21.291738 272.667686
18.723074 -47.996846 279.620598
-2.594631 -8.199188 274.224639
16.421707 -44.701085 272.824198
-24.117752 -55.406498 288.987487
35.426110 -40.549865 272.975579
-2.698120 -47.235928 276.077926
-20.077648 -19.329254 280.162647
21.704549 -52.228234 271.840707
16.530262 -60.191642 277.410219
-20.017847 -42.452433 277.646879
-6.623847 -10.338067 267.757625
25.192987 -23.368442 264.992774
-25.850397 -4.388098 277.280986
-15.655061 -3.873683 274.234565
35.702368 -42.766180 273.424670
12.944952 0.112658 268.253813
11.562849 -69.577395 285.244735
1.797944 -57.221433 277.172993
10.488951 -51.763738 277.554377
36.117598 -17.242370 267.507732
21.345531 -33.753501 268.299441
17.573215 -11.909543 263.819933
-31.911752 -41.684893 287.420992
23.467203 -34.310137 267.622153
-11.853436 -24.947824 272.382617
-5.976605 2.787264 271.636337
-8.008028 -49.251829 277.261068
-23.723565 -37.399743 277.220984
22.808211 -26.109716 274.215520
-11.250732 -27.295759 281.446636
20.835570 -39.460143 279.703651
-1.624721 -69.206358 284.969974
-16.619233 -43.684012 277.321816
-0.290996 -14.939930 270.883143
30.574382 -62.010379 279.432908
-14.648924 -6.281477 275.602162
41.937569 -29.126918 263.468987
-24.674804 -51.765834 280.282944
10.813265 -10.909910 272.450536
-1.735333 -3.885614 272.445142
-28.869283 -27.921991 278.163231
3.533549 -53.382556 283.292254
-16.903009 -6.157298 275.839895
0.402605 -48.169684 283.424198
10.764401 -62.151713 283.219725
-30.442147 -43.377491 287.193863
22.768544 4.560630 265.479624
24.589098 -0.088625 266.136572
21.547097 5.468335 265.906328
-12.303479 -64.274713 288.071632
-10.707854 -65.795447 288.487658
-19.758526 -27.192547 274.140346
-31.314338 -14.617000 278.136715
-0.344901 -14.080643 267.489265
34.947574 -21.247122 262.001157
32.059956 -16.367172 261.961579
-26.944110 -32.362277 276.618414
15.855917 -60.530524 274.917632
0.084159 -14.683896 271.624913
37.275016 -23.622298 261.940181
-9.621558 5.594525 271.213528
-17.888686 -13.959575 276.194036
-23.543401 -34.373436 283.416003
-20.269655 -17.256030 272.444099
17.530518 6.827631 265.971452
-18.408483 2.499350 274.166659
-28.820568 -48.600682 284.039482
19.225645 -0.017853 267.275795
-31.738151 -16.811792 277.053207
-3.230922 -68.139583 287.259609
1.867876 -46.414677 283.619868
30.625360 -33.001866 265.564725
-25.810295 -33.393620 283.499133
-18.627267 -23.995361 273.162027
29.933078 -32.185732 265.487514
-12.118547 -63.848891 288.605545
15.855929 -9.869515 263.027624
13.036429 -60.892288 282.091796
-32.918729 -30.580541 285.301047
24.294427 -39.067652 268.278042
13.323641 -7.212674 270.382836
27.359622 -25.134532 264.821440
-5.389860 -7.505940 267.147333
35.729423 -57.683477 278.233250
1.910242 -68.517631 280.628002
-16.141597 -25.701411 280.486990
14.031313 -17.503826 267.215669
-10.564144 -0.353849 273.159470
-19.233842 -13.135170 278.394132
-4.417690 8.898281 270.539671
5.051036 -47.078118 282.732737
1.339085 -46.907418 280.200390
-11.751736 -24.397946 273.837298
30.933729 -26.793942 271.226823
16.674196 -44.099153 274.387658
-25.926845 -4.485064 278.040692
20.307647 -10.915463 270.109683
5.134202 -52.369270 282.943251
-15.086329 -36.498457 275.538027
-13.596304 -47.447840 277.599096
-11.570613 -45.716010 277.196050
-9.708863 -56.566019 279.450780
36.783673 -28.437169 270.559764
7.976350 -53.648219 281.254722
-23.388815 -37.177898 279.307481
12.438623 8.169226 266.810215
0.585218 -46.623590 274.827063
29.259160 -23.203056 271.068931
-10.933741 -22.410410 273.481220
8.735266 -0.698754 268.716782
26.890241 -14.464998 261.845171
2.044145 -48.192261 275.511176
-15.224918 -2.083090 274.455547
-25.729498 -4.105202 277.532146
16.752712 -57.763141 275.003791
-22.917574 -37.759017 278.051779
-4.474115 -15.756194 277.473658
-23.153176 -36.968806 283.770692
17.311686 7.558462 266.950816
11.091116 -7.924751 270.968248
44.624694 -30.224303 269.251853
14.670230 -59.388271 281.954278
-25.457077 -36.046484 277.100521
19.072393 -56.491215 273.314744
-6.153270 6.442540 270.224360
-8.218720 -9.584116 275.627295
-2.458069 -45.711133 283.154766
4.293190 -56.058905 283.616267
-34.079642 -26.897798 284.190128
-7.938698 3.480574 271.490477
0.035602 -4.198759 266.517647
-18.648060 -11.549667 277.581572
-21.384947 -41.061505 278.402261
30.863273 -17.457270 261.784926
-12.439234 2.037583 272.680432
-19.318084 -40.171599 282.456237
18.780707 -55.511683 273.292423
39.019328 -23.665531 261.650860
26.485810 -25.216958 264.410138
2.607355 -56.950554 276.705414
33.101705 -36.549349 266.245604
32.839298 -51.830362 276.007478
3.698502 -2.997206 271.466196
-6.681874 -14.836947 276.775050
-13.026599 -34.988392 274.443179
33.509554 -14.223398 267.561982
35.374881 -4.894722 265.738150
-0.606407 -48.268920 275.358274
-9.591641 2.647411 265.479744
-11.166858 1.885750 270.678983
44.617546 -24.320622 267.873258
19.825946 -55.092125 275.278831
-0.281955 -14.393872 271.280989
-10.708881 -24.831327 272.124216
-18.715320 -52.105237 286.762952
29.357348 -28.150959 268.485782
9.622822 -65.882180 277.884156
-25.641047 -51.263507 281.111715
-25.953530 -52.381879 288.433099
44.790773 -37.522830 271.037246
33.124854 -46.331529 267.965347
-11.719893 -54.708775 285.972476
-11.660110 -37.197789 274.605035
-17.239595 -18.313077 279.314429
-31.290916 -15.141151 277.268753
24.845947 -30.559795 274.440229
-19.651327 -40.940053 284.661839
0.321883 -46.630764 275.383562
8.868614 -9.905338 264.637083
-7.405538 -56.880785 278.599998
21.849426 -11.368559 269.730732
-10.740403 2.920915 265.780240
-34.320854 -27.980980 284.854114
42.455442 -17.792407 266.706511
6.965977 -65.525487 277.816266
-9.651767 -38.254589 277.262420
9.642494 -0.109966 262.004773
10.705685 8.080354 267.359026
-19.498086 -15.113587 271.296203
25.818665 -24.137772 264.388040
-10.201804 -35.960995 282.297492
32.220075 -34.156897 272.967249
-34.095898 -24.346460 284.026533
3.519424 -14.095983 266.815692
-24.837431 -34.727633 284.018755
2.182128 -56.528717 276.706219
21.031452 -53.199889 272.168890
14.873302 -16.861479 268.899963
27.760340 -22.099948 270.998932
-27.469530 -30.714129 276.511908
-23.211628 -52.401472 287.262986
-31.213897 -24.174725 275.648038
22.584680 -41.809031 269.553542
-9.940719 -36.500115 282.219261
-19.312138 -51.798847 286.859274
-0.157251 -69.180228 285.629943
8.769291 -66.400078 278.392017
-12.203077 -48.047733 277.401000
3.187809 -2.831307 271.072417
8.503901 -64.218571 277.791093
5.581599 0.069846 269.970320
-11.369339 -57.444677 279.291421
-0.766793 -48.545739 283.572148
-5.256342 -57.036858 285.530895
-15.397050 -45.913707 278.062259
31.692076 -55.029299 270.628124
30.907235 -59.514347 272.318721
3.648283 -64.139917 285.265355
-4.047684 -6.433784 266.387120
0.046568 -5.091417 272.544396
29.034574 -62.513478 279.619127
-31.256273 -17.196044 275.640049
-14.225001 -4.901874 274.910063
34.576182 -55.616877 276.579241
-8.057418 5.134711 267.804608
-15.659623 -55.433359 279.756934
-33.610406 -22.999636 283.279667
15.203911 -61.399400 275.351495
9.563738 -63.736689 277.294380
16.010732 -18.046446 265.146524
7.744688 -51.177718 282.323211
-6.711803 -8.828534 267.321378
-15.478483 -35.966232 275.649100
-9.793886 -13.897814 276.720315
-29.514200 -29.496408 276.600609
28.656097 -23.621721 270.797849
2.572304 -55.304432 276.374797
25.153932 -65.325428 281.428668
34.035556 -18.395103 261.605805
-29.318045 -18.498643 280.963242
8.753919 -66.026002 277.605027
17.991614 -56.287501 273.871720
7.955067 0.740965 269.123591
-0.096203 -68.922081 283.760149
-4.488345 -8.013649 268.728791
6.185638 -2.044402 266.038954
-21.995819 -57.586582 288.612142
-20.928419 -58.620048 288.631896
2.139831 -46.348618 283.309430
38.478456 -53.685263 275.713146
-32.940239 -20.762649 283.149071
18.896237 -0.991084 260.932952
-11.355915 -25.274859 280.731559
11.116621 -46.546109 281.732639
12.724394 -63.393164 276.301965
6.464393 -67.468331 278.624788
13.454539 -50.085578 280.855387
-33.760719 -34.350451 285.998650
27.323722 -25.776977 264.525096
22.181373 -49.064070 278.395370
34.672238 -20.671958 261.827796
-0.611396 -68.606868 281.728648
-12.185495 -35.924243 274.385005
36.426535 -22.769013 261.951655
-16.853413 -8.715573 269.785970
24.110073 -11.939473 262.544453
-3.697692 -43.865277 283.788204
-12.384403 -20.759912 271.801293
28.328506 -15.439493 263.088425
-16.700397 -40.499024 284.367368
-22.955873 -35.101702 283.640116
-32.976945 -38.778372 286.830773
0.251182 -15.397810 270.394579
13.883000 -62.503196 275.882699
-22.275884 -52.659063 281.094590
32.668891 -40.276361 266.859120
-10.351010 -45.132278 282.852893
9.061088 -8.385681 271.459734
16.441809 -60.364811 275.669635
0.447862 -55.804443 277.178452
-31.188773 -20.791474 281.990393
-8.360557 -15.810191 269.762024
22.853823 -52.088823 278.726041
9.692378 -50.371382 274.177611
-14.622191 -63.622164 288.610240
22.196724 0.999969 264.102737
7.873418 -54.758257 275.652453
-8.081162 3.947325 266.728296
45.104678 -35.233058 270.185196
0.581373 -13.067327 269.926770
10.430381 -63.173026 276.848406
31.996589 -53.052642 270.132244
-8.958971 2.256067 272.043427
22.396731 0.265184 266.312301
29.929980 -14.695227 268.411815
-0.651698 -15.186706 269.543745
-29.866686 -16.322309 280.554428
4.617829 -2.526437 263.651872
1.926578 -1.613020 271.122505
13.577914 -10.283341 270.742178
31.318305 -35.709361 266.235322
-21.434417 -39.615989 277.635276
16.780154 -18.728463 265.334897
-13.736182 -44.828396 277.590603
11.968458 -62.254996 276.474247
9.670130 -53.315543 281.449407
-11.934186 -21.136366 271.251708
31.968945 -16.757882 261.516623
-6.343787 7.165268 268.756360
-6.379413 -49.335367 276.635871
26.580404 1.394943 263.614362
4.166122 -2.438995 271.035880
34.056742 -48.290911 270.926875
19.404591 -11.779458 263.855958
-15.261713 -33.374406 274.983846
1.124419 -67.347929 284.692943
17.399866 -68.310885 283.682476
21.855524 2.298993 265.384451
41.411634 -28.096028 264.346987
17.644867 -57.491057 273.844600
-23.570310 -18.478271 280.422557
11.519548 -48.481385 281.057417
-8.519068 -15.273557 269.215301
19.747312 -0.977899 260.309438
-22.763171 -37.992625 284.836546
-9.947817 1.390509 266.284853
11.022989 -11.880889 264.639788
40.359601 -20.483298 267.663896
-1.826846 -44.644106 284.117281
23.163406 -11.362844 267.126765
-11.617643 -35.650994 275.098845
-26.299453 -5.445034 277.559146
-14.816474 -56.482584 279.683123
12.442407 -46.249592 281.631605
14.715028 -44.244423 272.445410
-29.634656 -47.678807 285.844415
-27.816944 -50.038708 285.881356
-14.370421 -28.387343 281.308442
13.559837 -19.379230 266.045375
3.821611 -66.806713 278.676935
16.082852 -69.035447 284.492746
-0.301350 -57.715170 277.810246
17.472964 2.522378 266.447187
17.813295 -59.208435 281.210119
-18.975858 -18.026987 272.385299
0.783812 -15.727972 267.624796
-2.164148 -57.736179 277.613520
5.551813 -10.693432 265.663999
34.278228 -49.354007 268.740907
-6.546245 -40.688451 285.698236
21.165629 -52.583563 275.130402
32.657315 -35.799130 273.402681
-22.198852 -54.696686 281.171202
-8.694097 3.114988 266.008794
-19.113016 -18.938361 272.515694
27.136998 -11.651510 267.440215
27.543709 -41.498088 275.889689
-17.883171 -8.371820 269.592516
-16.046637 -6.227118 268.591434
-10.583234 -18.455462 271.929212
-28.683829 -48.046295 284.366861
1.171558 -12.797252 274.517700
26.461498 -10.530170 268.312695
-2.903594 -57.659002 278.107239
21.553153 -8.650361 269.119203
-8.058455 -10.440836 274.938226
-2.357970 8.795028 270.039818
-12.032246 -64.869862 288.224428
13.943304 7.611116 266.303092
26.428290 -43.046693 276.271363
31.482991 -34.421140 265.523374
13.222496 2.317523 267.449099
-16.884353 -30.936507 282.162130
24.547637 -43.433268 269.341648
1.755734 -47.358707 275.033235
21.604881 -66.850600 282.457099
-1.136733 8.891487 269.149472
-10.817385 -24.740444 273.341755
41.217661 -26.816535 268.321417
22.537143 -3.453268 267.600160
-5.791003 -12.374751 275.869509
29.315610 -12.269789 267.958299
39.905104 -26.639818 262.413815
23.060885 -31.209964 275.166586
-28.963473 -26.607432 275.843322
11.098080 -0.445832 268.812031
1.614522 -3.960139 264.560692
-0.346737 -15.383589 267.610729
22.628750 2.530739 265.568505
-26.834826 -27.577574 282.692492
6.302721 -1.231991 262.923648
31.469800 -61.253926 278.981316
3.941674 -68.141215 285.711132
-30.295856 -27.367992 276.014417
43.019317 -29.442221 265.335470
-14.987734 -4.969703 268.279075
29.476699 -15.392374 261.512667
-1.877768 -5.422353 265.604034
-6.200932 -56.756487 278.605670
-13.336715 -45.492113 284.673661
0.000577 -68.551853 280.469096
34.819013 -34.066986 272.131220
27.904449 -13.579790 266.500354
23.303849 -28.585202 274.707931
24.657956 -25.686696 265.248140
-2.204379 -14.306772 276.644478
-12.483423 -56.701038 282.950624
-31.670840 -19.062175 276.167888
17.030310 -11.774826 263.291180
-5.980881 -8.095982 267.173668
13.575763 -11.745610 263.993740
13.164818 -49.600639 272.910074
23.098348 -28.320123 275.651142
-9.309060 -9.908451 275.382131
24.948986 -31.397473 274.675488
-11.271013 -54.472935 286.203980
-11.104483 -21.525726 279.304147
37.654246 -36.394476 272.170477
0.133409 -47.875252 276.836938
-13.083545 -12.235618 277.219291
18.921660 -16.456002 271.661276
23.726424 -28.036929 276.474981
-29.145800 -27.387973 283.316165
-17.666405 -40.490195 283.788731
-17.730327 -11.298127 271.371931
22.797801 -12.077700 264.665088
14.159720 -0.879961 261.525357
25.405405 -34.748358 274.209380
39.714406 -23.471121 266.567011
34.215514 -51.289723 269.305393
-18.483732 -10.316060 277.400712
-15.675537 -7.984525 276.126981
19.636521 -56.700256 280.000091
23.008698 -12.366682 262.082845
9.253739 -65.321639 277.333796
-17.799341 -43.898404 277.394950
32.701872 -36.726110 265.880585
43.323256 -29.680924 265.506983
-17.285742 -52.703055 286.406297
-23.475069 -56.066085 288.660218
-1.067206 -68.700455 283.693522
-7.855705 -57.041947 285.777176
-10.800790 -39.704063 275.094241
7.461623 -47.007991 282.554671
-16.675267 -5.530942 268.481821
-16.597783 -23.731846 280.487001
12.768096 -47.075451 272.835165
37.101047 -18.305869 267.244890
-11.518471 -24.148149 274.923980
-18.080341 -44.463862 278.103053
-27.236413 -51.308692 288.514525
-2.945153 -68.465952 287.526757
43.384321 -31.909142 269.657379
-27.602037 -31.318669 278.156953
-18.653677 -54.331675 280.108661
29.734395 -28.806707 272.484809
-10.386539 -22.828449 271.733575
-0.918872 -5.546563 265.381744
24.058943 -36.975063 268.124297
8.551735 -12.118234 265.187487
0.936386 -12.720765 278.180514
39.104056 -24.592424 261.794358
31.353743 -59.215049 273.902660
14.109012 -17.920165 268.706033
30.131011 -30.129901 265.012453
-20.272192 -19.240386 272.685409
38.103777 -24.602605 262.091488
20.016490 -10.750231 262.549887
20.720954 -20.719713 272.858222
-10.698244 -48.010975 276.977450
30.537045 -31.178181 265.121361
-17.602434 -14.826338 278.080871
33.219960 -47.207870 268.160865
-7.296800 -9.052540 275.087327
34.008250 -33.366252 272.097935
21.871194 -30.718156 268.179556
-11.008456 -38.448205 279.354274
-12.900807 -47.841996 277.877897
7.305746 -1.076247 269.369229
26.558084 -27.637139 264.994889
-2.214391 -44.072820 285.678773
20.792777 -0.169544 266.751899
0.185703 -4.966284 265.084088
-5.023164 -67.660026 287.449271
31.208433 -60.853694 275.340378
-23.875865 -30.550821 283.191279
20.912340 -10.654763 268.293569
35.772931 -6.135083 265.246153
17.582222 -58.559021 274.174914
-12.424152 -34.814708 274.470002
10.954297 -2.411599 269.846921
-10.021922 2.621984 267.184321
-12.326505 -21.574489 271.780372
22.318388 -53.905400 279.566206
-3.566237 -14.816204 279.389165
-15.888495 -41.532308 284.172252
-4.165916 8.435589 269.838542
2.656401 -67.111224 279.185325
-17.171150 -45.245323 277.855962
2.785335 -55.645913 281.456924
-16.557326 -55.370187 282.015505
14.610136 -45.052243 271.589898
31.117287 -36.989355 274.146385
-29.478159 -26.925938 275.654286
30.166078 -16.873519 262.046218
-22.821526 -38.977798 277.408312
36.943231 -20.955067 268.201679
-12.135648 -56.355105 286.113342
16.548194 -16.575312 272.450308
20.105987 -54.058396 272.608220
2.783976 -3.658126 264.463443
-30.121513 -21.415584 275.369634
15.737321 -59.140219 274.894416
43.141246 -45.760136 273.475885
-22.903649 -38.015261 277.472526
28.785893 -15.780414 261.892617
-33.960164 -31.757664 285.346106
-11.671989 -19.434122 278.934777
7.422353 -10.165944 265.113264
-6.654334 -45.075606 283.536135
-9.353797 -37.770303 283.790419
-31.914475 -20.726931 275.787726
1.329150 -68.265897 279.955983
-11.556328 3.221134 272.125125
-10.632046 1.040030 265.817895
27.536234 -15.058012 261.884853
4.617289 9.196985 268.038631
29.118970 -16.151795 262.339055
24.716293 -12.151541 268.134415
-19.651505 -16.219456 279.291012
31.876798 -29.292355 271.034534
22.082279 -37.508301 268.653393
-28.424649 -20.161172 281.383648
-16.889430 -29.415260 274.137956
32.338516 -60.305940 276.088625
2.245058 -56.136079 283.472717
-16.741100 -55.218207 279.911481
39.800057 -23.964463 262.026296
-30.749766 -22.021197 274.899840
-11.556396 -24.654541 272.020578
2.176400 -67.576622 279.190967
22.577959 -43.403468 269.784192
33.997603 -42.290956 267.085999
2.719457 -10.108768 273.607481
33.236109 -45.316080 267.858073
9.769759 -47.113914 282.073065
-20.054819 -16.396012 271.840006
-23.860699 -52.586120 287.852079
18.929495 -11.863761 262.805809
-19.153811 -54.217883 286.983401
37.978140 -54.392027 275.981888
6.539741 -66.381894 279.335955
20.483314 -55.144189 273.168877
33.612772 -39.960034 273.882697
-1.384407 -47.361133 275.662283
29.211315 -31.011509 265.219569
7.668166 -12.148600 265.275717
-6.400818 -57.141677 285.769105
-17.918135 -11.421644 270.704396
16.841683 -56.521315 281.061191
0.320712 -7.009258 273.421089
17.100368 -59.554120 279.061745
-11.565832 2.496406 266.218528
44.322048 -27.704052 267.421653
-5.402786 -55.320557 285.306781
26.188595 -51.559026 278.262682
29.364550 -16.031684 261.735410
-16.628929 -41.274637 283.794165
38.462400 -22.945279 268.514583
11.070911 -49.192548 273.489883
24.755792 -40.181721 268.691838
-4.101502 -7.988355 266.650543
31.397481 -59.861626 273.516715
-26.462235 -28.940102 282.567203
-15.667472 -2.144768 274.819881
9.378796 -0.741500 267.253757
42.088132 -15.422711 266.748160
24.649791 -12.399781 267.012984
7.374610 -8.630788 272.080084
-30.204655 -15.442119 280.260760
32.368353 -54.134830 276.809856
16.285187 -58.046435 281.028353
22.545806 -32.775168 267.120391
35.284940 -38.591024 272.646770
-10.113164 -39.034634 277.929713
19.626990 -56.661863 278.863698
-20.376124 -18.377050 272.729993
14.961638 -17.874914 265.018999
-16.713223 -22.346072 280.263126
-29.539419 -46.977281 287.519594
2.212057 -66.635914 285.159513
-21.629751 -57.218030 289.386254
30.568156 -13.044462 267.698566
-7.302546 -47.267839 276.202172
-27.530544 -31.638272 276.408032
-32.947511 -37.670292 286.406845
20.074513 -56.085479 278.764248
10.020589 -11.915843 265.057251
-24.915343 -54.498066 288.748145
40.912589 -14.887114 266.218379
-3.843187 -5.726549 272.993267
-27.192134 -48.645637 286.649465
32.740850 -48.844272 268.885001
-17.929466 0.664438 274.477653
-14.272478 -2.629658 269.121591
7.542316 -64.756323 277.863831
13.534639 -9.602805 268.299894
29.066971 -28.087031 264.764428
-28.383098 -49.860470 285.132915
-31.049079 -18.461826 274.946372
0.828704 -4.908634 265.248299
20.975787 -22.397057 265.100663
19.623389 0.985186 260.226935
-4.868890 7.328394 270.019124
-29.570686 -26.964484 283.318669
-15.269471 -35.690000 275.000259
-12.225798 -47.959780 278.132990
43.057254 -25.196431 267.620454
2.215928 -47.945698 276.613250
36.128625 -41.919881 273.626350
36.626116 -21.466616 261.790565
21.850233 -50.347499 277.337092
-28.053674 -8.101720 278.717868
2.857293 -69.572854 286.907547
32.504588 -18.743729 262.532949
-17.300874 -6.222113 269.101471
43.835704 -42.373407 272.085562
-17.458779 -13.691775 277.499159
0.940615 8.973848 268.606469
27.974321 -63.483660 280.448222
8.203302 -52.239328 274.942979
-15.407605 4.549026 273.239613
-10.653679 -46.328018 276.704058
-16.158759 -20.055008 279.732431
-12.095386 -56.687677 279.234894
0.919510 -67.553267 283.832620
3.963476 -11.311302 265.954256
10.488814 -1.143945 261.946797
-1.232287 -6.418874 266.361192
30.068031 -15.009065 267.093338
43.894646 -29.194019 268.683424
31.809710 -13.764970 267.781639
-4.408589 8.874041 270.625561
-24.230582 -33.294152 283.329115
-16.411824 -34.628098 275.428384
-3.215555 -47.210712 276.431888
21.973062 -12.580077 262.464364
32.312447 -56.571912 271.608035
-12.646655 -34.765404 275.201187
-7.561741 -48.246752 284.612835
32.219750 -55.626194 276.679919
21.015262 -20.130183 264.565994
20.871367 -39.304748 278.062671
15.416093 -47.573114 280.017585
-2.458758 -56.788638 284.678682
-7.357204 -58.120061 279.336974
24.221675 -31.074680 274.524346
-21.358930 -39.652027 284.747883
18.079208 -55.468549 280.826042
5.030313 -55.995084 276.115715
30.903790 -59.258916 272.241294
-31.042923 -14.094192 279.617380
-7.852124 -58.104649 278.974562
-3.805483 -56.922537 277.831835
-1.320528 -62.943068 285.944000
3.894730 -3.162567 264.494318
13.145523 -60.347579 282.641143
15.028387 -61.811514 282.338391
25.745742 -46.550389 277.087435
10.872423 1.070322 267.665699
9.024610 -50.027670 282.040269
10.564349 -64.984336 277.002812
15.960017 -11.790706 263.843934
26.780419 -11.766948 266.797930
15.188060 -43.827252 273.046166
19.951229 5.586794 266.006385
-13.971208 4.848020 272.954530
-20.992657 -55.119299 280.666426
-9.888549 -18.097475 270.197431
-19.062668 -24.283136 274.939797
1.971825 -47.366791 275.548428
-19.179831 -43.495161 278.022488
-14.000026 -1.727893 267.083168
30.899694 -59.998711 273.168524
4.055569 -1.910592 268.695422
-18.606746 -14.858559 271.890531
17.836798 -16.452479 271.959842
34.174747 -48.366425 268.374085
-12.689479 -16.779825 278.180250
21.923156 -35.728505 268.482551
-6.800328 -55.363988 285.352692
43.280343 -18.958665 267.130303
18.890019 -18.104839 275.711677
23.178913 -8.309710 268.705590
25.013964 -31.689238 273.797424
31.210631 -58.866717 278.203736
12.018944 -64.271741 277.324796
-12.161896 -0.774539 266.572903
-3.866903 -48.934933 284.087127
33.640663 -43.201484 274.667630
8.677313 -46.986327 282.097161
-20.337307 -22.744204 273.267364
-24.628739 -35.299694 284.216062
-6.281965 -7.474186 274.010460
-12.198960 -24.052491 272.285014
23.411000 -29.921809 274.354547
-23.744302 -2.527827 276.299834
-5.272366 -46.419021 279.732981
-6.443929 -58.187127 278.944701
25.972779 -12.647468 268.753042
-1.347275 -5.140211 265.366614
-11.311172 -36.665630 274.487689
-7.973287 5.063133 266.751216
32.568600 -38.889953 266.513164
-9.502198 -59.308014 286.677449
-1.549761 -5.114676 270.519398
-17.703479 -32.443149 274.864157
-8.236530 -11.049177 268.554343
17.721983 -0.554042 260.361940
-0.369456 -56.095490 277.074174
28.080456 1.320317 265.012155
-1.959564 -68.744933 287.110428
-11.876147 -46.393761 284.680873
-14.477447 -57.308581 280.057892
41.737944 -15.029767 266.435862
-20.095994 -38.311414 283.805877
-20.227987 -24.852065 273.738638
23.044970 -44.888212 277.863363
-1.679256 -4.817471 265.718549
29.792350 -16.440984 261.747539
24.016842 -47.102758 270.461559
-10.994350 -30.760333 282.902002
2.412712 -47.900143 278.456300
0.984436 -56.119679 278.757553
15.620058 -17.267947 271.463604
-13.402258 -3.818347 274.657860
26.733828 -2.266342 266.281785
-19.642551 -17.342969 271.860704
-5.485820 -48.596547 281.480661
12.653761 0.300666 261.234782
3.651062 -59.303302 284.425199
24.209156 -32.743242 274.696134
19.176096 6.439847 266.020209
27.930018 0.251483 263.118952
16.727190 -59.975881 274.959177
16.760550 -16.188323 272.547573
2.435695 -14.536048 267.225899
-18.737023 -13.319550 277.465624
-2.389330 -47.435006 275.659457
14.781994 -44.920971 282.861769
29.815112 -29.433902 265.667329
2.720768 -49.828451 283.262048
-1.119397 -56.159627 277.286217
-4.883565 -47.416646 276.169136
24.468343 -13.312803 262.077056
-9.877754 -47.155703 284.450040
1.116650 -47.249587 274.955481
-16.527585 -45.614025 277.550564
13.112784 -61.892033 275.753439
-10.597055 -20.861734 277.279268
-19.055377 -25.109222 280.922234
27.067428 -13.172116 267.923891
24.549686 0.863800 261.832265
16.850602 -10.417588 262.859106
29.379461 0.580365 265.279233
8.362829 -0.420091 262.464903
-14.519540 -3.960805 267.759363
-9.810043 -38.849783 278.939739
-9.640177 -13.327157 276.409834
-0.845649 -68.476197 285.357803
43.292016 -29.754760 265.247136
-19.399909 -23.650193 280.848891
41.890766 -47.836134 273.662671
-23.107025 -1.272019 275.990864
3.083563 1.421016 270.315523
16.549141 6.766326 266.065180
-14.439360 -44.975167 284.807078
17.368680 -2.488823 268.483941
-19.167093 -13.701208 270.963810
7.533784 -66.630766 284.673959
20.657888 -19.643392 276.409537
-17.731287 -27.143954 273.805010
8.487308 -0.712910 269.333139
1.446518 -14.906639 269.928499
17.912423 -10.355945 262.818237
-2.809563 -55.052764 284.509049
15.397240 -45.486353 275.987650
6.718953 -12.325589 265.473475
9.733308 -0.547045 263.627739
37.695776 -41.069472 273.185672
-11.239394 -48.246827 277.182117
5.902502 -53.318826 275.598874
45.064445 -29.074733 268.059422
33.888109 -20.174970 262.021184
31.672900 -17.829985 261.719316
12.655333 -61.946900 276.061823
11.771868 -48.334160 273.249040
14.041066 0.012536 268.315807
-15.997962 -56.817473 280.261576
5.062921 -2.023250 270.277105
-8.283274 3.697735 265.635238
30.079494 -29.463598 272.442758
30.804501 -56.682727 278.041826
-9.451874 -38.276304 279.996008
23.971539 -0.849370 259.923711
-4.598737 -58.078412 278.285473
31.487547 -15.914444 262.185931
16.621426 -20.382746 265.483901
25.044006 -10.555406 268.167993
-12.648379 -57.329316 281.183531
0.718318 -57.258781 277.147949
-32.551096 -17.114969 282.344416
-0.081018 -68.108264 283.746406
10.844267 -52.324314 281.578809
9.566507 -53.453264 274.637460
31.058375 -31.899247 265.158147
-0.189001 -16.243281 267.657459
4.246752 -66.256475 278.879702
-13.252899 0.250301 272.405063
26.239762 -11.677718 266.268581
-15.796026 -31.618728 274.388272
3.679388 -52.581407 283.505857
36.993935 -50.318865 275.043441
-26.569021 -34.090824 279.341241
34.101259 -50.003715 268.676966
-18.282519 -47.058462 286.063064
-14.763484 -55.572639 285.528780
8.953271 -69.957865 285.829887
-2.003961 -6.959330 273.623973
20.765144 -32.993410 267.726153
-16.967643 3.473064 273.870240
-1.074634 -68.842040 286.773128
31.664871 -32.936861 272.993281
31.771666 -54.011815 270.926565
37.600794 -20.992716 265.523227
20.887008 -30.843669 269.739449
-31.187285 -22.815542 275.351375
-19.996447 -15.840093 271.838099
23.349580 -38.979938 276.705910
31.206901 -33.524640 265.414387
8.984763 -51.050998 274.429381
-10.074173 -38.760603 274.773225
-24.926486 -36.861574 277.779937
14.088253 -69.456284 284.490625
18.070130 -20.971247 265.509486
-12.288766 -36.340331 282.463591
-7.799812 7.338944 270.562097
4.052698 -9.738370 273.475282
-9.968436 -56.770289 286.092460
19.227795 -11.117730 262.543738
-9.142607 -12.363370 275.831829
26.282452 -45.666251 277.001083
2.538903 -53.954425 283.493995
-27.642879 -49.594629 282.584715
-19.505443 1.820084 274.818659
34.704189 -18.604382 268.208675
-13.461855 -56.651100 286.712474
-27.927982 -29.889516 276.076585
1.187453 -48.740597 275.176719
-28.633645 -27.932416 282.691382
30.199856 -24.946768 271.238536
9.187205 -0.932251 269.666165
-26.848284 -33.461338 276.688755
-30.953080 -19.625668 275.224879
20.691666 -55.805420 280.060962
11.541308 0.426701 261.649171
-31.307757 -15.065702 277.746111
-14.345920 -63.097487 288.213889
-6.343771 -17.280673 278.274467
14.288413 -62.470087 282.733575
-16.745934 -8.070569 269.275576
-18.152260 -12.801063 271.633516
7.283273 -1.065144 262.580703
-10.680935 -46.751570 284.547970
13.850702 -60.736311 275.722404
37.348357 -55.164492 276.601032
-18.593387 -60.800454 288.910101
-17.406776 -8.622501 274.824129
-3.559709 -8.783711 274.179370
35.839506 -49.099049 275.034785
-19.046864 -22.770547 272.988648
-24.428944 -52.534267 280.405864
-19.781230 -21.459910 280.262500
-11.154602 -25.079656 272.729799
34.199195 -15.637218 267.430291
18.759081 0.426861 261.969961
-5.587453 -58.001311 278.378934
-10.460131 -37.380319 274.921984
11.303223 -61.255437 282.833628
18.885239 -0.580994 260.170956
-9.622926 -37.283504 281.266391
-7.371855 -39.855285 283.868998
-28.894388 -48.062326 287.463501
-8.820023 -16.663628 269.858092
-27.775308 -50.533224 284.014533
-32.272447 -40.069411 286.681220
5.751013 -69.924775 286.635643
-3.569531 8.943306 270.877063
-23.610748 -49.691504 287.043706
35.225082 -6.403589 265.417233
2.065284 -47.114626 276.385426
30.522918 -30.926896 272.881001
-9.015769 -47.871834 284.163818
38.510002 -22.327023 261.792079
26.362507 0.813809 264.553348
-25.833678 -33.776334 284.330398
3.563065 -11.996998 271.119400
19.673655 -67.904933 283.290255
-16.000646 -62.562022 288.481277
16.027947 -46.928106 279.964730
-16.372699 -9.476506 276.485314
-31.364877 -15.413296 276.994646
-3.333765 -11.231293 275.179092
13.202074 -0.972804 261.546284
-28.652676 -28.256300 275.916755
-19.737932 -54.382952 282.130731
-26.072416 -33.064381 280.013132
-10.197936 -39.586921 275.914952
23.642530 -43.860539 270.767579
27.532577 -23.157849 270.460638
0.462610 -67.742463 284.383059
18.948272 -42.250706 278.939112
-16.961351 -28.245989 274.491250
-19.203270 -15.819605 274.096623
-25.225484 -5.235891 277.549110
4.587082 -54.580503 279.615706
-18.519310 -25.081698 273.109198
26.404503 -5.968155 267.399493
14.370710 -61.141562 275.298998
-19.406166 -16.005451 271.475762
-22.067063 -50.645857 286.728048
-11.219386 -16.179814 270.141045
-18.834033 -16.255875 272.010525
41.193016 -26.975531 262.388870
21.195205 -31.151865 266.925544
-16.802063 -22.903591 280.272633
2.282362 -68.531580 285.846456
-16.455102 -30.660541 277.644291
0.536666 -67.273356 285.983033
-27.374580 -50.010475 281.556988
5.266469 -2.607592 264.935265
12.096656 -47.786843 281.092405
-29.861799 -28.502650 276.414186
6.527520 9.149301 267.605980
32.003759 -34.320133 267.874571
13.762570 -46.246368 272.573582
-10.790677 -14.812844 269.827426
-17.255209 -15.386024 278.576314
-15.989621 -38.749409 284.039905
9.355690 1.714960 268.552785
-30.258348 -24.977167 275.363788
-12.468705 -54.459286 285.852738
-20.187314 1.143245 275.005266
15.103929 -15.703794 273.279220
41.217325 -22.311057 267.566612
6.226179 -65.553650 278.076291
12.704892 -10.812367 271.974131
31.070843 -25.690366 271.339834
34.375938 -35.037707 272.227600
-27.844561 -48.793410 285.088500
-33.919832 -32.936395 285.671457
33.797567 -40.562940 267.288146
-10.750495 -54.974626 285.762355
-9.010215 -11.538796 275.903473
20.763400 -12.597921 270.569332
-4.737076 -55.423635 284.723706
9.722294 -1.231058 262.087911
-16.196771 -24.965893 280.788481
13.802121 -17.766073 265.752465
40.964480 -25.566348 262.728903
12.542852 -11.437289 263.959438
35.285768 -18.211109 265.852297
23.363337 -42.568012 277.126993
31.877938 -6.934574 266.368803
-18.755393 -12.671650 277.866662
-12.648684 -47.725223 277.299672
-27.558850 -31.156005 284.030378
-24.632026 -32.752689 283.157826
18.421858 -58.107363 279.133990
-31.277135 -16.221253 276.134431
43.445776 -44.136493 272.594740
3.775452 -4.003030 271.562115
-17.448493 -7.121477 269.085005
-5.745835 -67.510452 287.814930
35.581187 -21.900477 261.978790
14.993169 -7.693922 270.175129
-17.299015 -30.042071 282.084837
-10.049053 -65.665905 287.925824
-27.106513 -30.412377 281.400541
-9.210232 -14.474595 270.452639
2.377233 -11.092487 273.489341
2.065520 -46.606571 280.082857
22.806499 -36.948508 276.512377
15.104990 0.205982 260.698396
-30.214515 -13.905477 280.261785
10.187789 -1.456644 262.288898
-23.144670 -13.380164 279.077185
43.208934 -29.690967 265.005574
-15.929622 -3.666324 268.121481
-11.043017 -16.763951 277.910727
-21.967528 -36.155780 283.741454
23.294706 -9.782004 268.590570
7.175077 -67.186102 278.301924
-1.510731 -0.684431 271.823047
-2.946567 -56.808563 284.337238
-12.674565 1.126648 266.535208
-15.323085 -2.915662 267.769496
-26.887997 -50.361870 286.698357
-17.282502 -21.384214 279.716447
34.498204 -56.365743 276.967198
10.705375 -52.667110 274.519771
31.139640 -57.855265 271.946877
-30.442109 -19.894184 275.664062
1.655129 -15.037382 267.224103
-20.867614 -53.272739 280.346245
3.322537 -65.861769 285.194129
-13.436252 -38.072350 275.379046
28.770439 -30.647170 266.048372
40.590400 -27.743572 262.917549
30.416042 -15.365440 261.780193
18.280454 0.806203 260.194163
14.869730 2.932707 267.408490
22.486206 -34.391976 267.441372
32.937502 -50.030554 271.959305
-16.327448 3.958594 273.611079
-14.135575 -34.070356 280.974560
-9.513904 1.966177 266.188800
38.578425 -23.320088 261.573076
19.877693 -31.721854 267.033517
19.532371 2.665105 266.113351
22.243980 -32.139277 267.316774
0.911994 -3.421627 269.511061
7.489046 -1.853123 264.308363
32.924503 -2.500112 265.366018
32.385280 -18.769398 261.951099
8.192065 8.833693 267.343454
34.226663 -45.700705 274.477463
39.102852 -20.278920 267.388255
24.579036 -41.639256 268.927445
18.301989 -11.403954 262.811914
13.730759 -18.256764 267.274022
6.631673 -65.164141 278.166980
12.469644 -47.282193 281.077594
26.856748 0.017211 265.553370
27.147120 -28.491972 265.652299
0.688352 -56.676383 284.387909
-11.449608 -39.705513 275.722764
36.188247 -46.249365 274.493719
23.431612 -52.575758 278.976320
42.504019 -28.478805 265.264140
-18.078491 -8.009699 276.839912
-24.164253 -2.377842 276.813860
-21.531722 -37.051335 283.417255
-20.405902 1.005649 275.110811
24.117954 -0.437779 260.163486
44.447421 -40.863795 271.723578
5.682429 -67.833401 278.645993
3.410088 -56.667346 276.749889
36.030514 -44.403832 273.997168
-4.612878 -42.981654 283.882067
-24.392538 -36.256820 284.502317
-19.745835 -17.951416 279.615122
-0.488230 -14.930855 270.363182
-17.022503 -5.654625 269.044429
20.389346 -17.283398 271.512284
-7.635776 -47.007076 276.536117
-19.373320 -14.412803 271.136671
-12.913603 5.453295 272.386412
-30.449120 -23.227228 274.969936
-27.461407 -6.518805 278.516948
26.031284 -13.662770 261.804134
-0.503607 -14.388538 270.664513
6.288989 -52.238416 282.727927
18.628566 0.143630 267.340690
-12.801974 -45.841528 284.320713
-27.044254 -12.142362 279.391814
-34.057032 -24.770280 284.706234
1.145272 -68.796076 286.080658
15.752485 -9.504682 263.495684
-33.988431 -30.649520 284.989258
-17.291504 -16.512857 278.834238
31.578768 -36.619715 266.342729
-12.873345 -57.546324 279.972702
-27.662035 -50.778229 288.633972
-13.244033 -2.240894 267.176270
21.039254 -0.228488 259.990394
15.172487 -47.511578 272.504240
23.731000 -50.875756 278.598438
33.612728 -52.532236 269.414743
-34.173492 -25.465962 284.305155
-1.845017 -56.484780 281.561262
23.244342 -0.831912 259.813056
-19.882304 1.516692 274.695615
23.985662 0.041882 266.169608
25.659870 -12.809727 266.934902
21.363173 -30.146830 268.691450
38.612123 -25.235694 262.129843
-21.862961 -39.085679 277.755499
10.493241 -0.617239 269.312262
11.918213 -52.067455 281.206905
20.083360 -56.624662 280.535519
7.375396 -69.642278 285.801886
40.855263 -49.678333 275.263575
-14.018177 -0.794500 267.123083
33.621250 -57.919230 277.018502
-13.867575 -47.788628 285.550672
-7.357202 -54.915757 285.638124
14.105666 -48.108525 277.838164
-15.417955 -56.284256 279.738188
30.664127 -0.167449 265.750200
32.659534 -35.723880 265.806228
-24.673552 -2.984959 277.372132
-27.374749 -50.845073 282.861739
15.570235 -10.477608 264.673386
2.493210 9.100208 268.507167
1.559552 -67.063399 284.879834
-24.376521 -32.758702 283.663154
-9.781356 -39.572383 274.991974
22.436705 -35.868359 277.263761
-7.704272 -9.879085 275.146872
18.342005 6.673770 265.959144
-5.192842 -48.240818 283.608362
25.881726 -33.947982 274.754465
-5.949984 7.494443 269.275059
6.939798 -63.745424 284.518376
41.448210 -39.797311 271.969923
10.088479 -13.162739 274.157419
-20.815472 -41.831283 277.684621
16.276004 -58.408555 274.625719
-16.202752 -43.786948 284.858396
-22.056028 -38.204052 284.092612
-15.914012 -55.504598 286.768842
-20.440734 -20.692878 272.880249
4.448915 -54.160664 275.950742
41.639359 -17.674807 267.400736
-8.237008 -47.094866 277.014667
-13.501750 -56.714900 279.517084
-6.388274 6.876137 267.911285
14.866274 -48.408657 279.493034
-19.736824 -20.160142 280.184395
27.585604 0.247876 265.131313
13.783594 -49.736037 280.174479
30.121334 -15.992016 261.545539
20.820805 -11.486013 262.386918
-0.297795 -5.591099 265.437067
26.971469 -64.345821 280.656032
34.905247 -36.964291 272.619645
-7.714048 -9.860152 274.579912
-14.702470 -1.307336 273.959949
6.868639 -0.477031 268.440821
-33.511726 -24.486204 283.398717
23.693252 -35.712125 267.695807
5.163320 5.148876 268.831258
37.504375 -8.596304 265.755866
24.702621 0.339389 265.070811
16.059119 -16.785531 272.099644
0.988178 -55.987713 283.001942
10.856843 -10.524048 265.240354
-30.508116 -22.746490 282.304794
36.932409 -17.640780 267.457366
43.967794 -26.715607 267.723650
-30.334642 -22.602696 274.753392
33.480866 -38.641223 273.590823
30.993650 -60.312215 274.478264
-14.069318 -45.026876 277.024448
0.535143 -48.950784 275.479466
-7.120879 5.414962 266.266972
-30.480163 -45.151538 287.610787
35.720386 -16.730089 267.639190
23.667893 -66.427141 282.054146
32.965309 -44.592310 267.845492
-3.756869 7.944966 269.758761
-6.719018 -12.304016 268.357880
5.747494 -2.068983 263.106877
-21.508089 -40.533561 277.247198
0.096816 -13.582561 275.788665
19.460996 -56.771994 273.774490
-0.302459 -54.712665 284.064606
34.859348 -15.935160 267.588317
29.210612 -31.453294 265.918866
17.119219 -20.198134 265.095592
2.611314 -56.426127 284.068532
-10.490195 -21.979661 279.246538
16.724113 -8.254140 269.241542
-32.883368 -18.844511 282.176505
-14.694157 -46.562786 277.426749
-15.361831 -42.055771 283.750594
18.290661 -55.986513 273.519307
-33.906687 -28.121858 284.277439
44.853140 -29.976418 267.140478
-18.016898 -55.417718 280.008137
0.303337 -4.186930 264.912590
37.756096 -21.527673 261.715517
1.684910 -11.595178 274.498045
22.204494 -20.837911 264.540911
41.828718 -27.196201 262.838066
-26.112255 -28.941143 283.048838
25.477353 0.287782 265.201429
20.839661 -32.337839 266.942158
-18.508820 -56.083586 280.318931
27.512772 -14.026527 261.739592
25.089603 -0.227815 260.866284
28.138287 -16.008097 269.651524
-33.663685 -35.298494 286.410600
21.522344 -0.920801 260.967821
1.114881 -12.879219 267.130325
-7.219103 -13.217595 268.696129
-11.475501 -46.840364 278.216805
18.160814 0.358225 267.128408
-8.020236 -66.640319 288.097449
14.855684 -16.894113 269.196175
16.522940 -46.024974 279.317528
-1.385274 -6.214560 273.031190
-14.005147 -53.689347 286.281964
45.219611 -32.614183 269.582402
-7.775102 -13.961173 268.941840
36.481872 -56.489550 276.811481
-6.175348 -55.304564 285.445392
-10.709871 -56.735151 286.359250
24.179777 -12.076976 267.618537
-17.180578 -42.850088 279.292127
14.518300 -17.540589 267.979248
33.156439 -52.832910 270.963867
12.950410 -50.912493 281.092584
-11.574119 -46.878811 284.979612
7.588653 -54.849401 282.860690
-28.926176 -37.645062 285.659373
-18.170373 -9.265077 269.887358
-0.725126 -14.351570 269.296557
14.658527 -11.494937 263.539940
-20.976247 0.387719 275.085211
-1.017868 -57.622564 277.384326
26.623229 -0.197204 262.181848
29.614555 -28.905336 264.736205
-28.928095 -30.271680 276.558265
10.215970 -49.952846 273.941279
-19.684762 -55.671845 280.540019
35.634098 -51.759010 275.738736
31.220066 -58.820097 272.050321
28.349326 -15.413847 261.836589
-9.997339 -19.541400 270.623810
-18.898328 -41.604910 285.018862
-4.486817 -6.685917 266.995212
14.072932 -48.809269 272.903316
-11.203105 -31.304713 282.372236
3.266370 -68.864003 280.051619
