19.819487 -21.910689 265.052296
-31.305831 -21.952234 275.524417
1.045777 -56.535325 284.234767
13.844553 -46.141058 272.669736
-27.917705 -50.359670 284.149379
-1.202201 -68.919942 283.125132
-33.239137 -21.539662 282.691508
22.178050 -66.627137 281.967163
19.068236 -54.561805 273.354590
31.220066 -58.820097 272.050321
-22.454479 -29.972517 283.019663
15.352577 -44.146684 271.397375
-26.125825 -33.194729 283.813428
22.530826 -47.507301 278.462872
-19.973932 -53.896308 286.996424
2.601642 -10.933493 273.565153
-5.976605 2.787264 271.636337
14.268459 -48.547626 272.833318
1.863779 -47.362749 275.290831
31.594035 -16.283304 261.729158
30.222487 -16.838884 261.771341
39.264066 -10.480378 266.220197
-26.539819 -48.838223 286.798343
3.041474 -65.922160 285.400703
-10.366041 -56.660450 286.137968
-7.842862 -5.645164 274.426695
-18.754562 -26.056665 280.976757
-3.322859 -6.299102 266.089678
9.351000 -0.664443 269.303436
1.543274 -3.058632 264.465630
-32.706634 -17.528206 282.606006
7.203156 -1.991330 263.139099
1.584956 -1.496604 271.392673
26.532206 -12.994646 263.592083
4.000978 -2.641006 271.139002
-7.353354 -55.212711 285.591170
4.706917 -67.707363 285.235583
3.435480 -10.153472 273.741007
-9.283134 4.702788 270.487460
-31.348264 -14.013556 278.510444
-30.907174 -15.177608 278.875967
-31.816467 -41.608347 287.445989
16.527178 -60.156412 278.477520
12.597620 -9.211858 263.840526
33.587076 -42.532884 274.626344
2.644757 -2.569071 264.136592
16.153378 1.034057 260.871917
-0.764708 -68.776414 287.076723
34.005858 -43.491235 267.250031
-28.004522 -48.827700 284.982898
20.574071 -55.545256 279.790521
-12.060768 -23.275514 271.909177
-12.096392 2.555839 272.500574
42.822169 -29.177497 265.389830
-3.845692 -57.551839 285.420104
-18.570339 -14.382972 271.512419
-18.319450 -9.059371 269.862473
35.045561 -18.921394 261.648163
-30.795164 -13.727133 279.869020
31.752428 -57.668073 271.371767
11.814093 -9.467407 263.878475
9.354874 1.074590 268.611471
-12.815978 -56.477106 282.916663
22.279707 -50.539499 273.684811
11.936177 -62.134579 276.638806
-15.485845 -35.497408 274.981797
39.102852 -20.278920 267.388255
-16.470847 -43.399811 284.674465
19.168610 0.102470 267.073550
24.830988 -32.489276 274.406194
-21.847670 -38.469519 284.033999
9.776349 -9.984529 269.411161
-18.248811 1.887713 274.270323
-3.703492 -5.848109 272.727371
2.682636 -14.162774 266.680807
-7.165586 -45.279302 283.598691
4.148466 -67.196307 278.558612
36.652278 -21.483365 261.513383
33.930546 -41.201576 268.066355
28.190600 -22.602149 270.872787
-13.208577 -43.036721 284.091453
-13.324537 -30.895335 281.818944
-19.908765 -21.587881 280.311922
0.106298 -15.833983 268.921077
-10.921913 -15.387351 269.831479
16.933663 -58.017559 274.114192
-11.313048 -56.419065 285.628125
23.132050 -21.580911 268.111043
-5.236679 -67.453507 287.445158
5.068726 -11.284484 265.543222
23.224619 -12.561474 262.099038
-19.103566 -17.762278 272.270583
21.435474 -0.121768 259.984777
-2.293420 -6.958135 266.036570
21.089718 -11.247329 269.158430
41.048043 -49.057286 274.066120
33.940978 -3.295377 265.661433
4.183429 -12.037602 277.937233
13.482092 -18.323088 266.195476
14.648283 -61.705820 275.483568
-33.627780 -24.281931 283.509753
-7.973287 5.063133 266.751216
16.726433 7.604391 267.309695
23.801852 -46.737850 270.099193
7.037808 -2.080610 264.069199
21.153443 -21.454523 265.141010
0.825679 -47.267015 274.847011
23.902600 -50.616635 278.533041
-1.583276 -47.336844 275.678344
-9.941524 -56.662112 278.985158
-10.057344 -20.352642 270.938151
1.994555 -66.778409 285.066287
-10.427511 -22.496938 271.665037
16.396193 -16.645466 272.777388
16.637841 2.184367 266.262054
21.267390 -67.461230 282.984972
14.859016 -69.348494 284.370780
19.526510 -55.339674 272.955045
0.044519 -49.272872 276.135594
25.105340 -0.247095 262.533307
8.442079 -1.595448 264.142766
18.306404 -57.533386 277.073859
-10.583234 -18.455462 271.929212
-9.172127 -47.526448 284.309560
23.558646 1.150661 261.482477
23.088351 -29.273553 275.204301
-23.090615 -49.634005 286.907052
15.710579 -47.289251 279.961420
43.438412 -20.742707 267.022759
16.118671 -45.356523 276.170749
31.766874 -59.127564 273.785038
19.867309 -19.249979 264.996965
-15.877502 -31.487368 274.260804
12.970204 2.038569 267.686293
-9.954559 -23.818651 275.392294
-5.687512 -42.280421 283.689737
33.129444 -51.262289 275.871366
-12.597165 -47.861593 277.744606
-17.722965 -15.122498 277.826826
21.127621 -50.246862 271.844888
31.757764 -54.211405 270.756483
-24.070200 -55.429626 288.778846
11.225961 -13.588054 273.534789
-1.384559 -68.907667 286.469534
-7.834988 -57.026117 279.563320
25.745742 -46.550389 277.087435
-9.495683 -37.543513 280.943423
28.010499 -12.025023 267.629176
41.009383 -49.653133 274.619974
16.140435 -18.291302 264.808327
-10.947720 -26.604702 283.681249
35.558509 -51.216792 275.467872
-0.900506 -14.598323 268.195405
6.254683 -12.332657 274.074197
36.783673 -28.437169 270.559764
13.217682 -18.967946 265.868475
8.808528 -12.063834 265.016868
-11.603171 -43.825373 283.895910
-18.608387 -10.030215 270.313948
10.658533 -64.885842 283.832296
-12.219393 -19.635814 271.500721
21.376980 -33.374879 268.576163
17.676455 -10.557968 270.047740
-12.243040 -2.209093 273.989856
-14.374698 -42.567380 284.051180
18.780707 -55.511683 273.292423
-20.173222 -42.180538 277.400881
-33.638202 -36.029458 286.490947
-31.914475 -20.726931 275.787726
-30.240167 -23.455987 274.951190
32.872275 -45.198640 268.098355
-12.823809 -35.293799 274.383783
35.331063 -38.550649 272.725840
4.363886 -1.683742 263.941601
-16.238196 -9.193008 276.457966
33.259141 -47.311940 268.330507
-30.886995 -18.502530 274.952785
-0.017188 -68.313179 284.039672
22.902551 -34.507108 277.677942
30.079494 -29.463598 272.442758
-11.781517 -18.963838 270.708010
14.236914 -17.837503 269.150585
24.653274 -38.109066 268.623024
-21.145595 -41.564945 278.372318
42.199967 -47.148632 273.431793
-12.218669 -54.767884 285.579026
-17.573563 -29.923476 282.298863
8.143118 0.832589 269.088685
3.782793 -13.604023 266.361028
-13.250047 -56.117167 279.574166
-4.760493 8.654534 270.729601
-11.775471 -46.555445 284.780453
6.208273 -47.594561 282.599532
-33.700075 -34.633409 286.261752
8.814917 -9.972161 264.676951
-10.403840 -38.860293 279.083953
26.809578 0.395366 264.640390
-7.687000 -9.428585 275.157650
1.169379 -12.761880 267.372310
19.573807 -10.921538 264.594268
0.939432 -15.546729 267.479330
33.497339 -39.314356 273.737029
5.266469 -2.607592 264.935265
-12.195732 -21.428448 271.604150
-1.505143 -3.909877 272.232353
-0.132811 -49.124945 275.459349
-34.064833 -32.848701 285.959497
32.864906 -30.271030 271.654487
45.356550 -30.676800 269.688278
-2.262969 -68.515897 287.020544
33.284798 -46.129216 267.841548
19.623389 0.985186 260.226935
9.467401 -62.939229 283.510586
-10.992087 -25.143017 280.910984
-10.512508 6.473027 271.710567
-31.917267 -15.764130 278.547078
-30.091994 -22.604409 275.982574
44.646040 -29.415015 266.635776
9.778998 -65.417444 277.264277
-23.860699 -52.586120 287.852079
18.214214 -11.192724 262.774189
-29.894829 -25.181765 277.801767
-20.366079 -19.053008 272.834977
-22.763171 -37.992625 284.836546
23.327021 -11.464551 269.170672
42.989118 -29.423028 264.775112
-16.223085 -41.260640 284.128115
-17.611066 -9.233760 272.634654
14.063953 7.783174 266.418316
-13.997007 -42.196371 284.339726
-20.291029 -20.038983 272.661835
-19.823233 -26.408553 273.834695
13.751108 -9.566067 263.541937
-19.715088 -38.910218 283.486560
-30.874956 -44.183593 287.371337
-28.512906 -20.217033 281.399096
19.825946 -55.092125 275.278831
9.387480 -47.120096 282.155372
-13.938997 -28.126678 281.302495
25.751970 -19.733165 271.012724
14.053155 -17.817996 268.342584
9.515051 -11.599190 264.715671
-24.129600 -37.083505 279.638764
32.714999 -36.017412 266.059384
27.407314 0.709948 263.069689
-13.397910 -44.970636 277.569702
31.078966 -31.025831 272.011101
30.903790 -59.258916 272.241294
22.155388 -47.418993 271.394042
-4.379360 -42.958520 284.088194
-24.504274 -32.755696 283.410490
-9.019973 5.618087 270.795316
-8.417605 -56.880613 285.285433
0.598071 -4.945110 267.039574
21.394659 -22.799533 265.073428
16.392997 -60.250747 275.316814
7.239593 -66.943735 285.043240
12.484610 -10.336308 271.195392
26.482932 -20.952113 270.955426
6.540565 9.038285 268.330543
18.723074 -47.996846 279.620598
32.919913 -51.815804 276.451528
-11.234275 -16.756493 278.178513
14.214177 -17.648820 265.301814
10.752468 8.278816 267.085153
26.282452 -45.666251 277.001083
16.687447 -68.637269 283.771068
-5.084752 -57.252987 285.314718
-17.214279 -40.598733 283.924709
31.482401 -60.863611 276.141882
-10.684052 -21.954400 279.282808
-17.760927 -43.235512 279.604198
33.465009 -55.045207 270.458221
-14.233192 -44.363169 281.837641
34.325661 -49.792765 268.838062
-27.183580 -49.756393 282.429859
-20.439194 0.919965 275.051639
-11.843437 -37.364051 280.681461
2.349246 -14.704337 267.649948
-14.883130 -55.842369 279.781312
20.649737 -53.235915 272.247195
35.697255 -42.490024 273.432334
-31.373248 -18.380417 274.933547
30.953000 -32.051591 265.319650
-1.136733 8.891487 269.149472
-10.728441 -24.245430 274.677435
-22.657193 -35.451975 283.737689
30.906824 -59.538662 272.336066
5.632381 -2.436217 263.214052
35.987547 -46.107171 274.415434
17.647794 -58.967670 279.299537
24.226898 -47.331288 270.797104
-27.106513 -30.412377 281.400541
25.441397 2.538089 265.261963
13.391721 -63.254919 282.735661
23.846541 -48.752856 271.429956
-3.640690 -6.049582 266.482666
3.951922 -53.518482 282.788008
-24.850485 -3.246511 277.269751
-28.137376 -29.793965 276.245391
-0.926848 -3.219539 272.271201
31.024141 -59.964440 273.255572
-10.303667 -39.281341 277.106762
-13.179081 -2.045456 267.074247
21.909651 -51.774928 271.681627
-19.846270 1.581301 274.680406
9.969091 -53.100513 281.876385
-24.785920 -51.608464 287.583570
-3.237521 -68.294004 287.468940
16.921888 -7.849644 269.125486
-18.150371 -12.603715 271.257708
-23.706717 -53.171835 280.521073
-27.470592 -8.023739 278.853324
-15.717825 -25.572537 280.963183
17.243594 -7.867454 269.786269
29.649718 -24.961315 270.801544
-9.960332 -38.995374 278.595001
6.817406 0.224363 269.302621
-18.593387 -60.800454 288.910101
16.729147 -20.272777 265.454113
-8.952903 -66.423614 288.324150
8.586680 -66.263869 277.692258
33.933218 -38.562368 271.312876
32.926209 -35.666797 272.578344
-10.796218 -39.740905 275.908895
-30.135777 -27.822146 276.060045
-32.494411 -16.730715 281.804264
-18.348635 -11.449452 270.216093
9.757455 -53.323155 274.622186
31.930656 -55.558817 277.457744
4.997888 -1.945911 269.966936
-19.629044 -16.107808 272.968315
-29.782870 -25.123189 275.353213
11.517694 -63.131328 276.368931
-7.889665 -49.102932 276.692212
-19.843085 -18.000626 279.768556
32.593474 -17.299270 263.794602
1.512266 -68.852491 280.295223
34.980863 -48.531249 271.194160
-10.680935 -46.751570 284.547970
9.843933 -50.460862 273.959160
1.564687 9.109464 268.711640
39.650978 -24.407432 268.619746
-31.985625 -15.846275 281.838212
14.370062 -17.476736 265.959635
-25.851627 -35.643500 277.031918
-8.081162 3.947325 266.728296
4.520188 -11.010078 265.825406
-10.467709 -48.764314 277.738929
3.673935 -2.412336 263.851479
6.877841 -57.126492 283.396043
-5.897970 -12.024660 275.497079
-31.659862 -42.894371 287.543699
-8.153683 4.216731 265.382543
-10.566422 -55.024101 285.681993
-21.729884 -40.367384 277.201593
-31.166556 -17.210276 275.537692
25.873896 -12.764314 262.169004
6.408415 -1.962428 266.006500
-0.586166 -5.079464 265.198410
31.354933 -58.180942 271.780282
22.441702 -20.645326 264.739424
7.135443 -12.842601 275.067627
-20.070474 -19.995131 280.319631
35.556708 -19.349987 268.018186
-0.417703 -48.354078 283.517597
0.558208 -13.335771 267.226756
-20.355577 -37.112039 284.169853
13.575763 -11.745610 263.993740
28.112085 0.083646 263.171971
33.801806 -40.411883 266.834647
-19.203632 -13.172719 270.961240
-10.756129 -16.775139 277.509049
24.458859 -44.828308 269.815187
-21.139266 -53.432871 287.270665
-23.570310 -18.478271 280.422557
-21.431666 -1.917695 275.823628
-18.132151 -56.093331 280.371738
30.348923 -30.496864 272.813330
-30.754361 -15.189019 279.407024
26.780419 -11.766948 266.797930
26.079391 -11.054988 268.172026
5.009928 -12.683976 274.664909
15.629217 -45.578052 271.520660
-17.593842 -26.601255 274.118692
30.042493 -10.175520 267.633352
24.986484 -12.536430 266.986956
22.594825 -40.061162 268.898666
44.538590 -40.348360 271.568954
25.302354 -23.666779 272.077337
-4.354268 -56.806676 277.918945
-19.459425 -20.430966 280.049453
8.034499 -5.795868 271.486922
17.359317 -10.076442 263.029665
-9.227345 1.763845 272.376418
19.014128 -10.911948 262.538851
-27.229432 -51.184699 288.942993
-12.315947 5.510620 272.101641
-10.507001 -14.758147 277.477622
-8.515951 -11.723295 268.364102
-33.825653 -30.494039 285.182634
-18.460557 -30.834471 274.687509
2.931446 -53.515876 283.543318
30.807233 -30.487273 272.091985
30.907646 -59.490032 272.301376
-19.501906 -59.722803 288.760685
2.180689 -46.384352 283.276677
2.816842 -55.121209 276.316359
-2.343473 -57.809644 277.687033
23.307706 -28.225725 275.925755
22.079360 -0.931025 260.774851
17.378718 -11.677819 263.092846
-31.843694 -14.950435 279.117138
15.402367 -17.920578 265.158941
30.357823 -33.623806 266.149610
-17.628241 -10.138443 269.948378
21.833092 -23.328506 274.466120
-17.533602 -14.226308 277.758762
9.968171 -63.343421 277.381629
17.796299 -68.086586 283.457086
-9.975799 1.543447 266.066650
14.670230 -59.388271 281.954278
9.314140 -50.857436 274.175376
25.121506 -24.904850 265.065750
43.161569 -44.381420 272.611886
-26.980173 -27.302311 282.545517
0.887804 -47.336188 279.932524
-19.208058 -41.460666 284.709578
7.415419 -66.470563 284.235477
-31.456886 -37.658222 286.016971
44.849019 -29.774545 267.248228
-10.152373 -14.843172 276.980251
14.834234 -60.545868 275.181884
33.997603 -42.290956 267.085999
9.201380 -50.074363 281.931371
0.581373 -13.067327 269.926770
4.617270 -0.609595 270.002372
22.809105 -33.408985 267.233461
-18.290326 -24.642882 273.290426
-2.436492 -7.562615 273.837090
11.079084 1.470293 268.065959
-10.674117 -23.465861 271.569491
-1.507907 -48.464513 280.512122
-4.515907 8.825373 270.630181
8.064293 -64.975709 277.487248
-16.495215 -53.186022 286.545366
24.683654 -10.328878 268.386563
12.033020 -62.495831 276.145130
-6.127788 -47.627974 275.987208
-14.172208 -45.172309 284.625023
-19.882347 1.501994 274.700195
-8.475618 -65.964729 287.705511
24.308653 -13.513876 262.202114
21.932123 5.440548 266.016573
-15.817307 -43.956045 284.751952
-15.845725 -46.098842 277.755996
25.985618 -34.957533 274.688229
19.462176 -58.013242 280.983269
-29.702542 -46.620874 287.515476
25.362383 -13.985592 262.285158
6.464428 -1.322075 262.745559
1.167839 -3.797922 264.823526
20.453410 -51.770575 279.812992
-4.264557 -6.566352 266.834567
-25.643750 -4.003101 277.415723
-11.948194 6.039262 272.071004
9.955042 -1.343851 262.188405
23.333970 -42.350497 277.072990
-23.695163 -34.104991 283.460438
32.100180 -53.358767 270.061523
-8.358056 -10.509376 268.459037
17.711552 -58.915649 277.584821
-11.244312 -57.443447 279.254243
5.533066 -69.916151 286.727091
-6.042024 -7.412728 274.275643
18.589583 -20.680160 266.232723
-3.315232 -8.732436 274.455309
-33.198962 -35.634159 286.112691
35.443090 -53.884041 276.431471
32.727746 -39.884309 266.757002
32.068938 -28.462844 271.522552
42.598726 -45.596957 272.935241
-17.478605 3.141288 273.772453
-17.653962 -52.355691 286.314821
-4.731112 -49.643643 276.310086
20.351013 -52.293457 272.383442
-17.369313 -10.153997 270.737559
-1.276335 -68.771646 283.495038
34.417931 -18.391569 268.529132
21.499086 -12.678410 263.233781
31.726014 -55.414545 270.590961
33.947850 -41.654126 273.702413
18.402372 -57.447880 273.658365
1.166164 -55.628246 276.863709
-5.758319 -45.503093 283.535525
27.487617 -26.863034 264.907862
-29.064527 -27.404275 275.595427
19.893207 -56.196414 273.678884
28.570600 -28.077615 272.620158
-14.292350 -34.421852 282.555890
12.659330 -69.305218 284.700695
-12.332804 -34.882298 274.820164
-16.434833 -43.134336 283.439321
34.672238 -20.671958 261.827796
-10.334928 -21.486963 271.163811
5.098954 -55.881317 276.304676
5.045733 -53.810492 275.831282
43.374063 -18.520307 267.302463
-18.436227 -27.589225 281.568512
13.834513 -6.515183 270.429466
23.875637 -35.346821 267.742991
32.741446 -16.920157 268.584400
-23.025668 -37.129899 283.791833
6.179621 -69.846836 286.292593
12.092048 -0.084335 268.563439
-6.213933 -46.831564 277.439067
-0.531659 -15.456818 269.507274
-17.266063 -44.131905 277.328521
2.097389 -1.671229 270.987421
3.107358 -11.763138 266.197602
31.525669 -15.919840 267.688275
-1.510731 -0.684431 271.823047
-0.467241 -68.682844 285.428226
16.474596 -59.154172 274.457276
-25.494383 -36.437748 277.334660
20.376009 -20.120884 264.430761
1.184332 -67.076352 285.793006
-4.846396 -43.004788 283.675939
15.460960 7.235017 266.401630
34.008250 -33.366252 272.097935
29.266935 -14.740720 266.441733
2.869689 -68.597937 280.322606
28.875955 -14.092301 267.883450
41.217661 -26.816535 268.321417
27.685069 -64.283338 280.834794
-32.290905 -40.371300 286.849618
0.911994 -3.421627 269.511061
32.248718 -51.944188 269.967124
-18.820923 -16.350568 272.100009
-30.618367 -26.325549 276.070257
22.266161 -39.063874 269.202426
-16.205095 -7.289632 269.370615
22.893263 -21.782258 272.513896
10.459100 0.270380 266.865178
0.493543 -15.225590 267.376631
17.963120 -16.462449 271.949679
-7.196394 -48.043782 283.968181
4.123783 -66.268243 279.190928
-27.553337 -50.072301 281.692982
-18.360863 -13.024443 272.464785
37.766537 -18.607564 267.386436
-29.318209 -48.036298 284.961343
1.867766 -11.502153 274.442717
36.976238 -21.640563 268.493816
43.425481 -29.054233 268.980553
0.320712 -7.009258 273.421089
-9.039539 -16.859050 269.948691
27.571196 -53.348326 278.232261
-10.745896 -45.813415 281.805168
21.301234 -53.623739 272.509098
-20.130992 -55.352364 280.435562
3.169072 -14.286308 266.986728
19.859941 -56.662459 280.267805
18.039375 -68.417609 284.384310
25.013964 -31.689238 273.797424
10.733680 -1.135410 262.121082
13.474248 -0.013462 268.462077
0.022203 -5.185932 265.190050
-23.144670 -13.380164 279.077185
36.488704 -6.231234 265.806601
18.663307 -10.596541 270.051398
26.294321 -7.580129 267.787944
-7.065134 -11.218326 269.222844
19.691037 -67.870494 283.045158
3.933007 -13.960278 266.885400
-14.896414 -53.718493 286.377221
29.006512 -29.894163 265.709455
-4.066475 -47.632008 276.166290
-14.762400 -33.384728 274.908099
-22.643894 -50.413910 286.727667
-16.391511 -31.688860 282.370403
26.151558 -13.442880 261.793872
27.942780 -15.235929 261.860721
-14.706511 -44.778025 284.989133
9.358135 3.636070 268.376727
-20.013265 -21.055523 272.844925
2.428152 -47.585008 278.374354
1.513722 -67.921822 279.692114
24.032891 -22.260122 264.486854
34.747158 -54.809628 276.521638
12.180257 8.137612 266.619056
-17.661021 -42.684738 277.665099
-20.720114 -53.341782 280.383955
-30.512352 -15.472163 279.909357
-4.979953 -7.798629 268.121600
0.400923 -15.982892 268.456668
1.655129 -15.037382 267.224103
-19.996088 -23.971473 274.252283
-0.495686 -4.239814 265.333317
21.607007 -11.413603 262.321234
37.914873 -8.478052 265.769680
-22.086748 -52.886566 282.819249
27.102068 -38.250219 275.392368
-6.330846 -49.249685 276.445468
29.726551 -12.662434 267.906666
13.487147 -1.000498 261.712492
22.215276 0.357615 259.978950
-5.300355 -47.248162 276.150435
-10.565363 -56.637112 283.794302
29.643032 -62.714643 279.752129
-14.018177 -0.794500 267.123083
-12.551431 -46.746129 285.130247
-14.842063 -36.101207 275.010392
33.226290 -49.274465 275.943816
3.686701 -66.545874 278.997719
-0.082978 -3.040769 271.653667
36.034239 -5.494993 266.159519
-11.166858 1.885750 270.678983
32.226381 -60.353482 278.052906
-4.829730 8.611332 270.784587
-28.333257 -7.871755 278.687701
19.404545 -56.026820 273.128599
10.778237 -7.545544 271.408170
-6.926215 -49.531928 277.228281
24.637116 -41.379016 268.898256
40.355249 -25.497929 268.689155
44.110686 -41.316079 271.727463
12.543176 -47.369435 272.890746
17.010454 -57.473160 274.945542
10.701157 -0.462263 268.967807
-33.613433 -25.415401 283.919488
41.720439 -48.089042 273.734450
-11.057882 -21.631005 279.287616
-12.689479 -16.779825 278.180250
33.033740 -41.210824 266.937621
1.427453 -13.984237 272.918075
-9.984841 -39.428819 275.993884
0.163138 -15.681477 267.571479
-14.512071 4.667903 272.815585
7.550451 -66.938497 278.242707
21.516143 -66.156051 282.675985
-10.316845 -23.577948 271.927684
33.743448 -52.737159 269.583935
-22.914165 -38.490591 277.559276
-1.298279 3.611720 270.547304
34.947574 -21.247122 262.001157
44.505470 -29.830848 266.520560
-12.376155 -56.364356 286.224351
-13.212431 5.424633 272.528797
15.507763 0.363191 260.568693
30.123234 0.136264 265.562743
-19.343762 -16.007458 278.836951
24.876466 1.029146 261.888146
-10.357605 -13.832505 269.613184
7.577561 -69.487220 285.815460
44.638011 -37.383984 271.560968
-28.852253 -29.096267 276.045879
30.263902 -30.300779 265.080318
-9.222443 -56.905262 278.853625
13.318338 -14.856860 273.572490
42.955125 -28.576039 266.891191
-13.867575 -47.788628 285.550672
-7.774081 3.567292 271.534393
0.903361 -67.477830 284.588173
15.656547 0.986287 261.292786
-10.273267 -48.434023 276.975423
-30.457050 -24.193320 282.777161
32.412934 -59.784005 275.060356
-15.520059 -3.282262 274.418935
-17.997469 -9.459806 269.621566
16.857473 -56.093335 281.163870
3.709882 -67.353932 283.320725
-25.998050 -4.726595 277.364447
31.151737 -60.504560 274.831608
44.244491 -23.096652 267.811808
4.258438 -9.600002 273.386707
32.703479 -37.168507 266.106004
-33.937658 -23.222717 283.727661
-0.480414 -15.076567 267.544031
-9.724614 -13.617746 276.709318
-3.750835 -56.996807 285.110712
-18.199623 -15.960890 276.947397
1.921626 -48.157612 275.291433
-0.953795 -14.896997 268.771797
-14.512575 -29.475718 281.253765
21.917294 2.678996 265.710533
-30.711174 -19.437136 276.135516
5.120675 -9.786926 272.497683
10.564954 -49.219226 280.985229
21.147106 -55.573445 280.173808
32.879373 -50.453109 272.106662
1.128783 -12.802234 274.784152
43.303516 -29.708929 265.244315
10.504828 -9.513141 264.275990
-31.527404 -20.237060 275.317192
0.719124 -67.986549 285.837441
29.450592 -14.857905 268.981531
0.693516 -4.760878 272.379510
33.019508 -47.979303 275.638402
-5.360527 -11.756405 275.722673
29.853010 -15.492849 265.404924
-12.634017 -46.043035 276.906862
-6.958349 -54.684959 285.669029
-16.267523 -34.765897 275.430396
-11.165960 -30.670932 282.776993
-34.247398 -26.299125 284.304559
-14.132939 -63.306615 288.215340
-25.926845 -4.485064 278.040692
-24.859826 -36.825836 284.470081
-18.014415 -8.257278 269.659529
-15.282406 -36.232344 275.593563
-13.438890 -2.827206 267.482340
37.348357 -55.164492 276.601032
21.892042 -30.514569 270.200188
-17.293194 -6.544156 269.042954
16.654232 -43.910058 274.206444
-0.281955 -14.393872 271.280989
-27.514435 -42.529774 286.474460
-16.158759 -20.055008 279.732431
34.531302 -58.901150 278.591818
14.312840 -17.322416 270.285845
-23.107025 -1.272019 275.990864
2.720768 -49.828451 283.262048
29.822734 -14.883587 267.020256
-5.161578 -6.870483 273.915052
31.877938 -6.934574 266.368803
-13.330925 0.269255 266.766181
-3.804185 -8.834986 273.903430
21.457942 -67.157984 282.200277
42.638854 -44.505273 273.582049
-23.083785 -40.531205 285.437775
-2.458069 -45.711133 283.154766
-13.083545 -12.235618 277.219291
42.251278 -17.442186 266.861117
-7.279013 -57.149499 285.883509
17.582222 -58.559021 274.174914
-10.552589 3.168567 265.777111
-7.959109 -47.125692 276.669107
8.422263 -1.516809 262.471929
16.251417 -60.927068 282.040879
18.963475 -11.952728 262.922682
11.487360 -61.759222 282.968924
4.122536 -3.172179 264.275089
17.692022 -18.334025 265.090684
-15.407605 4.549026 273.239613
-25.710062 -35.055597 279.401738
-27.518585 -48.562286 286.973218
8.323618 -12.970480 274.954885
-16.130672 -5.278284 268.294454
-16.840549 -55.053249 279.951513
11.248959 -69.734281 285.417450
-0.611396 -68.606868 281.728648
32.816502 -52.317521 269.500688
30.189397 -25.312777 271.039168
-3.176823 -49.551680 276.631475
30.017822 -16.454136 263.279408
-19.901992 -17.216116 272.079080
-16.319263 3.931493 273.494736
28.783019 -15.821999 262.354934
31.568215 -16.089353 265.275796
42.339205 -23.399311 267.710477
12.425967 7.513412 266.663969
12.990635 0.459078 261.271367
-14.962962 -45.240362 278.498963
-17.694477 -43.725606 277.313322
11.103814 -64.533378 276.836564
2.787750 -3.715195 264.466524
37.178759 -8.313068 265.853148
-25.675913 -33.875780 284.173250
-0.160437 -13.976316 267.442719
33.472452 -31.588043 271.841248
29.063888 -31.184586 265.962034
38.310647 -22.872891 268.640339
-11.353293 2.555358 266.073475
-19.838763 -42.773620 277.831773
5.418836 -13.316670 266.513377
-12.241176 -0.623076 266.925198
36.943927 -7.303270 265.382260
32.035689 -52.672372 276.894086
-18.817605 -19.949569 277.388874
15.326985 -61.541550 282.245710
28.730050 -14.888633 264.243860
34.825884 -56.185002 276.768185
19.950484 -53.809748 272.587150
-19.096454 -29.737153 274.899791
6.769343 -9.179651 272.036437
25.089603 -0.227815 260.866284
-9.486299 -48.978777 277.587503
9.622926 8.697985 266.990771
19.532371 2.665105 266.113351
18.782069 -54.824330 280.547907
33.610675 -53.672938 269.843862
11.982832 -47.172301 281.354283
20.684403 -12.078657 262.522727
43.706894 -43.766245 272.524625
14.656924 -14.598428 275.841321
44.065021 -37.672989 270.795703
-19.854058 -23.210838 273.002933
-17.019486 -30.037000 274.031043
7.100810 -0.833989 268.545245
24.093865 -0.582905 260.036960
43.139763 -19.616200 266.872063
18.501586 -58.468982 281.077192
-15.026424 -63.264322 288.681343
-16.498586 -31.332405 274.228603
29.225689 -41.404276 275.561315
3.775452 -4.003030 271.562115
45.074556 -29.946108 268.760878
22.410372 -44.231629 270.071447
7.118690 -12.425036 265.438646
12.724394 -63.393164 276.301965
21.973062 -12.580077 262.464364
-4.064635 -57.876900 278.045520
5.696430 -10.776446 266.087779
-23.373736 -37.487134 277.603139
8.046263 -1.134602 266.325965
-27.024844 -50.255241 281.377688
19.850752 -56.373671 278.813973
-9.522807 -38.572848 278.647184
20.784659 -51.310580 279.622316
9.061088 -8.385681 271.459734
-25.225484 -5.235891 277.549110
-23.993665 -36.089685 284.241001
32.086743 -34.610321 265.634321
-33.960164 -31.757664 285.346106
-22.318076 -35.986990 283.639938
32.460604 -1.971659 265.495092
8.369714 -54.266633 282.559886
-17.282502 -21.384214 279.716447
17.368680 -2.488823 268.483941
23.127609 -35.007365 267.458021
21.417641 -20.231523 264.541298
33.782370 -40.254399 273.804486
33.956060 -4.155788 265.209933
31.691586 -61.435023 279.184595
35.727025 -40.638665 273.228891
6.527520 9.149301 267.605980
-2.535060 -48.436828 283.713689
23.029087 -31.890368 275.203062
21.420024 -38.876715 280.317583
12.644376 -52.262969 281.077054
28.177986 -63.467260 280.023381
19.014714 -56.835010 273.547918
32.687655 -48.554614 268.922210
-29.374873 -48.445768 286.982432
3.906797 -3.250717 265.006438
33.916474 -44.118213 267.479231
13.852819 -17.894744 267.631501
40.817335 -21.719854 267.621875
-27.787819 -32.606254 276.759751
32.945877 -35.421452 270.362486
-1.624473 -56.178190 277.680337
25.374219 -10.830365 267.819047
21.418912 -49.858313 279.240012
-13.163328 -56.990378 282.149330
0.769573 -46.363689 274.812728
17.236403 7.580725 267.000715
2.215928 -47.945698 276.613250
22.797801 -12.077700 264.665088
-16.052652 4.195746 273.435146
10.430381 -63.173026 276.848406
12.769696 -61.933183 275.984727
-3.849104 7.949008 269.793831
26.623754 1.559060 264.143338
-0.780380 -15.523935 268.231004
15.554795 -17.966216 267.909046
-10.113164 -39.034634 277.929713
-31.111620 -20.676872 275.299668
18.065300 -0.799546 260.714751
20.522063 -67.524215 282.679568
-18.530801 -14.676764 272.065530
-16.853413 -8.715573 269.785970
32.324052 -54.426618 276.800364
20.437378 -10.707144 262.629300
-9.425171 -10.660350 275.892109
16.300397 -44.184687 273.034207
15.252349 -10.081264 270.024579
26.239762 -11.677718 266.268581
-12.866034 1.519983 273.091376
-28.528548 -31.079333 276.616812
27.492374 -11.531808 268.078595
-8.865327 -11.365327 268.567115
-23.327057 -52.101920 280.432274
7.754469 -64.594880 277.939707
10.616202 -46.742432 281.839967
21.850233 -50.347499 277.337092
-31.009569 -21.917338 282.182976
-9.138729 -55.009874 285.750203
19.747312 -0.977899 260.309438
31.470975 -19.684276 269.751525
-25.972514 -29.508125 282.977603
-8.665696 3.473858 265.583396
15.281255 -11.249055 264.097622
-1.888864 -69.104664 284.906924
-14.667205 -44.716696 277.117312
-28.925891 -28.324798 275.926183
-19.434268 -15.271892 278.781690
2.472116 -46.939270 279.215226
-13.417984 -56.998531 279.523641
-29.553264 -28.054621 275.922165
-17.703479 -32.443149 274.864157
35.871506 -22.021276 261.905156
6.281009 -66.998690 284.425050
-6.107150 -57.751292 278.368980
37.369274 -17.595166 267.601043
-0.874914 -5.778948 265.508314
-23.785967 -36.689265 278.010309
-27.650595 -33.230919 277.069300
-9.678058 -12.592844 269.189288
-19.750810 -18.890752 279.949889
22.703162 -30.955233 271.844448
-29.287726 -47.904166 285.850331
-28.692113 -9.030931 278.995633
44.735380 -34.357961 269.875953
31.418180 -33.742061 265.407308
10.580265 -61.647928 283.084429
33.442526 -13.622642 267.507284
-5.174659 -55.412861 284.910655
-8.694039 2.741592 271.704197
-2.192814 -4.141044 272.657708
-17.452704 -27.146682 274.070561
3.083563 1.421016 270.315523
22.898435 -18.628251 271.218642
-5.464782 -56.798692 278.316319
-4.068474 -55.146712 284.446309
36.445413 -56.220620 276.722481
18.921660 -16.456002 271.661276
-6.903805 -17.410995 278.540333
10.970605 -63.396119 276.543826
-8.241567 -38.819426 283.769011
22.449866 -25.076794 274.075136
-25.519255 -51.121995 280.569494
11.318176 -52.087903 281.374157
-17.526636 -61.659921 288.695708
-21.309230 -23.692381 281.391143
-30.240769 -44.834147 287.351861
1.446518 -14.906639 269.928499
-10.597055 -20.861734 277.279268
0.251182 -15.397810 270.394579
-18.817253 -14.104242 271.006763
22.775439 0.286558 266.218946
-2.095286 -56.637917 277.314365
-31.302415 -15.906943 276.429951
4.883614 -2.436813 263.444096
-16.704356 -22.993836 280.340920
23.467203 -34.310137 267.622153
-13.362346 -58.007583 286.985662
22.259631 -32.314176 267.219504
11.215194 -1.567260 269.518155
17.107602 -59.975268 281.634629
1.165553 -66.569338 286.092510
17.484436 2.371713 266.461343
34.537586 -46.048681 268.134048
-15.830507 -6.717084 269.289464
-17.568700 -10.727055 271.059468
-16.874026 -45.441181 278.016768
33.511771 -44.363365 275.014281
25.972779 -12.647468 268.753042
21.944498 -30.823419 268.059462
31.673661 -36.900872 266.597271
35.976665 -44.786162 273.900587
19.806046 -10.771774 262.510180
24.805993 -49.769726 278.293103
-0.838480 -14.910380 269.312262
22.041226 -54.183266 279.348351
14.942772 -44.061962 272.497714
15.694264 -7.733369 270.068188
18.208817 -58.075236 274.214521
-17.340193 -7.419960 275.967684
-19.167611 -14.657369 271.101683
6.844013 -0.946856 262.729913
0.247615 -55.852870 277.173768
7.744688 -51.177718 282.323211
2.047375 -47.954379 279.700093
24.688434 -41.349969 273.419634
33.686599 -45.791004 275.144070
-16.535778 -43.808997 285.133809
23.982675 -66.264201 282.003567
-10.181123 -37.908119 277.987694
-6.612426 6.533947 267.921865
31.014206 -15.096068 263.686299
-34.103585 -25.005822 284.669379
-9.616189 -38.889669 279.387921
21.457179 -1.000359 260.691225
-13.336697 -53.667486 286.210521
41.436147 -22.809222 267.457009
30.913169 -58.274470 278.351128
32.468321 -50.249004 269.650675
23.779342 -36.137951 267.795161
41.477839 -15.051294 266.411328
-17.255209 -15.386024 278.576314
0.936920 -49.040291 275.454859
9.864147 -69.787949 285.264730
23.610428 -65.603659 281.461567
29.023882 -0.459578 265.251190
24.022428 -23.827732 264.716575
-9.955011 -18.456691 270.258993
-28.089626 -23.458300 281.963944
-28.593192 -28.271470 283.244777
-18.233891 -39.516194 284.140661
43.122593 -29.690832 265.032321
44.905171 -39.438792 271.562775
3.941674 -68.141215 285.711132
-10.382089 -24.591116 272.650928
21.165629 -52.583563 275.130402
-12.032250 -24.521104 272.312820
-27.413337 -50.856826 283.156107
32.422193 -31.916682 271.255628
-11.350078 -38.117066 279.669493
34.642497 -52.788493 275.129179
26.858273 -25.341810 272.132293
-18.590924 -43.937863 278.243810
27.537494 0.200616 265.251184
-19.171616 -24.245590 280.867018
18.897600 -68.205826 283.026815
-5.216492 -10.051971 267.399684
21.345201 -54.819485 279.754371
29.802003 -32.527894 265.745088
22.278682 -45.558078 270.527207
-31.692184 -17.885901 276.162118
13.105380 0.163094 267.832071
24.206395 -46.117490 270.060971
13.847822 -60.114697 282.274485
-10.971263 -24.797921 273.520112
-20.471925 -22.255415 273.251683
13.877405 -49.070913 272.973314
0.584788 -48.606336 275.213629
24.375861 -43.759157 269.393277
7.148070 -65.221626 277.802110
-27.950895 -49.476157 283.056706
-22.180499 -52.694024 280.458234
9.045796 -65.922673 284.419844
-28.367072 -49.849903 284.844205
-13.430902 -64.296420 288.395316
33.488075 -14.834376 267.710984
17.507676 -57.163523 274.031073
26.957678 -40.479228 275.957257
-14.131769 0.150390 273.701618
14.761705 0.211007 268.015057
26.695211 -0.175118 262.145996
-31.141578 -43.504846 287.308351
4.909089 -52.569740 282.831152
12.161091 -11.473539 264.037505
-18.914259 -52.003107 286.795060
-17.156871 -9.284380 269.849330
2.762607 -3.332599 271.683813
24.372843 -13.001569 269.624210
-2.299700 -57.020327 278.867865
-19.461157 -28.356515 274.254933
-0.934368 -5.814101 272.903226
29.902969 -16.171830 263.853490
-21.756715 -39.445249 277.527203
1.983425 -46.363781 283.481025
-10.296339 -22.004923 279.210269
18.971600 -19.621940 264.563054
-19.477500 1.835660 274.812565
-16.848885 -5.592783 268.763125
32.911360 -46.393372 268.455813
31.604736 -34.926885 267.168181
44.107519 -29.035745 268.160581
-16.023626 -6.096419 268.549800
33.151004 -44.771515 267.592698
-13.638974 -34.197016 279.628591
-20.094975 -40.421292 284.612209
-1.549761 -5.114676 270.519398
-18.035919 -28.249716 281.314969
4.718395 -2.375988 266.446703
-28.009027 -22.901213 281.956524
-9.760314 2.402556 265.559793
-2.569546 -14.530002 276.749512
-2.270247 -44.433791 284.001216
-14.460636 -63.749302 288.423777
-8.905875 -11.886972 275.688201
31.473060 -17.780125 261.736870
-1.232287 -6.418874 266.361192
-17.822781 -11.579413 271.388739
-7.754337 -66.928265 287.967734
-2.820230 -56.489017 277.670801
38.671883 -9.452965 265.752107
14.031313 -17.503826 267.215669
-6.324603 -56.771847 278.645287
-29.017346 -17.889882 280.867408
-11.709694 -36.893937 274.764617
40.964480 -25.566348 262.728903
14.110756 -47.082890 272.118032
5.591371 -12.571386 265.749514
44.180347 -27.308674 267.542452
31.761752 -58.576118 277.760466
-29.993892 -16.132923 280.505001
30.631969 -16.403006 264.483303
14.881571 -49.605302 280.519611
40.229160 -20.552202 267.665297
31.652144 -32.686332 272.680000
19.363765 -8.529622 269.257918
-29.735009 -47.606979 286.302887
-7.169137 5.341539 266.193256
11.272413 -64.410098 283.163890
-31.638757 -16.769271 277.625716
-0.726524 -48.947058 275.541112
20.684142 -39.586916 278.295845
23.685410 -39.806016 269.558259
-8.278833 5.951107 268.189335
-21.792013 -41.026641 277.977765
-5.108079 8.514998 270.277560
15.290194 -20.227348 265.836001
-19.987378 -15.563191 271.842211
17.776905 -58.873316 276.429639
-2.418915 -49.320713 275.950074
30.462946 -61.840448 279.603568
-8.545170 -56.614470 278.935403
-11.124349 -27.256535 281.548937
-14.763484 -55.572639 285.528780
-27.738440 -49.659212 281.762342
-17.364361 -18.747901 279.370487
11.927263 -64.220377 276.969910
-17.894567 -11.563741 270.837352
-3.075181 -4.579601 273.067206
-11.919245 -17.951757 271.179020
-8.575712 7.443999 271.594412
-11.548588 -39.650009 275.339633
11.527055 -48.998114 273.616261
-18.282519 -47.058462 286.063064
5.163320 5.148876 268.831258
-16.884353 -30.936507 282.162130
21.934822 -20.237602 264.994472
24.411518 -31.286977 274.445617
12.391377 -63.767287 276.586890
7.152916 -0.662545 263.217449
11.563813 8.489626 266.646683
22.660008 -37.104874 276.786788
-21.073797 -40.911221 277.291827
1.774437 -3.757965 264.436752
-33.809590 -33.375387 285.502910
3.819632 -53.047172 283.431421
-9.451874 -38.276304 279.996008
-18.957526 -42.567299 277.343581
18.918233 -57.528410 279.022291
23.298287 4.144780 265.494876
19.773953 -18.874115 276.060607
-12.118547 -63.848891 288.605545
8.769291 -66.400078 278.392017
27.071425 -13.277981 268.250719
-8.451302 -14.985321 269.539479
40.061099 -51.246604 274.933925
-6.184056 -13.664710 276.357791
-13.929482 -6.441824 275.585168
-15.457255 -5.737644 268.471569
13.350783 -50.243626 280.662825
-17.721796 -44.677727 277.759180
-14.722405 -27.272858 281.360120
-20.251876 -54.096520 287.454158
16.162516 -58.137597 281.008353
-17.560562 -13.606165 277.069231
-21.977290 -50.501919 286.955461
6.588374 -55.390138 275.755574
12.571437 -61.052829 282.615960
-1.839213 -14.083542 276.539445
-16.364339 -6.602553 268.693001
-30.390404 -21.978192 275.132566
9.733308 -0.547045 263.627739
-0.713830 -14.289298 267.582357
21.019597 -32.842479 267.418732
-4.375850 8.898344 270.595391
19.873434 -12.303071 263.261894
-26.453203 -5.824976 277.670384
-25.924521 -33.712439 277.193189
-18.317990 -54.686259 287.002156
2.579027 -56.641999 276.657164
-16.375650 -43.751978 277.340896
-28.189628 -49.869738 285.653770
-8.618047 6.020239 270.874411
23.572173 -48.042677 270.517737
5.979307 -1.051822 263.279825
-10.787281 -25.020491 272.598937
-5.263474 -42.166017 284.044325
19.085346 -0.629556 260.154739
24.394853 0.909242 261.550427
32.887310 -38.560174 266.235508
0.930404 -57.248961 277.191758
-25.920760 -35.943087 277.710617
39.240156 -23.280588 267.415042
40.624253 -32.515802 270.515072
-1.017868 -57.622564 277.384326
22.606814 -11.608452 262.247279
12.616753 -11.747045 264.189213
-16.792484 3.629961 273.841898
8.067934 -66.252231 284.471333
0.225671 -68.394150 280.084759
-1.454346 -69.267499 284.989079
-13.436252 -38.072350 275.379046
31.149246 -57.578336 271.950841
2.719910 -13.241890 267.374435
10.670454 9.043987 267.636597
11.018836 -11.916252 264.749830
-6.029783 -1.772601 273.006101
3.563065 -11.996998 271.119400
24.845947 -30.559795 274.440229
-12.182945 -64.864722 288.428604
-31.283779 -23.240116 275.508359
6.253366 -53.195076 275.415932
-17.376783 -42.853240 284.664199
44.969530 -31.629674 269.237707
0.321883 -46.630764 275.383562
31.756019 -13.980870 267.683044
14.695538 -16.969900 269.222126
-1.603151 -54.793401 284.488991
29.734395 -28.806707 272.484809
-31.205906 -16.254565 276.129752
23.265819 -49.260904 271.054437
30.979433 -26.426083 271.264493
-17.001309 -12.317033 277.516345
28.957628 -23.412388 270.933390
-14.263141 -37.082923 275.237133
14.964890 0.118925 260.764674
-18.939202 -22.869401 272.995249
31.405378 -59.709698 278.404951
-6.793664 -40.568493 283.896834
-24.376533 -37.957698 277.989171
-5.806867 -48.383766 283.525745
37.062629 -23.410277 261.941711
8.357281 -0.400440 262.446895
-5.175694 -49.316138 276.213884
5.422216 -64.595332 284.720510
-9.651767 -38.254589 277.262420
-9.786635 -38.649511 275.691772
25.494917 -33.808532 274.435232
-4.399101 -15.545405 278.076338
32.574378 -25.590659 270.848028
3.059226 9.222690 268.262982
-27.282862 -25.227216 282.442584
17.209485 -59.357129 274.895251
18.197747 -56.275841 273.624142
8.479991 -0.823843 268.476546
6.539741 -66.381894 279.335955
3.456193 -14.041363 266.574949
44.202946 -22.233239 267.522901
12.703316 8.528746 267.074496
-6.280848 -41.228928 284.457513
-21.476025 -39.202251 284.891635
6.073411 -67.650866 278.635390
-26.082932 -50.747675 287.415951
-18.831931 -11.568143 277.913362
30.941203 -31.382565 272.845417
-16.745934 -8.070569 269.275576
-7.199758 -56.851957 278.622642
-31.364877 -15.413296 276.994646
-10.933741 -22.410410 273.481220
10.856843 -10.524048 265.240354
-11.160560 -56.437403 286.232442
14.294785 2.506295 267.093729
-11.743506 6.335528 272.816331
-1.665994 -49.452695 276.244869
26.905435 -1.211306 265.936628
12.770646 -50.749853 273.450702
7.058050 -1.264702 269.835200
6.566483 -63.710451 284.645051
42.912375 -45.974400 273.312568
-28.683829 -48.046295 284.366861
-2.840377 -7.222297 266.212076
-0.753609 -68.622217 282.687068
23.307292 -52.242019 278.876846
22.547255 -51.155328 271.570772
-32.580568 -18.717113 282.025374
21.402422 -31.217703 266.956429
-20.101519 -18.389560 272.336424
21.001399 -60.353427 281.067694
-14.771881 -62.679231 288.210988
-24.660315 -51.842188 280.269603
25.638635 0.906937 262.221883
-17.611472 -7.376756 269.185573
-33.298986 -21.008114 283.140901
32.900434 -49.713246 268.773377
-11.106825 -23.456564 276.162177
13.497041 -50.826006 281.215429
-17.878491 -29.496399 281.603867
-30.430173 -20.309031 275.514722
-25.536139 -49.225509 286.699474
3.317074 -63.391671 285.192636
-7.131015 6.832857 269.016612
-3.791280 -15.448571 277.581125
-0.598166 -14.745871 270.205220
-26.833082 -31.276216 283.675566
15.871992 -58.957303 274.827242
28.622780 -11.718897 268.125065
20.086866 -31.900281 267.205140
-10.901063 -1.061659 273.401327
-0.492399 -47.424331 275.185987
-10.396664 -39.792491 275.079221
32.999280 -57.054443 271.165083
8.197118 -64.336970 278.150976
-2.973084 -5.082401 272.564814
17.095143 -11.852067 263.533543
45.075796 -38.403299 271.163776
35.007338 -4.454647 265.879105
-31.252861 -16.715853 275.670350
-2.833778 -47.202754 276.347965
-17.489441 -8.715447 269.391477
23.604674 -11.975115 262.129545
-10.568389 4.301731 271.467229
18.042658 -54.769061 280.826986
5.714553 0.050652 269.853252
-2.465291 -55.309016 284.158856
-22.304840 -50.720185 286.407411
-18.038797 -42.404339 285.062790
31.726593 -60.731171 278.667704
-14.047508 3.927219 273.004364
-9.509628 -58.186341 286.450087
-27.006506 -5.932190 278.320581
4.646140 -1.788828 263.437018
-15.180308 -4.830228 268.912488
22.514829 -46.208477 278.032054
-20.249678 -25.043484 273.684055
-31.188773 -20.791474 281.990393
-19.141640 -19.916049 273.780259
23.693396 -23.769666 272.734229
31.511501 -31.982429 272.605643
35.752880 -48.340631 274.707973
9.448510 -0.181666 262.020193
-2.282016 8.669028 269.780220
22.433903 -53.249694 279.360324
-22.655033 -54.491714 281.003058
17.544335 6.687484 265.997162
35.407699 -6.314087 265.360206
43.915022 -39.929319 271.332532
-32.904014 -39.050961 286.806106
24.582831 -0.745881 260.295788
-19.069296 -12.293322 270.816499
-21.477577 -38.256086 281.577569
24.413493 -12.910200 261.942744
-18.423148 -10.891020 277.345171
-24.834367 -35.428489 277.543743
-16.942988 -61.161742 288.646005
7.374538 -54.912661 282.878004
-12.185495 -35.924243 274.385005
14.160354 -20.215407 266.157091
2.885201 -56.818842 283.877278
15.832095 0.328976 267.017692
-21.389989 -41.558351 277.864218
-12.300314 1.626820 266.524494
-9.263351 -36.458566 285.485153
34.190405 -48.371078 268.364176
-29.519305 -26.591506 275.638232
-23.211628 -52.401472 287.262986
-27.662035 -50.778229 288.633972
13.090976 -60.619934 282.366469
-20.780874 -37.850845 283.494592
-10.226837 -65.731856 288.007061
14.367368 0.278246 260.827348
24.387953 -0.045122 266.147584
13.662194 -19.734373 265.879422
-30.119669 -11.226056 280.053600
-8.640721 -49.114686 276.910752
-31.127015 -15.829932 276.850234
33.282415 -37.818680 273.516096
21.806783 -52.841194 272.321478
-10.572271 -24.348916 275.205657
25.845069 0.373475 264.809668
-19.113016 -18.938361 272.515694
-4.103992 -49.658725 276.395679
-28.426654 -24.543074 281.390152
-27.967697 -49.705327 286.550492
-30.166749 -21.155782 275.371805
20.649075 -0.337118 260.019705
14.397215 -0.515664 261.593163
-9.590847 -44.617522 283.714294
-2.214391 -44.072820 285.678773
4.376330 9.184000 268.147061
22.245392 -46.356302 270.404577
21.784744 -18.008306 271.296660
2.316579 -3.517270 264.237106
22.196724 0.999969 264.102737
3.240053 -3.627773 264.680535
-22.264386 -37.938586 284.151226
34.060749 -42.058194 272.693191
32.866832 -43.807080 267.846897
14.781994 -44.920971 282.861769
22.554839 -41.251268 269.383977
26.579558 -41.881193 276.118646
-28.863124 -47.369445 287.577987
-17.328706 -28.957058 273.828387
-16.882904 -5.414878 275.759071
34.613253 -15.976382 267.402291
-6.343787 7.165268 268.756360
-19.938880 -41.047257 277.778020
25.677733 -48.414980 277.529132
26.583364 -14.637228 262.595475
23.163406 -11.362844 267.126765
-8.283274 3.697735 265.635238
12.181029 1.647844 267.673373
42.197892 -28.636698 264.991164
-8.220996 -10.302277 275.237958
24.448035 -12.114259 267.876476
-11.679375 -17.090422 270.568639
-9.953609 -36.670372 282.112204
-31.617511 -16.931852 280.723959
-18.653799 -41.203469 281.125428
7.885396 -1.915011 263.463721
26.537175 -39.600805 275.568976
-3.403615 -56.695767 277.713105
17.528561 -59.175752 281.031271
-7.024361 5.561809 266.414404
-4.918447 -7.353766 266.741912
-0.338864 -3.797544 266.936110
-14.031711 -63.883401 289.302260
-30.639760 -45.363132 287.783404
-9.863927 -37.319430 283.161275
21.231506 0.962871 260.202929
15.344159 2.651700 267.231405
-31.844862 -18.808863 275.989334
36.905294 -21.817572 262.734221
-11.475501 -46.840364 278.216805
-30.496357 -22.800583 274.871037
2.019661 -46.585251 280.147090
3.551341 -54.536816 276.151836
-10.021922 2.621984 267.184321
13.886644 -60.908569 276.271942
-6.874893 -45.414280 283.121526
37.879746 -9.770989 265.649095
13.989757 -10.226688 270.788381
32.501298 -59.310709 276.303838
14.495636 -17.113616 270.556986
-28.820568 -48.600682 284.039482
45.339886 -37.579581 271.686077
21.171486 -0.883093 261.184663
-23.003487 -53.901987 280.541107
-24.358264 -36.814803 277.070572
34.659326 -34.299049 272.168488
-6.698512 -44.823173 283.948988
23.199281 -9.239067 268.681257
24.395877 -39.242025 268.351778
-31.096758 -25.125261 275.755783
23.238939 -13.239448 262.550036
-29.850668 -25.894949 282.918477
32.369032 -16.849034 261.752983
33.637079 -57.300726 276.669845
6.268343 -2.408203 263.343975
-3.561312 -44.056045 283.756033
-12.384403 -20.759912 271.801293
-12.070275 -56.414811 280.344567
8.478102 -69.993274 285.937652
-4.675724 -48.514727 284.005106
1.273775 -46.831206 275.166810
44.246405 -39.468657 271.142542
-27.655870 -6.846495 278.381005
-18.278477 -55.729408 286.893654
36.576830 -46.091475 274.546295
26.721891 -10.602278 268.417105
-19.319480 -15.521160 271.386981
-19.153811 -54.217883 286.983401
28.080456 1.320317 265.012155
6.321376 -12.784055 265.936007
36.817769 -41.872866 273.563753
45.427362 -34.475971 270.026117
16.132524 -11.798749 263.726130
44.775566 -37.188744 270.514667
14.944566 -16.839903 269.035094
-9.465699 -15.407114 274.910309
12.430616 -63.742597 283.098445
-0.348467 -14.666528 270.903930
-20.752365 -41.931649 277.555644
-15.855703 -32.734426 282.540738
7.390915 0.466093 269.228309
-10.833304 -65.727137 288.805783
-14.939640 -57.117279 279.862895
-0.149485 -68.656988 280.725320
-7.289548 -13.211851 268.724109
5.100812 -13.230609 266.067148
2.222808 -47.125787 276.915332
23.960035 -37.314860 267.931580
-16.705810 -6.736059 271.181869
-12.980221 -45.725056 284.438362
-11.495453 -54.590855 286.088228
-10.739324 -37.596287 274.772316
-25.912031 -51.302654 281.011899
7.638114 -0.573577 262.758821
41.448210 -39.797311 271.969923
32.778502 -35.975388 273.320623
5.463019 -55.358440 283.067981
-3.971258 -48.597058 276.978488
14.610136 -45.052243 271.589898
30.965270 -31.958488 267.167704
32.815475 -19.167010 261.975229
-14.868277 -41.985631 284.125507
-13.516758 -3.069832 273.523471
27.939418 -34.716869 274.483928
0.554319 -4.332346 265.078962
-17.177535 -28.104561 274.121597
21.905365 -16.967430 271.459966
15.064694 -47.194570 272.145182
5.834905 -67.214698 285.012960
4.124135 -56.028069 283.591789
-16.452014 -62.292318 288.560331
23.770888 -0.960707 259.904236
2.601917 -2.622221 265.602113
-13.506441 -34.441043 274.597779
-20.840313 -51.218313 286.783129
-13.816916 5.123249 272.976808
-17.339831 -52.914813 286.450177
34.184781 -51.486213 269.395729
-10.042300 -57.728136 279.163793
8.158523 -12.226964 265.338699
-30.382125 -12.062137 280.342460
14.645191 -62.220630 282.600582
-6.412676 -55.376836 285.287827
