-50.774955 258.866085 -37.719181
-56.566803 258.693774 -100.495457
-71.902768 253.783350 -34.477316
-58.085869 254.711476 -66.846096
-83.655353 258.206413 -92.853812
-103.180765 259.740665 -39.188758
-47.435369 258.082856 -48.566923
-75.954536 258.344618 -44.346218
-81.233950 254.647670 -30.283825
-69.334839 259.924258 -107.078444
-90.041396 259.677158 -48.569191
-86.580109 253.280028 -88.879485
-92.478600 261.229409 -60.111540
-97.372233 253.888613 -55.250597
-80.493881 259.933096 -107.489468
-63.850144 258.615039 -40.346823
-92.447718 255.122709 -61.958170
-94.969902 258.211808 -43.563270
-87.542536 261.744870 -81.980208
-90.469449 253.602040 -80.174872
-51.574011 258.897046 -86.317237
-101.049574 259.673351 -70.197738
-71.502890 258.430578 -47.369565
-108.787650 259.628770 -90.911056
-56.683881 259.676361 -33.604659
-85.419847 258.154799 -106.473921
-74.379712 253.598060 -87.748548
-55.616834 259.169943 -50.211453
-56.138331 258.829838 -57.506594
-59.051710 262.432076 -74.170940
-71.470029 253.219083 -47.212501
-37.197630 259.276430 -76.167857
-89.376155 258.310913 -100.871097
-95.734666 253.853843 -93.737538
-61.576616 254.357455 -100.437427
-80.652770 261.752584 -85.817561
-57.172624 258.662676 -88.704457
-63.024257 260.887227 -81.333364
-111.837623 258.679781 -84.941582
-111.091171 258.915401 -50.153173
-47.032262 253.628624 -50.134925
-106.280169 259.517911 -55.674584
-47.111329 254.129079 -60.269685
-104.727566 259.375224 -86.536371
-71.078002 259.736557 -41.281274
-92.429084 253.656546 -98.907696
-76.313205 253.810922 -32.136085
-48.098267 253.739120 -44.895974
-90.855868 259.698727 -105.060857
-58.801357 254.483681 -88.739620
-70.858660 258.541609 -99.405809
-106.437932 258.821709 -63.286741
-69.150418 253.723599 -89.369215
-94.124070 254.041212 -42.482702
-48.152889 258.687017 -62.434845
-111.512229 254.887055 -81.995550
-114.177987 259.376872 -78.453976
-64.773443 254.124993 -40.107785
-99.092988 254.132365 -83.909892
-100.620420 259.578934 -98.973663
-88.534267 259.667689 -30.495891
-93.821651 259.583869 -32.763017
-51.905826 259.776007 -78.262181
-68.657853 262.093356 -85.028054
-39.275550 259.424384 -83.422786
-48.919313 259.357480 -72.836256
-109.339606 258.490833 -74.203868
-51.195125 259.137837 -44.634718
-82.992603 258.655597 -29.207660
-49.278070 258.694712 -67.493900
-74.007771 254.266292 -98.200262
-59.875385 259.342150 -51.642623
-39.767888 259.570376 -51.448462
-71.013441 262.577167 -51.135751
-84.102173 258.644125 -42.058014
-36.390262 259.710496 -63.171456
-42.391905 259.766141 -46.424223
-49.745828 255.014001 -40.070222
-54.187021 253.891301 -75.173180
-66.282524 254.061911 -52.995881
-107.336113 259.451501 -44.338383
-78.789341 261.573037 -50.334358
-42.574011 259.483441 -63.293404
-78.514304 254.869776 -85.689170
-80.258266 254.083821 -94.962753
-70.009932 259.376079 -91.348486
-68.079452 258.518488 -35.954553
-95.039405 259.138428 -52.848865
-66.788231 259.552859 -47.286982
-37.986805 254.966628 -71.581675
-86.821187 253.992864 -51.352588
-67.833406 254.213493 -99.926535
-96.555565 258.407699 -92.458007
-57.056103 253.716077 -54.324756
-107.458127 258.549499 -67.576240
-110.089016 258.428735 -70.091135
-51.000406 259.760902 -54.675766
-56.634599 253.637112 -60.466255
-54.750522 254.875065 -87.324976
-101.080963 254.557732 -58.227860
-93.558725 262.446442 -65.935514
-47.722855 254.397771 -83.202480
-98.550400 258.523857 -87.570508
-58.144984 262.128853 -66.645059
-97.872506 254.347045 -70.184401
-97.883682 254.017401 -88.789680
-81.920180 259.694660 -100.349248
-46.974107 258.460563 -82.695477
-76.135083 259.784771 -28.132614
-62.589109 259.700133 -31.080035
-64.568862 258.470970 -99.747578
-99.435228 258.712532 -82.053772
-83.614612 260.290346 -50.642286
-73.156931 258.021195 -33.644135
-100.423288 259.095211 -46.549399
-54.973358 254.737706 -99.987725
-95.456359 253.792504 -65.788653
-81.113594 254.798764 -51.438394
-59.017310 253.794158 -48.521035
-104.618150 259.529704 -94.908471
-102.631606 258.926364 -60.219563
-63.465193 259.270120 -90.048833
-89.064285 259.908474 -92.360582
-99.907793 259.070541 -76.687994
-99.182562 253.978989 -74.728166
-94.476605 260.936887 -71.615218
-99.446636 254.419713 -79.434673
-43.183103 258.468361 -78.450874
-88.985464 259.380029 -37.208187
-56.835225 259.729859 -94.412087
-115.797865 259.664633 -71.602019
-58.123255 260.233935 -84.382156
-46.196718 259.296281 -42.026720
-61.045312 262.602969 -58.230913
-107.328922 254.182231 -66.649206
-80.406503 258.194884 -42.798189
-75.472263 260.307177 -87.443064
-104.344001 254.343308 -61.861054
-63.544682 254.907124 -81.267777
-54.125122 259.460843 -72.042147
-115.234107 259.731280 -63.758070
-91.714459 258.841522 -77.915569
-46.698937 253.864743 -55.102389
-57.409692 259.045623 -78.764096
-95.415517 259.307332 -39.227720
-78.044622 253.587495 -43.615551
-41.919360 259.294797 -71.492379
-79.622714 259.362592 -93.980390
-98.523760 257.526239 -43.099221
-83.172162 259.364586 -35.347133
-109.068308 254.832769 -49.089344
-63.924049 253.677093 -89.518256
-98.977276 253.465658 -43.896968
-98.868722 259.779654 -35.294407
-88.609813 261.784031 -54.777436
-96.179978 259.823698 -102.419208
-43.783598 259.259220 -55.351974
-88.192179 254.079447 -103.605458
-51.083547 254.719036 -85.441913
-113.690472 259.743486 -56.755914
-83.687062 254.068257 -42.276308
-99.173869 258.934439 -56.330702
-91.493657 258.054022 -41.985152
-61.729587 254.203680 -43.731711
-68.092819 254.114936 -37.050521
-43.149349 259.633492 -89.974251
-48.266675 254.372999 -65.135898
-64.256877 259.934222 -106.047246
-69.144789 259.727412 -28.869502
-51.832836 258.519383 -99.672998
-36.309387 258.866880 -69.269881
-92.145488 259.601734 -84.511300
-46.796913 257.539770 -52.690295
-87.218610 258.351288 -87.166156
-87.648516 258.167881 -42.086019
-92.222626 253.959634 -52.628806
-58.574753 253.705606 -78.901131
-96.680304 259.449327 -64.635222
-37.637903 259.737446 -56.975902
-56.174232 259.050602 -63.688662
-57.195294 259.490439 -40.873714
-41.139789 254.162924 -76.301796
-50.472879 254.026423 -70.154154
-89.111120 254.073728 -41.932650
-47.727256 259.798501 -95.047068
-76.280982 258.475293 -97.366976
-59.243769 259.739703 -103.805324
-78.208009 257.897742 -31.856493
-104.219449 253.829461 -46.150267
-65.502270 260.193000 -53.234662
-107.805817 259.172442 -79.987762
-75.075502 259.869132 -107.257099
-60.238481 258.435454 -45.723217
-109.434189 254.023310 -71.639200
-104.714849 258.977221 -49.476422
-110.797077 253.857683 -77.057110
-93.721052 258.017263 -97.255557
-44.315282 254.301320 -80.085931
-77.304762 259.588579 -38.317036
-46.867128 258.018318 -57.998523
