-19.110760 -15.621000 274.368418
15.034855 -60.417411 277.577160
-22.598896 -10.456026 278.240317
28.512955 -39.323625 275.080376
-16.132520 -6.394391 274.400481
-10.269037 -47.085293 278.666147
-21.832853 -39.048766 280.477035
5.078579 -11.498987 271.228404
-21.542557 -3.204020 276.161226
32.880104 -23.921661 270.452449
1.084605 -46.369721 283.328821
6.319718 -1.114047 265.667681
17.746814 -16.516766 271.451211
10.243250 -0.340334 264.114273
14.552644 -46.495180 273.906010
-18.567061 -35.457876 283.720911
-11.993211 -14.793503 277.347655
-9.428254 -55.870062 284.210988
-7.092415 6.470669 270.937674
34.095861 -43.876100 269.544379
24.163032 -31.472183 275.402191
43.409102 -42.554442 272.939959
-1.513982 -56.115191 282.325521
-30.194495 -19.743964 279.819964
1.171659 -68.443062 282.196363
-15.192618 -4.083714 270.175353
23.474814 -21.087371 270.003655
33.775678 -38.084880 271.930804
39.961447 -13.198564 266.666984
-26.107120 -50.872107 283.184138
20.349099 -20.544505 266.227145
17.813736 -50.919068 280.289211
18.234293 -66.693640 283.208764
-17.604473 -9.726093 274.836383
4.520745 -66.861221 283.340592
37.017929 -20.115729 266.971146
-6.349674 -66.639519 288.164415
-24.348430 -36.105995 279.894756
-11.917025 -37.326415 276.435988
10.764191 -4.423479 270.481904
18.870406 -56.293116 276.933604
-30.416824 -22.674491 276.959937
19.809445 -43.031203 279.522542
6.172649 0.194164 268.982944
-24.414763 -51.237664 287.388699
-5.939500 -11.325995 273.878282
42.984832 -19.477496 267.737772
22.477255 -37.941350 278.315835
-11.041320 -31.334113 284.250539
-11.837643 -9.527468 276.241045
-7.903095 -39.549933 285.219937
2.317939 -2.894898 267.991728
-28.781179 -28.153208 278.264446
-30.481454 -25.811020 278.158412
-18.348315 -44.372044 285.211528
-14.768510 -34.399040 276.443800
-2.224861 -5.891105 271.939656
-17.682420 -25.949497 278.897048
-2.450758 -56.942334 279.214289
-18.349678 -30.372428 281.836011
7.072814 -12.242130 276.222797
-31.279874 -14.253196 280.896748
19.397031 0.430711 262.134018
15.403316 -45.925682 278.122154
8.505629 -47.828338 282.385157
-18.693766 -12.445358 273.038686
27.978152 -53.797723 278.215128
-19.075216 -20.417050 278.352549
-24.785494 -16.626498 280.133348
-23.672987 -29.480040 283.037983
9.765438 -9.892399 270.013952
11.792312 -10.353187 265.437471
30.939371 -31.789679 267.448459
6.707112 -53.637437 280.188643
-13.144066 -35.445471 282.030134
22.996959 -24.736247 275.498650
35.454127 -28.665652 270.951799
-28.387950 -47.992580 287.624167
36.806203 -34.861644 272.022491
34.288760 -46.361124 271.231647
-14.132525 -24.419619 280.575872
-1.337164 -48.768111 282.744495
-27.622937 -30.699358 278.899617
24.734989 -15.382642 270.345802
-10.692309 -36.936605 279.927465
28.895740 -61.759060 280.171140
31.016518 -2.204345 265.802404
-0.017237 -68.639352 286.824095
16.953243 6.274177 266.692592
40.103971 -30.919685 270.269934
-27.077648 -38.687539 285.620789
17.239373 0.474438 266.430214
21.383093 -11.275580 264.719011
-9.791301 -35.528859 285.159649
-17.729285 -50.477852 286.315905
-7.364062 -16.190465 276.541796
-28.498785 -10.751125 279.714099
44.887507 -31.842071 270.153656
0.697823 -58.539734 284.794321
11.949989 -68.622773 284.957497
-23.343082 -35.750762 283.262030
3.984979 -5.984562 272.391065
33.160628 -54.188116 273.392117
-4.663649 -52.410937 284.933683
1.695538 -55.683416 281.253801
-33.061300 -24.839097 283.977902
-15.774646 -2.192773 273.817944
-5.169454 -56.676413 283.432560
4.381250 7.994584 268.769761
-5.569546 -9.279963 268.999724
-28.558366 -33.302738 284.662172
-7.265885 -18.092607 280.663289
-14.930556 -40.202493 283.809360
-28.827647 -25.000976 277.871100
-10.998525 -22.378382 272.946272
19.395666 -18.855127 275.271385
-10.892901 -20.552018 276.050212
24.929818 -23.943397 265.776278
30.646750 -29.734911 270.472703
0.148805 -47.823942 278.201829
11.805457 0.938932 267.257563
28.698212 -27.946960 266.558941
8.397200 -53.011776 276.040027
5.818689 -11.662466 266.776883
13.539394 -61.839573 282.077978
-19.396821 -19.124354 274.834178
-8.094193 4.855287 267.305659
-11.301471 -27.084950 283.103102
-14.345936 -30.724500 280.289531
33.961864 -15.017856 266.943472
-9.955527 -22.627700 282.491972
31.888460 -33.772219 272.122903
-25.790105 -32.533384 281.982179
-32.893392 -20.026080 283.033184
-10.344981 -17.506125 271.941097
-14.161169 -55.681300 285.701260
24.359944 -3.383016 267.148748
-8.925347 -13.771229 270.406338
9.388124 -63.741628 282.778652
11.763198 -49.993483 276.242421
-26.122299 -6.472868 278.097259
12.216387 -53.605198 281.448428
-17.047473 -30.939186 276.170503
-13.055728 4.393070 272.656637
22.693251 -50.594537 277.665129
-1.166623 7.789839 269.809891
21.875519 -10.080486 268.361037
29.713409 -18.882145 269.985570
22.236290 -32.457488 270.358779
-29.307906 -22.856217 280.865605
-9.911953 2.726550 268.420927
9.398210 -64.799677 279.163867
32.500587 -34.719408 268.788077
44.498928 -26.616684 268.723749
33.999414 -42.808628 273.109963
22.429617 -49.527593 273.253071
-28.465178 -26.000854 281.385179
17.096405 -10.545655 264.984747
25.475054 -46.185000 276.349869
9.932476 7.537389 267.649089
-12.701872 -56.316797 281.659810
-14.966662 -19.484393 279.517732
-17.335390 -60.229669 288.850504
31.764346 -48.041572 275.967990
-32.897957 -34.415627 286.195314
37.563125 -40.669056 273.054481
33.839313 -40.869494 269.411697
-31.069637 -19.495976 277.202405
38.453649 -23.043123 263.570085
-6.953768 -6.245677 274.105994
3.039078 -51.499673 283.354846
-11.902369 -63.732030 288.506713
23.138267 3.618020 265.828879
-15.820175 -44.496394 279.350327
24.013998 -65.111153 282.063246
1.398281 -12.206339 275.912120
-7.310024 -57.104137 280.723604
33.185102 -37.813305 268.340697
23.709660 -37.719535 270.780492
-23.970308 -22.067814 281.372959
-2.240910 -63.020554 286.116772
29.458123 -9.008344 267.470901
-30.085052 -43.516150 287.766479
39.307742 -50.817683 275.554618
18.108711 -4.554903 268.901966
-19.116907 -41.390215 281.259947
31.924093 -58.321995 274.221858
-21.025871 -25.924886 281.901870
27.634512 -25.687018 270.433592
-5.136143 -47.169322 281.646803
-1.353008 -5.259382 267.952114
29.415244 -14.499779 264.669633
-19.238461 -23.303768 274.914028
-17.758417 -12.354219 276.786405
-3.613113 -43.561860 285.342382
-21.666903 -53.128712 283.171403
-27.832455 -29.178153 282.112924
40.810323 -38.627262 271.850822
22.623818 -58.560629 280.378176
12.294671 -62.857133 278.721219
13.505747 -13.874414 275.093438
-18.664690 -27.341078 274.883020
-17.238636 -7.994185 271.454845
5.474218 -66.854810 279.863662
-12.885825 -0.515440 268.356496
-7.675723 -60.199311 286.544521
37.907134 -45.694306 273.996634
-19.024907 -16.342053 277.909482
16.026705 -18.450770 267.436387
23.833697 -43.277209 271.607600
24.947980 0.351711 262.935858
40.173293 -24.501556 267.254107
0.255798 1.304294 270.911252
-31.944589 -39.222957 287.194876
2.940564 -55.723662 277.728834
44.543179 -37.045774 271.418986
37.264522 -54.721106 277.005652
3.517203 -62.838793 285.059382
35.908844 -7.333514 266.176555
16.696408 -58.308190 280.741791
-13.613599 -45.232912 283.185184
-12.208455 -0.279467 271.912264
-26.316833 -33.416006 278.807844
34.142842 -18.725803 263.627848
-12.052236 -3.773049 274.036305
-31.297985 -16.612313 277.369176
15.604555 -9.792582 269.554181
-5.982910 -0.027951 272.476483
1.379337 -13.658789 270.179339
-9.280270 -43.332907 283.496481
-21.692822 -56.185956 288.873183
-18.957453 1.063155 274.593373
33.017766 -58.766018 278.312662
6.601538 -69.214272 286.166403
-10.558712 -21.472218 278.973814
-30.595752 -16.968097 279.992594
25.495204 -12.603160 265.100707
42.159131 -47.050989 274.433676
20.788358 -53.375138 275.272903
13.807199 -45.404207 282.503543
-33.288161 -29.606782 285.240645
-4.917415 -48.338207 277.258318
33.890450 -50.230566 271.022156
7.415805 -57.786991 283.485094
14.225787 0.247186 263.342343
-23.232573 -43.153618 285.990320
-17.730538 -54.908453 282.989108
42.338458 -27.386486 265.014941
-3.065888 -14.269948 278.565932
-10.158471 -49.597304 285.109369
