-7.035771 -13.233255 268.917859
12.402370 0.154424 264.371104
7.526847 -2.005244 263.623043
-11.810659 2.206544 266.320517
2.977946 -56.745435 276.618232
26.623754 1.559060 264.143338
-19.846270 1.581301 274.680406
-5.485192 -56.890916 284.648746
-3.961393 8.190278 269.798652
20.569716 -10.822388 269.566141
-14.236601 -55.945735 279.696062
7.152916 -0.662545 263.217449
23.981988 -11.805500 268.494874
5.328948 -0.409934 269.666150
-18.947011 -55.724931 280.254782
24.861574 -19.115755 271.273881
32.866832 -43.807080 267.846897
-6.836316 -57.222026 278.386280
7.270471 -1.657281 262.673497
26.429059 1.317553 263.316164
-5.178609 -57.606482 285.619318
23.937210 -9.784655 268.740177
-12.768521 -47.519379 277.815252
-9.465699 -15.407114 274.910309
-25.912031 -51.302654 281.011899
-10.966417 -25.705380 281.126023
43.706894 -43.766245 272.524625
20.284168 -11.061344 262.480040
-31.640598 -16.760178 277.920215
-11.824798 -17.660642 270.877033
0.251182 -15.397810 270.394579
1.921492 -3.763032 271.723450
32.884585 -46.323138 268.639147
32.796889 -14.173927 267.773256
22.960662 -50.734417 271.607459
-4.953403 -49.479890 276.261985
-6.928902 -8.954223 268.037409
-20.475321 -53.534812 280.247614
15.572750 -61.590902 282.411426
-5.384836 -58.037642 278.375298
-29.066989 -48.432864 286.045283
7.585404 -69.947835 285.792365
1.595683 -10.709714 274.327904
3.598621 -11.379199 266.093105
-7.413251 4.215759 271.245018
-31.099929 -17.819331 274.827853
-30.773546 -15.723430 278.829724
-27.373633 -51.049209 288.839986
-5.958641 7.070863 267.956190
-18.715320 -52.105237 286.762952
12.188195 -13.794217 273.308605
-12.407648 -64.875122 288.334369
18.650059 -1.019415 260.749310
-22.570481 -49.576506 286.770398
30.921609 -32.653106 265.263453
-20.667558 -37.854608 283.750877
38.644732 -53.684698 275.859396
25.659870 -12.809727 266.934902
14.314835 -17.843128 269.415751
-4.260677 -57.049174 285.210639
-10.074173 -38.760603 274.773225
7.885682 -12.335622 265.299887
7.318185 -55.062265 283.023934
44.832710 -30.510014 268.926859
-21.684645 -38.648470 284.083774
-27.031511 -47.900170 287.446439
-16.372699 -9.476506 276.485314
13.090976 -60.619934 282.366469
-25.103391 -34.804128 277.815878
39.637707 -51.375016 274.924239
20.446848 6.019480 266.175449
24.702621 0.339389 265.070811
-10.379727 -37.739406 283.216796
-18.445539 -10.110143 277.318374
2.088068 9.322447 269.235859
-31.234565 -17.182141 275.386284
-7.798663 -14.379072 269.083619
31.756729 -32.391758 272.378653
-28.384566 -47.678784 287.491068
10.395243 -65.231308 277.080685
29.815112 -29.433902 265.667329
24.508599 -65.864432 281.772584
-13.696118 -45.419403 284.863755
-32.228602 -18.310327 281.770274
-28.440316 -29.255677 276.138723
43.477364 -43.103151 272.137821
-13.163328 -56.990378 282.149330
-17.059457 -6.719207 275.867179
13.757997 -45.641269 272.618830
24.526906 -30.717692 274.487764
-28.904132 -48.538576 284.080744
22.192843 -11.502384 262.226745
-18.301623 -10.102983 270.140022
-30.121711 -26.321017 275.626868
19.812821 -54.457149 272.673786
-28.004522 -48.827700 284.982898
-5.879888 -10.976347 267.776459
-10.485755 -48.222499 276.976436
29.450592 -14.857905 268.981531
-8.954250 7.247537 271.399214
28.010499 -12.025023 267.629176
7.765092 0.656158 269.152244
32.406077 -51.967423 269.545466
-16.935797 -56.384420 280.096561
17.644314 -7.590325 269.834340
-16.990064 -17.443430 279.202312
9.522300 -53.222097 274.509638
8.773396 -53.453865 281.192043
-31.039400 -22.193683 275.231972
-17.489441 -8.715447 269.391477
-20.409080 -40.237940 284.909099
23.871942 -13.148012 262.145371
-0.894869 -49.190316 275.622815
11.330069 -11.920008 264.650136
24.020344 -0.712173 260.003636
36.171790 -20.122512 261.490702
23.241474 -9.538245 268.697431
-13.894186 -44.716071 277.788103
5.332532 -69.981642 286.449641
14.518300 -17.540589 267.979248
-1.656757 -49.254857 275.787115
22.657871 -46.840254 270.339906
-14.911262 -55.683326 285.905898
23.363337 -42.568012 277.126993
26.576900 -12.853632 268.170744
7.788783 -0.979622 268.903623
-7.838527 -60.398063 286.600995
-11.463654 -36.444546 281.697909
15.595125 -69.221929 284.116656
22.121431 5.536215 266.223430
1.454607 -4.162312 264.684633
-14.522535 -3.975395 267.744362
14.998038 -61.378938 275.338819
-33.198962 -35.634159 286.112691
23.008698 -12.366682 262.082845
-12.611073 -35.504120 274.384022
-17.109426 -45.251800 278.125166
-10.581558 -38.176905 274.680674
-19.842665 -19.016472 272.319843
-26.882826 -26.898850 282.562097
-3.230922 -68.139583 287.259609
-18.291421 -11.840537 270.362258
-1.136733 8.891487 269.149472
13.766848 -62.445718 275.833562
20.535890 -32.189501 266.902347
34.202617 -42.621411 267.252773
-10.071261 -36.230555 282.258376
8.109956 -50.956094 282.218248
19.386949 -12.170222 262.957772
16.159354 -68.961516 284.813374
-17.931487 -9.348219 271.572555
22.155388 -47.418993 271.394042
15.721389 -43.506552 273.931057
-1.251624 -68.821078 283.371736
-18.773439 -12.949023 277.864814
39.972417 -12.199344 265.897751
-24.889373 -36.906064 277.227759
-21.001903 -55.085925 280.502518
35.807734 -48.061323 274.700597
19.959137 -7.924510 269.347012
31.568215 -16.089353 265.275796
26.856748 0.017211 265.553370
2.538903 -53.954425 283.493995
-30.936732 -14.032838 279.782840
12.618157 -63.814662 276.760608
11.677527 -64.362127 276.748255
-11.022435 -48.436571 277.203500
4.321198 -54.077663 276.102096
-15.912345 -5.461354 268.322706
-0.726275 -68.675915 281.591425
-17.002981 -33.815563 275.512934
-31.335555 -14.351415 278.433100
18.485025 -0.483869 260.203391
21.404079 0.030691 266.572155
16.928440 -59.697211 280.978366
11.079084 1.470293 268.065959
-22.074381 -52.613448 280.496299
34.579469 -46.421526 268.304845
20.163692 -30.914808 267.925620
9.720354 -65.365151 284.010629
23.127609 -35.007365 267.458021
-22.647782 -35.460548 283.744166
23.902600 -50.616635 278.533041
3.469353 -13.977231 266.640902
-14.968004 -32.316700 274.749905
16.057944 -17.494325 271.516266
30.712697 -13.190560 267.708317
-8.535730 -55.105377 285.722762
-19.096518 -11.883928 270.562947
45.150589 -38.122941 271.151394
-2.475331 -7.475093 266.810894
5.747199 -55.979043 276.565880
18.595593 -58.167229 280.786939
24.657339 -22.541654 264.490232
-19.069340 -12.910644 278.293192
26.390292 -34.535471 274.940938
-3.250720 -68.602845 287.887603
38.294915 -18.931347 267.483718
24.102556 -45.756798 269.896001
-1.560967 -14.255942 277.076960
18.000428 -16.471159 271.926016
-4.515907 8.825373 270.630181
12.707146 1.908327 267.681986
-29.827503 -25.371620 275.391146
-8.684902 -11.969509 268.442750
-26.695054 -32.351395 276.848853
-29.390352 -27.837839 275.813252
-29.627454 -29.445490 277.084798
27.060714 -37.781849 275.325656
28.444408 -14.565981 265.610248
15.554922 -50.085906 280.630856
-13.964206 -0.871486 272.921546
2.861727 -11.955108 266.249850
-10.804292 -37.547135 278.167110
25.395444 -49.306286 277.824592
-12.521404 -36.017377 282.950640
32.879373 -50.453109 272.106662
-17.683490 -13.691807 276.718333
1.863779 -47.362749 275.290831
20.589188 -12.433455 262.872696
35.041733 -34.126646 271.864117
19.283212 -1.014127 260.863245
-29.567134 -16.341936 280.736029
-12.424152 -34.814708 274.470002
-0.369456 -56.095490 277.074174
26.403297 -36.996795 274.901763
36.943231 -20.955067 268.201679
18.402372 -57.447880 273.658365
-16.623886 -62.202350 288.563825
2.154581 -3.729595 264.350593
-11.008456 -38.448205 279.354274
-4.990334 -4.384379 273.469941
1.446518 -14.906639 269.928499
37.701797 -24.036559 261.947185
21.015262 -20.130183 264.565994
16.619870 -11.727540 263.272375
-9.921179 -56.240242 283.339644
10.671481 -52.554344 281.735355
26.733828 -2.266342 266.281785
30.327052 -14.877176 268.014312
-19.814037 -27.537565 274.371515
-1.670613 -49.551614 276.473746
34.613253 -15.976382 267.402291
16.581277 -0.640487 260.619074
-0.891482 -15.170144 268.749788
-15.275271 -33.138517 282.216206
26.242580 -21.231655 270.606279
43.791926 -28.953526 268.288478
-23.308733 -37.483714 277.586847
-12.376155 -56.364356 286.224351
-0.771736 -14.916594 269.580215
12.780478 -0.921076 261.483908
45.001004 -38.683657 271.176159
-17.364233 -40.750729 283.706591
-18.160808 -54.251641 280.482918
-31.343786 -19.328878 275.661151
31.877938 -6.934574 266.368803
-24.270013 -52.844577 280.608833
38.787849 -23.468597 268.630654
14.314551 -62.177919 275.661766
26.135535 -27.202257 265.009090
-13.212431 5.424633 272.528797
-7.756055 -55.146556 285.607219
-33.751393 -31.477283 284.997165
-10.539714 -21.885360 271.185855
-0.338864 -3.797544 266.936110
-18.233891 -39.516194 284.140661
30.328441 -16.993724 261.963437
-5.687174 -7.865597 267.257959
-17.266581 -61.236959 288.703039
7.450649 -11.961578 265.251547
-27.927982 -29.889516 276.076585
-9.451874 -38.276304 279.996008
35.965183 -6.548848 265.444088
5.919804 -9.431455 272.542924
23.738726 -21.669975 264.651448
-18.930512 -13.316369 270.720303
30.631969 -16.403006 264.483303
43.420370 -28.936344 267.240524
27.267154 -14.422671 261.749059
12.262161 7.929545 266.634027
-9.890999 -12.830559 269.646496
-3.403615 -56.695767 277.713105
32.389646 -38.443505 266.464926
6.627060 0.140868 269.330074
-15.454383 -55.736042 279.707894
1.240445 -67.311570 284.359187
-0.374219 -14.643146 270.839721
21.899781 -51.632051 279.181012
5.751841 -55.287147 283.162683
-21.375636 -40.086653 277.300378
-6.613463 -45.427380 283.357322
36.850080 -23.199044 261.942431
23.794609 -24.892779 265.002519
9.833237 -13.025138 274.322230
-22.054055 -44.593748 286.119397
-9.651767 -38.254589 277.262420
-14.869698 -53.502742 286.529034
21.032171 0.472075 260.109097
-14.988353 -55.537897 279.999897
-31.133710 -17.437241 275.063798
7.014153 -51.620964 282.533139
17.106356 -18.061055 265.492529
11.058517 -64.307526 276.703268
-32.856256 -17.874887 282.438874
16.110233 -43.255862 275.835856
13.300480 -19.896234 266.011089
5.766107 -2.049514 267.045111
31.202704 -59.450338 278.455153
15.042278 -9.720884 263.298233
-8.134690 -44.913490 283.562919
-11.828378 -16.910869 278.249565
-21.392671 -55.064538 281.092867
-33.038292 -37.672103 286.482056
-24.632026 -32.752689 283.157826
-31.371489 -24.083725 275.795907
-15.586766 -56.529786 279.817522
-17.653962 -52.355691 286.314821
-9.672453 -57.749949 279.026031
15.454982 -47.540124 280.063957
-10.643650 -39.331950 277.407318
-7.357381 -9.578581 267.805785
2.037073 -47.019461 277.124226
24.688434 -41.349969 273.419634
0.320712 -7.009258 273.421089
-17.604690 -44.627864 277.482212
17.839993 -59.384566 281.463042
-8.197175 7.640461 271.789610
-18.754562 -26.056665 280.976757
-29.945850 -10.978374 279.760711
12.197500 -46.290605 281.569720
28.575737 -30.367738 265.232086
26.950958 -13.607833 263.875439
-15.286563 -55.715955 286.814600
-3.176823 -49.551680 276.631475
13.985431 -11.796663 264.008671
-12.585460 1.815808 272.807181
-14.085608 -3.139037 272.817833
42.103631 -15.795888 266.557564
27.147120 -28.491972 265.652299
3.068595 -56.049982 283.558816
23.642530 -43.860539 270.767579
-0.757456 -14.302985 267.879606
10.962283 -64.500302 282.712191
29.544221 -14.809977 266.728997
-13.275328 -2.607261 267.376676
17.469700 -43.156043 279.369295
14.516029 -17.531727 265.458087
10.700576 -63.909783 279.189362
11.148486 -0.237715 261.551350
37.654246 -36.394476 272.170477
-0.687804 -56.109043 281.920985
22.128448 2.977209 265.811116
3.050460 -10.615505 273.716778
-11.843437 -37.364051 280.681461
32.086743 -34.610321 265.634321
35.158318 -21.467152 261.991396
-5.934615 -49.366213 276.393056
-4.379360 -42.958520 284.088194
12.170954 -68.776338 284.969101
21.320026 -17.877672 271.078855
4.255476 9.462827 268.259629
-13.975178 -29.900516 281.510472
-26.817029 -49.271252 284.797728
-27.766692 -50.149836 285.658310
2.457990 -2.938066 266.609344
1.056179 -12.792420 275.084295
33.587076 -42.532884 274.626344
16.985560 -67.689521 283.509799
-32.494411 -16.730715 281.804264
-4.719447 -44.969417 283.770174
-23.638932 -36.459360 283.925126
21.940255 -12.770876 262.561544
-10.455635 -15.291134 277.412047
-12.978569 -57.351220 279.593945
24.196988 -39.566267 268.354505
-16.380308 -54.572297 282.022046
24.894495 -32.762360 274.383902
2.473029 -69.179779 286.470961
34.442443 -48.462331 268.482238
-3.783452 -54.871364 284.247002
-33.897974 -22.944206 283.724099
32.203771 -53.664893 269.990802
22.400213 -36.070984 277.152300
40.565535 -12.699643 266.054898
34.005858 -43.491235 267.250031
7.975793 -64.465925 278.045342
-18.707221 -54.535612 287.089616
7.176749 -46.768490 282.591134
5.458213 -64.380206 284.909189
17.757436 -68.289638 283.286661
-8.115532 -13.698606 268.742681
6.548270 -12.502638 274.405340
31.704282 -13.791536 267.784456
-1.234347 -47.445315 275.438979
35.810888 -46.945736 274.440616
-14.719166 -57.289887 279.901892
35.094811 -4.626544 265.624955
8.228554 -46.765652 282.793820
19.747565 -16.634100 271.762267
-19.750810 -18.890752 279.949889
-14.185852 -42.381875 284.195453
-27.567238 -49.616275 282.743283
-0.230195 -15.550821 267.638395
8.654331 -66.089285 284.431865
-26.717798 -33.822223 279.384926
-16.560678 -43.169078 284.049413
-2.418915 -49.320713 275.950074
20.367739 -8.578336 269.231245
31.748906 -56.980252 271.237582
-6.400818 -57.141677 285.769105
9.992611 -53.424213 274.734735
-31.894790 -18.725829 276.193768
-6.793664 -40.568493 283.896834
-10.167569 4.683269 271.383117
-17.328706 -28.957058 273.828387
7.679384 8.807472 267.303526
-2.587183 -5.700466 265.932843
14.353856 -59.633966 281.981155
0.131562 -57.493594 277.170897
22.439642 0.531514 260.106146
-8.701710 -47.773611 284.215908
14.780039 0.132876 268.071793
2.656401 -67.111224 279.185325
6.030103 -10.451787 265.531525
7.861675 -8.744719 271.854410
37.404839 -21.483639 268.073171
26.540784 -36.195796 275.192946
-14.166937 -0.766342 267.298088
20.657888 -19.643392 276.409537
-29.204823 -29.613333 276.180804
27.534045 0.331730 265.104100
6.237161 -69.821737 286.070481
-4.311249 8.899912 270.631015
-12.484343 -64.854443 288.836956
8.323618 -12.970480 274.954885
-9.557955 -38.269103 277.808279
25.505047 -26.533671 265.047133
-10.558126 -37.419029 282.349318
31.966045 -55.310006 277.423083
43.481205 -21.204072 267.096654
44.819597 -39.246045 271.208882
21.045346 -31.404026 267.012000
-7.082288 5.482399 266.320005
-18.321780 -44.200133 278.169960
-1.320528 -62.943068 285.944000
-31.798139 -21.072056 275.670528
36.103267 -16.284766 267.651409
32.620263 -29.916679 271.542132
-20.817063 -42.101034 277.981312
29.381778 -62.835110 279.864291
-31.843694 -14.950435 279.117138
43.444345 -25.735406 267.700454
-7.475017 -49.395610 277.480438
-5.672642 -56.820152 278.286934
-2.315943 -47.229388 275.995285
-22.683743 -53.253252 280.344159
0.389183 -68.945803 281.425357
-2.998508 7.992317 269.576788
-17.754347 -56.055181 280.117452
33.340573 -43.919694 274.960637
-6.819244 6.376280 267.970026
0.594168 -48.148230 283.388585
-2.129172 -45.788837 282.927245
0.281593 -67.890139 285.720897
-11.747481 -46.303902 284.408748
-27.780937 -48.573885 287.532717
36.778441 -22.061774 268.850207
23.072633 -18.746807 271.207452
34.875892 -36.689410 272.633389
-21.751652 -38.071360 280.600011
-30.037249 -28.341895 276.643664
-25.769798 -4.199501 277.448426
40.359601 -20.483298 267.663896
26.592637 -14.761028 262.204418
33.088435 -48.411024 275.740207
3.088412 -3.404264 264.122605
23.106208 -27.721873 274.529815
0.492251 -4.667371 271.194309
5.368695 -1.804284 263.099044
36.128998 -5.651249 266.058226
-29.918580 -23.353955 275.160333
22.841292 -11.526084 262.395591
18.723074 -47.996846 279.620598
2.720768 -49.828451 283.262048
29.225689 -41.404276 275.561315
12.388922 -11.610292 264.113359
1.489587 -11.908514 274.544671
-13.634472 -56.806497 279.504627
35.849583 -44.682901 273.783938
0.129264 9.554448 270.032436
-22.086748 -52.886566 282.819249
-13.914662 -64.071365 288.925514
-19.406281 -38.454155 284.225047
11.716679 -1.302643 261.985898
-20.031776 -19.775623 280.251965
-2.299700 -57.020327 278.867865
10.242095 9.045834 267.536789
16.671632 1.005939 260.520607
-9.210232 -14.474595 270.452639
-18.597171 -22.745185 273.320735
31.293710 -17.853709 261.810258
37.190456 -18.068968 267.363608
11.565690 -69.689382 285.854787
30.390240 -15.928937 263.703465
-9.620863 -66.073298 287.939876
33.470533 -3.478247 265.630735
-19.468648 -26.915185 273.763120
-0.161091 -54.843657 283.796817
6.464428 -1.322075 262.745559
-8.442251 -56.851391 284.925223
-14.945303 -63.367888 288.983166
-10.645394 -23.883848 271.695063
-13.362346 -58.007583 286.985662
14.332475 -12.841405 272.272362
31.158274 -59.886493 274.744511
-1.684525 -47.192767 276.108891
-31.181371 -16.824354 275.578111
12.111272 -50.885533 273.695037
-19.052546 -11.328767 270.564675
-31.094333 -43.944517 287.404552
-34.247398 -26.299125 284.304559
33.956060 -4.155788 265.209933
15.401115 -17.154758 271.437273
26.925921 -63.976048 280.586281
-25.739432 -35.831916 277.037799
17.730472 -0.831481 260.873685
-26.801584 -48.823938 286.561459
-23.519142 -36.961380 278.221726
-11.704590 -36.744643 274.522677
-8.537652 5.691353 267.909512
33.794627 -52.446233 269.354120
-6.698512 -44.823173 283.948988
21.724554 -34.455363 267.606884
5.702909 -1.716099 270.079563
21.151430 -52.522429 271.985367
41.758108 -22.995597 267.548144
14.434704 -17.183216 270.466606
-31.136296 -20.041317 275.266655
-2.170094 -54.907831 284.616217
4.300217 -2.053869 269.440089
42.199967 -47.148632 273.431793
-25.753339 -36.210708 277.662248
11.582544 -64.319894 283.615589
32.668903 -59.318409 276.583013
43.141246 -45.760136 273.475885
-28.683829 -48.046295 284.366861
33.902769 -40.317437 266.906609
25.677459 -13.067416 264.292387
-19.458752 -23.331882 272.945881
-27.349725 -49.210217 284.294218
6.975938 -65.202465 277.923733
-5.607622 7.430616 269.177065
33.947850 -41.654126 273.702413
-20.324353 -24.232746 273.705967
-15.675537 -7.984525 276.126981
12.569116 -8.033920 270.407081
8.586680 -66.263869 277.692258
10.166965 -50.054958 273.885232
-24.891842 -35.373911 279.786582
41.927442 -29.038146 263.159841
24.123213 -37.525022 268.094897
1.245784 -13.399511 273.926268
1.770990 -46.589960 283.750747
17.299896 -11.005074 269.867378
38.677067 -22.327961 262.034893
-16.572560 -55.361888 279.883424
-13.954181 -2.174385 267.172359
9.350264 -8.427340 271.156877
-9.564947 -39.277934 274.937630
-18.012354 -11.846360 270.860493
14.958478 -20.321936 266.101430
-33.899957 -34.088803 286.031812
2.106962 -46.630803 280.014842
-10.165582 -57.720865 279.209713
-11.339832 -39.622966 276.177913
-22.454479 -29.972517 283.019663
17.439081 -56.999756 274.124309
-26.060890 -52.467957 289.159710
-0.330163 -47.014624 275.114834
-31.295029 -13.928085 278.013274
-18.633928 -60.682449 289.309263
-11.162362 -30.998960 282.939635
-14.263141 -37.082923 275.237133
33.994339 -43.151874 274.415910
-27.024844 -50.255241 281.377688
-16.088429 -45.967976 277.619585
-14.190457 -28.514415 281.613052
-11.391291 -56.876734 283.611774
33.783503 -47.086173 268.021603
16.429479 -44.157551 273.119658
-30.031042 -21.935187 275.365293
31.594035 -16.283304 261.729158
-22.090145 -38.821202 277.818814
22.541024 -42.574993 269.715384
-34.058932 -24.484231 284.428387
-10.312753 -18.336112 270.264566
-27.672820 -30.371605 283.740342
32.811898 -35.619376 272.960618
35.363512 -38.767227 272.676348
12.082707 -10.428169 271.181464
24.269217 -12.055836 262.350648
8.635335 -54.197388 282.561620
-29.750429 -14.555567 280.379653
7.033496 -8.222853 272.413433
44.897528 -36.501618 270.341084
-30.098753 -46.151787 287.641898
28.199337 -63.642705 280.339797
3.133341 -65.078664 285.331348
-6.291803 -14.282882 276.507002
-2.091198 8.725834 269.959258
22.017103 -18.073623 271.405563
23.022231 -30.815586 271.179318
-10.992370 0.773293 265.933111
-12.132071 5.774941 272.086322
-1.567128 -69.283765 285.202951
34.511935 -45.674983 267.959178
-0.949458 -49.477862 276.148900
33.874940 -18.806580 261.451513
12.087932 0.442615 261.420235
-28.492687 -28.494616 283.383697
22.235879 -8.154744 268.908271
6.623694 -9.204210 272.181421
13.626020 -18.611388 266.722411
26.514458 -20.367213 271.170632
-17.984672 -54.662786 286.728203
-11.097558 -26.791481 281.359180
31.010085 -31.204198 272.428259
-23.570310 -18.478271 280.422557
-18.817605 -19.949569 277.388874
41.036379 -49.714513 274.850963
1.329097 -55.758026 276.682198
30.715069 -25.923314 271.195233
-2.840377 -7.222297 266.212076
5.864841 -53.173274 276.015282
-10.740403 2.920915 265.780240
17.837706 -58.450033 274.313569
12.538461 -1.160723 262.076676
-8.033072 -46.779994 276.607464
-10.500985 -39.891966 275.446415
-0.547665 -47.138888 275.829583
-10.971463 -56.501526 285.364926
5.009928 -12.683976 274.664909
43.329429 -18.160572 267.511934
-9.813436 -48.907290 277.637978
-23.122927 -37.493393 278.109640
-8.275971 6.132355 269.045681
28.622780 -11.718897 268.125065
1.690926 -57.191076 277.020573
21.164208 5.423082 265.694926
25.751180 -12.605719 268.950164
29.754187 -0.088670 265.234103
14.431065 -45.148878 271.660487
33.961035 -52.452211 274.142793
33.182541 -50.983073 275.864423
-16.961351 -28.245989 274.491250
-17.412595 -25.131753 279.511348
4.315263 -2.278548 270.860225
1.980060 -12.465557 266.647056
22.594487 -16.878368 271.278617
0.493543 -15.225590 267.376631
32.888725 -45.474198 268.087864
14.390659 -19.813911 266.638467
-7.275587 -56.903074 284.742638
9.184610 -53.713482 274.668008
3.606758 -9.916612 273.669660
-21.529537 -14.477981 279.132879
3.679388 -52.581407 283.505857
14.954595 -46.557136 271.841228
-22.826085 -54.370306 280.882388
-24.177644 -36.413990 277.545497
42.890947 -28.401613 267.101318
39.947040 -24.260446 262.009621
-31.232083 -15.722522 276.606093
28.147660 -26.540499 271.903336
-5.817945 -55.365463 285.249819
14.696506 -47.499633 272.220991
-14.860697 -46.512233 277.577266
20.927048 -39.173715 278.098129
-24.483278 -51.630996 287.177622
-16.480051 -55.389723 286.947772
-18.651582 -14.663669 271.526426
-12.085723 -0.524103 266.795311
0.415132 -48.855977 275.288746
25.451054 2.265026 264.975160
-17.838903 -44.727590 278.036147
-18.820923 -16.350568 272.100009
21.061490 -12.065176 262.421266
-16.848885 -5.592783 268.763125
42.509215 -28.907806 265.189976
21.109712 -50.091383 271.993637
2.629580 -1.438339 270.746420
8.172640 -64.751844 282.732718
20.362705 -54.150335 272.518903
-12.121657 -24.307744 272.277922
45.495233 -35.597546 270.552977
34.728635 -19.634454 261.466175
14.158994 -17.831878 268.885419
-5.905626 -41.734740 283.973175
-27.415507 -31.424711 277.294704
-13.315050 -47.158219 285.344460
-17.480270 -43.928756 277.320922
-13.064190 -64.333513 288.241863
-28.367072 -49.849903 284.844205
12.672904 0.654416 261.385351
35.927299 -46.386764 274.424166
3.234171 -66.768780 278.754353
28.551421 -22.495267 271.075120
16.640024 -44.678489 275.144001
-17.545417 -10.735554 271.338314
20.846862 -50.899953 271.915078
24.755792 -40.181721 268.691838
21.293279 -54.573052 279.251844
-9.956646 -56.597614 279.420871
8.507800 -0.805956 268.591225
-6.886220 -12.665733 268.605247
11.563813 8.489626 266.646683
-10.939611 -24.928268 272.814880
32.371779 -56.184336 272.111168
-1.729372 -69.016166 287.435561
22.878901 2.307504 265.447200
-14.648924 -6.281477 275.602162
-6.810643 7.314135 268.704742
-17.912881 -32.190987 274.908572
22.652924 -30.617091 270.267576
13.664385 0.775902 261.344537
-28.617011 -27.789517 282.315214
9.776349 -9.984529 269.411161
-33.979867 -29.241169 284.554958
21.817996 -66.892561 282.083720
-11.691566 -54.373459 286.155790
2.394672 -2.664634 264.325335
-30.249347 -20.713319 275.596604
18.198973 -10.328572 269.863933
3.884664 -65.740988 284.780979
32.184686 -52.773709 269.984971
-15.278379 -44.359460 277.167052
15.966882 -44.139803 278.467271
-19.153811 -54.217883 286.983401
-26.655078 -32.029824 283.684165
-17.770391 2.930229 273.930162
10.240250 -10.703250 271.816715
-20.000525 -26.155237 273.870483
13.602298 -46.427681 272.103847
-24.111759 -2.396590 276.749607
3.910477 -53.359530 283.192138
-4.155264 -8.758356 267.799936
24.974771 -12.281810 262.704879
45.356550 -30.676800 269.688278
22.388068 -39.430270 269.060299
-17.655221 -54.881586 279.954836
-7.227695 6.965561 268.576562
-19.534676 -15.549442 279.100329
-22.851660 -56.600658 288.839870
13.385044 -6.941179 270.673960
12.991935 8.415066 266.896377
6.530781 9.121547 267.787121
-1.298279 3.611720 270.547304
-16.597783 -23.731846 280.487001
-9.625013 -13.316636 276.121348
-4.883033 -55.353984 284.960330
13.453930 -50.109224 273.447156
18.649919 -54.602238 280.603518
22.614002 -32.076631 267.566442
-26.836449 -23.543840 282.075077
23.089081 -23.919986 264.805034
-27.173483 -25.589974 282.505164
-26.173141 -34.813313 276.954241
19.394598 -56.950509 278.915599
29.614555 -28.905336 264.736205
18.135343 -68.468936 283.952161
34.482165 -20.574492 261.894295
-14.233192 -44.363169 281.837641
-12.037082 -19.130244 271.138852
-29.817973 -21.133215 280.145083
-18.653799 -41.203469 281.125428
32.412934 -59.784005 275.060356
7.993341 -1.311537 266.433299
-10.144527 -24.048440 275.378495
13.883187 -60.252113 281.850606
10.670951 -1.347069 262.630642
-0.086079 -68.379537 283.750987
18.890019 -18.104839 275.711677
-8.462263 -38.614350 283.705339
6.939798 -63.745424 284.518376
-8.703225 -55.443227 284.983814
33.699457 -17.061239 263.410360
-18.843207 -10.488484 270.531312
31.220066 -58.820097 272.050321
-5.526514 -64.411070 286.927314
-0.706248 -57.600380 277.425632
-17.480648 -10.436276 270.759091
15.878715 -7.961929 269.951775
24.487417 -42.170357 268.966675
11.485594 -7.804959 270.958438
16.654232 -43.910058 274.206444
39.929651 -13.052524 266.650962
-16.191070 -6.802956 269.011520
-29.019257 -26.892975 275.844179
4.979102 8.931144 267.817632
30.906087 -59.429203 272.292912
15.527812 -43.598841 274.866352
44.547126 -34.952450 270.072639
-15.160115 -56.944672 279.823899
-19.024417 -12.434184 270.530820
22.605838 -34.885753 276.905954
-31.499635 -14.617022 277.898490
-21.334145 -34.771252 283.537298
-11.822001 -35.366709 274.290860
20.616526 -20.253238 272.509529
15.973368 -58.759112 274.843603
34.963958 -37.514053 272.592157
45.064445 -29.074733 268.059422
-19.272012 -59.854343 288.546294
23.796039 -12.205611 262.040302
16.118671 -45.356523 276.170749
44.895623 -39.814342 271.746457
31.342241 -32.099681 266.124383
-30.727002 -45.174780 288.015843
0.301648 -3.654318 265.017569
31.613128 -59.299574 277.016719
-10.205855 -39.038617 278.410822
-6.180647 -44.420795 283.418351
18.516412 -0.195488 267.322792
15.137583 -7.557862 270.297155
15.103929 -15.703794 273.279220
-17.533602 -14.226308 277.758762
-19.690486 -20.679981 280.242622
18.247563 2.389143 266.292095
-18.343278 -9.070348 270.153150
-8.819010 5.819163 270.834863
-28.281303 -8.401307 278.684378
1.187453 -48.740597 275.176719
15.671808 0.585489 260.465443
-31.204738 -14.096703 278.966099
18.586977 -10.757020 270.517453
20.978626 -30.668003 269.642055
-5.613020 -46.726406 278.269623
5.566375 -55.784021 275.885582
-31.139375 -15.009808 277.658135
-10.974546 -37.529688 274.720609
-18.648060 -11.549667 277.581572
22.279707 -50.539499 273.684811
-30.482251 -26.993441 276.086887
33.686599 -45.791004 275.144070
30.845961 -61.467156 279.021740
-22.712221 -38.024642 277.993918
-14.842063 -36.101207 275.010392
-20.430319 -18.666048 273.021907
-3.897554 -9.845951 274.699146
-1.360140 -48.339542 283.595294
17.119663 -7.445148 269.009430
5.588202 -46.930194 282.654613
-3.863700 -57.921422 278.033445
-8.481039 2.863158 271.722019
24.687055 -44.790095 269.885019
6.211782 -66.000740 278.522107
21.165629 -52.583563 275.130402
18.549511 -42.434536 279.002488
-34.329776 -29.373296 285.109162
23.580917 -48.882972 271.074496
-12.815978 -56.477106 282.916663
-3.510038 -45.519769 283.653513
19.489402 -10.584746 270.132124
18.582456 -55.416625 273.457259
8.743042 -51.256819 274.494320
26.575135 -24.946412 272.060454
32.466713 -58.841232 273.119673
-1.695517 -5.200597 265.573308
-8.606164 -11.421204 268.426284
21.721798 -37.774755 277.353541
19.676616 -0.819351 260.060728
8.253034 -64.642299 277.505800
32.855824 -44.923082 268.108845
22.001709 -36.059973 268.569079
30.946542 -15.397446 267.846227
-26.276385 -5.249511 277.914837
19.690961 -56.483474 273.723215
24.749380 0.115341 266.014487
0.939432 -15.546729 267.479330
-19.484187 -15.462442 271.501817
-20.439194 0.919965 275.051639
14.081778 -60.656366 275.588622
0.581820 -67.717379 284.059636
-9.032377 -53.659813 285.793257
-23.804715 -49.451806 287.124515
30.278018 -32.048389 265.235812
1.003232 -55.498466 277.045220
20.206078 -32.272713 267.503758
-9.980617 -17.871797 270.078361
-9.079335 4.650219 270.147834
20.574071 -55.545256 279.790521
9.378901 -49.922359 281.867146
-17.760927 -43.235512 279.604198
32.815475 -19.167010 261.975229
44.850909 -30.009298 267.172903
-28.081892 -7.308590 278.915480
14.568576 -7.315934 270.490915
41.448210 -39.797311 271.969923
-31.205906 -16.254565 276.129752
-22.413706 -52.306216 280.815661
-9.842057 -38.492405 275.880307
1.090595 -57.045441 277.069211
-18.682561 -13.412704 277.068283
2.083228 -55.670876 276.491672
-30.426097 -23.892803 282.603413
-24.180233 -34.966255 283.752720
7.875857 -1.778283 262.650222
20.947586 -22.138208 265.047649
10.832232 -48.275289 281.575918
42.802885 -27.882566 267.990216
26.428290 -43.046693 276.271363
-6.860284 -67.206800 287.722508
22.602052 -21.284472 272.260964
-26.454500 -52.226249 288.453430
-10.279345 -46.953636 284.499005
13.994473 -61.425342 277.920556
-31.254128 -16.820954 275.589347
-16.792484 3.629961 273.841898
-9.142319 -17.662648 270.343616
-12.723672 -32.184780 281.880260
8.846336 -50.378371 282.059819
-31.315569 -15.231866 277.177384
13.461899 -61.184943 275.685877
18.439108 -55.435337 280.660152
34.420016 -18.355847 268.272171
44.944210 -29.879142 268.699735
-10.807473 -24.653183 271.791279
14.724950 -44.209403 272.134125
40.265299 -25.231506 268.613895
27.801897 0.320979 263.079777
-10.886751 -25.057692 272.194386
37.480349 -55.086492 276.263257
7.534648 -1.512620 266.169965
18.041666 -42.752168 281.575813
-18.560117 -10.727895 277.565390
27.524915 -26.851909 265.629900
3.919895 -0.859920 270.385027
-17.107866 -7.647937 269.126914
-19.882347 1.501994 274.700195
-19.544411 -41.012328 284.978747
-1.510731 -0.684431 271.823047
19.797059 -53.407658 280.068368
33.131734 -40.883746 266.722997
33.597370 -44.585200 275.041104
23.573384 -36.607321 275.910168
0.936386 -12.720765 278.180514
22.817530 -33.931609 267.251104
2.117874 -14.815352 267.508000
32.390974 -39.360695 266.644746
-15.139689 -62.870796 288.312127
-15.644904 -43.955877 277.398139
35.049226 -38.062416 272.558034
25.104809 -25.093130 265.764804
32.626865 -49.882131 269.263953
-31.633236 -16.796552 276.742220
9.378796 -0.741500 267.253757
16.599452 -43.720517 278.996587
34.979135 -54.501099 276.491582
-17.540527 -10.759090 276.013274
13.752128 -20.284535 266.122699
-19.208058 -41.460666 284.709578
31.024141 -59.964440 273.255572
-10.254549 -24.556741 272.316814
4.825285 -0.433499 270.064821
16.957281 -18.723264 264.759064
-7.584986 -56.847696 278.695375
12.724394 -63.393164 276.301965
44.945382 -24.748672 268.092573
4.960968 -10.745548 266.030625
31.269912 -35.806684 266.439319
-31.780893 -15.470810 278.234571
19.219900 -54.277405 273.322940
-11.086666 -21.593436 279.287815
26.696317 -13.189685 262.143389
-30.496357 -22.800583 274.871037
-33.298986 -21.008114 283.140901
-25.443325 -49.088698 287.098348
43.021640 -44.262526 272.489458
4.574851 -2.126780 263.483874
28.718242 -15.440196 261.694164
-33.638202 -36.029458 286.490947
-7.912078 -57.414936 280.782592
3.870138 -3.243039 264.057696
40.379860 -50.004978 274.418950
-18.360606 -13.838541 272.041961
23.573298 3.965057 265.347809
-7.411112 -13.805841 268.999219
-4.829730 8.611332 270.784587
-2.251629 -44.313467 284.560402
19.695397 -19.148105 268.542618
25.102594 -64.903357 281.869719
-24.931418 -35.604912 277.184233
13.683752 -62.943429 276.201904
-25.537606 -30.426794 283.219089
8.921159 -65.788135 277.517796
23.258727 -38.180335 276.667428
-12.607994 -38.784631 275.626153
8.210805 -66.695023 278.515101
-7.185426 -8.794415 275.089264
-9.884930 -23.567736 276.235312
-10.219251 -19.220259 270.452052
-11.022977 -39.850608 275.785625
-10.559145 -65.682056 288.300415
32.882556 -37.152979 266.097300
-18.475477 -54.515533 279.976696
11.218877 -56.083956 282.522590
21.014994 -67.514688 282.771245
10.481381 -11.785395 264.510006
19.629025 -56.867569 280.213545
24.055323 2.221256 265.296280
32.470584 -16.694178 261.922449
-5.164606 -45.565706 283.477932
-18.315691 -16.557496 277.401961
14.448690 -62.266152 282.611460
0.688352 -56.676383 284.387909
32.692554 -2.235886 265.430555
-22.579308 -40.044440 277.520448
-10.347748 -23.934644 276.352882
0.447862 -55.804443 277.178452
-29.528535 -25.755091 282.558426
-33.623118 -22.651364 283.073067
-27.664037 -32.884025 276.861422
4.914618 -12.104923 277.308930
14.781994 -44.920971 282.861769
-11.579395 -37.032096 282.837381
18.921329 -0.851721 260.258108
-14.685004 -33.155226 274.633482
24.002468 -44.904735 269.675523
11.244260 -69.781836 285.141468
12.018944 -64.271741 277.324796
19.918225 -53.413294 272.574290
44.637024 -35.854183 270.242006
32.124393 -58.442216 271.888793
28.604608 -13.899431 268.098444
-0.009952 -13.725639 270.165540
39.579433 -10.163870 266.763747
-8.927570 -9.966804 275.609776
15.068885 -48.356808 280.081075
-0.926848 -3.219539 272.271201
18.985874 -57.006907 273.664505
-7.893973 6.279073 268.182953
2.388453 -9.602031 273.498184
-30.207271 -16.028416 280.389487
15.316733 -43.892069 271.432117
30.496779 -33.592848 265.845284
23.438935 -23.024855 272.750528
-12.345804 -21.302964 271.787345
3.206717 -2.636742 263.951286
21.001399 -60.353427 281.067694
-14.256399 -44.811560 277.127594
18.120466 0.906531 260.247231
22.100816 1.608586 264.630844
3.636045 -67.345321 278.627992
-31.985625 -15.846275 281.838212
42.723954 -28.316172 269.017845
16.522940 -46.024974 279.317528
-30.093942 -25.680561 283.109278
4.498639 -9.560127 273.280904
-5.020685 -67.647946 287.461708
29.447924 -52.708054 277.569514
32.739025 -41.859381 267.354190
-18.270277 -55.294894 287.041152
-22.170968 -50.263237 287.037194
26.488199 -11.142771 268.175825
-8.256466 3.690852 265.911818
-1.238060 -6.280602 266.099115
8.649646 -70.014504 286.018272
-14.962962 -45.240362 278.498963
22.502882 -25.488341 274.200261
-7.198059 5.280088 266.160905
31.770304 -61.491892 279.486626
-30.867946 -22.472462 282.419414
19.400673 2.385471 266.065538
-11.458960 2.887288 271.763589
22.820208 -0.713118 259.754628
-17.291867 -43.122074 277.437409
-0.190037 -5.121556 272.398531
24.293162 -10.150782 268.474758
41.067261 -27.681137 262.543470
43.396380 -18.700175 267.197728
-19.041204 -13.948573 270.950362
22.549711 -43.730511 269.928157
-0.137175 -15.884488 268.743560
27.761178 -14.921109 263.614893
-19.476354 -43.069453 277.692542
-10.597055 -20.861734 277.279268
-23.258488 -37.394415 280.393237
31.004302 -15.409429 268.405974
-24.631498 -2.955770 277.414054
31.893521 -54.269049 270.234972
-29.017346 -17.889882 280.867408
6.395403 -2.041845 265.535876
-30.274956 -13.312092 280.126482
-17.069835 -33.147534 274.786085
10.631611 -62.972896 276.888818
-16.713223 -22.346072 280.263126
2.011979 -57.282146 277.477831
-18.580539 -12.765128 270.623475
-16.202971 -34.898635 275.856256
-19.477500 1.835660 274.812565
16.946252 -60.184438 281.751364
32.921017 -47.430552 268.600538
-7.166242 -46.819512 276.839882
-14.204971 -27.505899 281.176029
15.355212 -47.632810 279.993564
15.615002 -11.774621 264.079541
20.765144 -32.993410 267.726153
-2.164148 -57.736179 277.613520
-12.303479 -64.274713 288.071632
18.808072 -8.119680 269.539997
30.109172 -62.140483 279.593056
28.728137 -14.283670 261.976227
38.342938 -22.326086 261.549264
-8.277847 -47.819610 277.664734
-27.040824 -33.640467 276.729763
19.753035 -53.910438 279.465228
-18.489096 -14.102275 271.498412
31.396399 -61.186028 278.863624
39.841914 -26.822142 262.480388
22.290932 -32.663975 267.024964
31.534337 -27.463336 271.339575
-27.988917 -31.932814 276.523114
22.197323 -37.098277 276.979595
36.646619 -56.263825 276.711777
17.085837 7.625250 267.100513
29.128100 -28.102742 272.258691
-10.787195 -41.132099 283.825454
21.394080 -30.214906 270.594761
31.415090 -35.514716 265.827328
26.129418 -10.766623 268.432036
-19.446429 -55.764818 280.666947
23.625851 -29.842332 274.549305
40.355831 -25.268618 264.074223
21.006126 -33.553030 268.222392
-13.021294 -57.548165 280.186385
2.927056 -67.598668 278.963685
22.202168 -0.033804 259.844557
33.780608 -41.167169 269.102143
16.153929 -44.666547 271.467849
5.350223 -65.025583 284.343153
0.770213 -57.452481 277.314305
0.400863 -46.883490 274.841398
28.998647 -30.800857 265.219688
34.204487 -50.351985 268.855676
-17.364361 -18.747901 279.370487
-2.663651 8.555418 269.422144
-0.531659 -15.456818 269.507274
23.117496 -13.176285 262.346969
-24.793554 -3.508395 276.734203
-27.558850 -31.156005 284.030378
-4.989843 -56.819670 285.031050
24.056044 -46.608016 270.162568
11.519548 -48.481385 281.057417
33.146743 -51.862422 269.304991
-20.433304 -21.045310 273.083933
5.263407 -2.165804 265.199998
21.755587 -52.649412 271.955937
31.482401 -60.863611 276.141882
43.568995 -29.186206 268.989176
-33.977341 -23.501228 283.731222
38.256000 -25.147001 262.336358
-11.463368 -24.610585 273.601246
19.574179 -11.559372 264.147287
16.643803 -20.189425 265.345653
-32.708269 -19.251408 282.072216
22.307554 -30.573374 269.468278
33.124854 -46.331529 267.965347
41.116642 -25.640781 262.392573
-29.305733 -47.034202 287.491277
-16.843123 -12.336820 277.642876
21.462105 -50.060209 271.328449
34.278228 -49.354007 268.740907
-17.218995 -13.153425 277.753398
-15.282406 -36.232344 275.593563
-7.182797 -18.130146 279.267520
32.574378 -25.590659 270.848028
9.358135 3.636070 268.376727
43.210491 -29.651968 265.220147
-15.457255 -5.737644 268.471569
-12.605907 -36.742848 275.637634
15.432349 -43.792354 273.055216
35.402540 -19.144179 261.793613
-6.212667 -16.547879 277.744845
38.240209 -22.546250 268.427908
23.063820 -21.940606 264.315322
24.628032 -13.111729 261.951998
14.695538 -16.969900 269.222126
33.156439 -52.832910 270.963867
12.592997 -61.740611 276.124522
43.040140 -44.562240 273.219396
30.263161 -30.275823 272.785686
21.499086 -12.678410 263.233781
18.026429 -42.854883 279.240504
34.033746 -57.029324 276.878272
15.163036 -17.980072 264.996052
-23.373896 -52.447634 287.410259
18.252569 -10.974889 262.704805
-33.636529 -35.209816 286.794305
-31.754788 -42.622939 287.573874
-1.843888 -6.756385 273.500830
23.163406 -11.362844 267.126765
7.551742 -1.061555 269.549300
-4.177979 -67.613033 287.647120
23.303045 -47.437269 270.375475
-22.198423 -39.486727 277.125865
7.533784 -66.630766 284.673959
-0.632606 -54.515533 284.397483
19.165712 -68.082407 284.122080
17.573215 -11.909543 263.819933
44.258415 -27.524736 267.489307
-6.551816 -11.942298 268.110514
22.084093 -23.013151 276.108416
-12.241456 -34.949888 275.170326
-0.157251 -69.180228 285.629943
-8.055041 -9.363595 275.522232
-24.094752 -38.350984 277.768448
-11.980825 -20.693742 271.158531
2.298249 -47.664944 276.598990
21.375409 -34.915734 268.097937
-8.368315 -56.939058 286.005855
0.290388 -2.770238 271.591261
-24.376521 -32.758702 283.663154
-13.250047 -56.117167 279.574166
25.415432 0.269478 265.486717
-28.402403 -31.453753 276.582747
42.989118 -29.423028 264.775112
-19.973932 -53.896308 286.996424
13.018791 0.323939 261.087239
4.239764 -67.474444 278.596356
19.532594 -57.608226 280.812999
-27.945444 -49.508043 281.950444
-4.738998 -57.068467 280.628670
-15.290164 -55.159328 284.751985
42.935200 -17.875707 266.763091
-20.141238 -42.617824 278.095007
-7.422372 -40.645279 283.546507
9.953096 -8.289471 271.177739
44.967335 -35.398748 270.046681
7.850905 -1.774612 264.159784
-25.814382 -49.146779 286.678433
15.719418 -69.144629 284.628600
-17.385635 3.263076 273.630678
31.194203 -59.312306 274.178863
14.473246 -7.977282 269.971967
18.499613 -10.498786 269.419015
33.195730 -38.962556 266.309033
-24.717055 -54.731323 288.727790
-21.669933 -40.745137 277.361468
-12.490597 -6.762518 275.551181
6.358035 -2.407890 263.701766
-6.853002 -55.137645 285.458138
27.255457 -11.611609 267.653008
16.687598 -59.397124 274.569452
-12.597010 -54.632825 285.706679
24.767481 -32.216191 274.428487
-16.031296 -25.532386 280.709853
14.155093 0.490813 260.829449
-16.036835 -55.311631 286.319464
-17.937322 -26.742633 273.715878
19.841584 -42.735736 278.763259
15.131221 0.352369 260.672897
-3.358207 -6.161682 266.245564
20.113751 -52.552402 272.567689
32.624336 -60.030255 276.793600
-15.665063 -33.278776 282.773807
25.821379 -13.077871 261.893779
-7.257499 7.089360 269.287795
-16.455102 -30.660541 277.644291
-2.130400 -6.740829 265.928194
-14.235728 -57.327274 280.213892
33.659354 -18.109932 261.630304
20.294557 -55.622459 273.590997
15.482095 -58.595751 281.873942
-17.359899 -42.704921 284.230262
-21.725854 -39.617276 284.817125
-34.025151 -27.723793 284.334964
-26.162884 -33.438826 276.974633
-7.402435 -13.201935 268.474400
4.016981 -2.599443 271.211535
-19.518196 -17.012055 279.270838
4.885374 -55.501025 282.878578
11.947480 -63.530944 276.391000
31.117287 -36.989355 274.146385
-16.746184 -45.432281 277.520955
40.817335 -21.719854 267.621875
11.436817 -0.467718 269.086272
7.343083 -1.468191 270.240068
-27.374749 -50.845073 282.861739
-19.821238 -54.491993 287.480503
-24.468291 -35.876427 277.631119
19.261610 -18.912129 265.064478
24.118196 -44.247991 269.470721
25.986176 -19.507698 270.892516
-18.308708 -28.380392 275.322192
4.597189 -2.975664 264.601141
-8.190067 -66.640575 288.310637
-6.634709 7.622098 269.471049
-16.829769 -31.379696 282.547549
42.002376 -28.370555 265.046567
-19.065765 -22.502560 272.843987
37.756096 -21.527673 261.715517
-28.814241 -28.375265 275.935136
-23.416782 -49.931202 286.962897
-10.935215 -56.586277 286.295846
17.010454 -57.473160 274.945542
1.416758 -12.743442 266.754508
-13.395733 -33.031975 280.640629
34.832392 -4.110854 266.387403
-18.465383 -43.834090 277.432472
33.907052 -48.270520 268.265933
34.472490 -48.544076 270.705926
21.967387 -32.473683 269.334400
1.717758 -55.308890 276.718259
0.559108 -46.721734 275.506496
42.995269 -27.729051 265.630043
19.214885 -10.781184 262.562841
33.139502 -48.485013 271.516681
-10.583234 -18.455462 271.929212
4.249550 -47.309484 282.864958
-5.101648 -57.365257 278.037518
32.836609 -42.979397 267.873585
31.692076 -55.029299 270.628124
-33.149116 -22.440799 282.861501
-13.411560 -30.835839 281.792571
-20.025633 -16.118052 271.839052
6.868639 -0.477031 268.440821
24.844821 -19.964582 271.029025
-6.352684 -8.274762 267.261535
10.825735 -64.744311 283.724705
26.031284 -13.662770 261.804134
-5.976605 2.787264 271.636337
-3.632478 -57.759829 285.422742
33.721927 -17.756222 268.255771
-10.295951 -20.356723 270.711914
28.034713 -13.855063 268.950194
-10.473797 -13.966906 269.767076
-18.059635 -8.216435 269.816473
6.815733 -52.926254 275.034785
-33.329875 -25.163593 283.713206
21.294468 -30.508290 268.157929
-16.379407 -4.796236 268.306568
-30.370564 -12.651383 279.913962
-15.173653 -20.391713 279.744854
38.737255 -24.779084 261.900564
17.984856 -18.470510 264.889762
-24.470706 -51.898587 280.267834
41.828718 -27.196201 262.838066
13.557063 -7.899919 270.354807
20.467509 2.221817 265.461296
-17.607638 -42.797257 285.091729
25.374219 -10.830365 267.819047
21.216243 -17.056491 271.641314
-11.088395 -36.841061 274.522901
26.113781 -44.804246 276.460819
16.977581 2.460370 266.468741
9.832710 -47.147152 281.846772
-8.537691 3.670401 265.366684
-23.484810 -38.917430 277.651350
-16.917523 -53.050418 286.497771
26.522617 0.042837 262.106076
-9.670405 2.872362 265.480826
-0.107993 -52.566836 284.202335
27.621806 -28.688541 264.996171
6.000027 -2.245449 263.112098
-18.607569 -12.514893 273.346672
22.245392 -46.356302 270.404577
35.410363 -50.579766 275.027529
20.809261 -56.065585 280.331403
15.757725 -69.102138 284.790307
32.197818 -17.449937 261.480172
0.911994 -3.421627 269.511061
38.865212 -10.260250 265.697420
36.148187 -42.162280 273.651084
4.143789 -56.254647 283.783495
42.291876 -27.927699 268.984318
-8.519068 -15.273557 269.215301
-9.890158 -18.770769 270.250618
15.898518 1.042112 261.465430
10.488951 -51.763738 277.554377
-23.281959 -37.133040 284.457981
-3.928306 -48.115538 276.291468
-1.871702 -69.124632 284.975707
-32.918729 -30.580541 285.301047
-17.923973 -8.338964 269.345641
19.526510 -55.339674 272.955045
6.902325 -12.232406 265.420228
23.914674 -22.782316 264.315754
22.912443 -25.986522 274.120987
8.524992 0.995386 269.037634
1.126990 -3.401738 264.743701
-16.167197 -31.793576 282.187015
30.480173 -29.900884 272.137374
17.620321 -10.250618 262.747496
12.148868 -51.818124 281.014203
-4.868890 7.328394 270.019124
41.193016 -26.975531 262.388870
32.258792 -51.656731 270.098373
33.982159 -19.623874 261.707733
20.642044 -54.705985 272.712290
-14.296788 -63.527959 288.319558
-22.474367 -50.567048 286.567539
-3.703492 -5.848109 272.727371
10.808548 8.511944 267.190369
-5.787331 -12.113550 275.661280
23.685410 -39.806016 269.558259
24.878899 -10.417927 268.342466
-19.780196 -40.601362 284.318686
13.370929 -11.720084 263.986275
-8.665828 -16.379094 269.825801
-25.149630 -51.570712 280.350198
-14.877645 -44.884205 277.047008
17.686524 -57.198061 276.648341
35.882659 -39.425742 273.175806
16.287842 -60.481334 276.639417
-3.304546 -47.361066 276.045412
-14.018985 -55.896100 286.203444
-31.323083 -16.502252 275.843591
12.707820 0.087087 268.240839
-11.905832 -48.070456 277.509590
8.833093 -11.016064 272.571951
22.043373 -30.713867 268.638924
43.720506 -41.732714 271.786720
-20.894190 -37.847082 283.238307
-17.948683 -9.549662 276.595771
19.623389 0.985186 260.226935
41.217661 -26.816535 268.321417
2.116564 8.628066 268.399269
-11.000314 -21.706142 279.287219
-30.095747 -15.084134 280.499786
45.427362 -34.475971 270.026117
-13.578178 -44.940721 277.393103
0.211041 -48.191138 283.459812
31.139640 -57.855265 271.946877
-18.123199 -12.414762 271.160245
-10.133675 -39.256036 276.956484
21.398614 -4.720241 268.204712
9.354874 1.074590 268.611471
24.587635 -43.021780 269.187808
2.955300 -53.131644 283.719063
22.153917 -24.350015 274.073586
-19.146946 -15.475934 278.470477
-11.704916 -24.801182 272.201597
-34.216136 -31.598162 285.599053
-9.495683 -37.543513 280.943423
-10.876808 -15.093798 269.842654
4.537443 -67.751696 285.354495
24.235485 -31.273771 274.513394
-21.209702 -52.955724 280.656636
5.163320 5.148876 268.831258
-9.947817 1.390509 266.284853
-27.934514 -30.905008 276.151538
-19.790716 -42.140654 277.326554
-30.836574 -15.183618 279.142946
-23.327057 -52.101920 280.432274
22.024735 -37.586102 268.822451
-17.389130 -7.524925 275.989074
-5.360401 8.405861 270.211846
-14.851891 -4.426179 267.944485
26.439913 -9.658977 268.294463
0.984436 -56.119679 278.757553
12.009975 -9.403520 263.868988
11.225961 -13.588054 273.534789
-18.027362 -44.193573 277.495801
-7.571745 -57.152106 285.921643
-0.525650 -5.454457 265.361101
9.835124 -62.726304 283.413589
18.197747 -56.275841 273.624142
-10.947720 -26.604702 283.681249
30.042493 -10.175520 267.633352
-15.197398 -4.955662 268.063694
13.917283 -17.652375 265.725225
-29.700177 -47.748922 286.229029
24.527639 -43.639012 269.418567
-22.378341 -38.064859 284.639150
-13.944691 -33.931155 274.739772
-30.039430 -11.151301 280.464111
-29.710323 -29.430401 276.536226
16.132524 -11.798749 263.726130
-27.106513 -30.412377 281.400541
16.010083 -9.736205 263.268329
34.095668 -13.423898 267.197309
-7.452769 -66.545389 287.642524
-4.846396 -43.004788 283.675939
-10.194401 -14.498336 277.074248
-19.154264 -19.976123 273.197034
26.809578 0.395366 264.640390
16.400224 -16.737822 272.603482
0.357911 -13.539206 267.189354
28.138287 -16.008097 269.651524
4.695299 -55.968300 283.630759
8.454808 -1.120284 266.705632
-11.664430 -57.220021 279.233783
-14.621500 -41.950561 284.312964
6.138875 -12.730888 265.889384
24.332628 -31.444026 274.251953
13.880987 -17.788157 267.246976
34.060749 -42.058194 272.693191
-21.431666 -1.917695 275.823628
-12.789261 -45.480198 277.209893
25.620685 -47.029298 277.292351
0.963942 -12.947108 267.318234
