15.324697 -10.489789 264.561190
-6.729814 -60.807596 286.493969
-2.536439 -67.308126 287.522135
17.369149 -57.585303 278.534107
-18.868816 -20.059818 277.424076
-19.114256 -23.713028 274.931086
43.357365 -20.723731 267.933816
2.543790 -2.876769 266.681264
-0.387605 -62.088934 285.628979
5.451556 2.770394 269.447402
20.282582 5.395971 266.260262
-8.211073 -38.456038 285.482197
9.827177 -0.557692 263.528202
37.350388 -8.625190 266.281787
22.456466 -36.835369 278.931112
1.512726 -13.626748 270.549703
-12.799262 -58.413572 287.072298
33.208980 -17.060991 267.098644
-20.596608 -54.147427 281.400573
-8.870367 7.151796 271.593754
32.267551 -57.107801 276.180224
-11.411077 -56.562024 281.471766
-28.511579 -11.238181 279.833831
6.676438 8.727038 268.268411
36.573250 -55.332236 277.071509
22.961945 -24.490938 275.242551
13.303812 0.074872 263.045885
34.809358 -5.846516 265.993319
-10.977999 -41.672528 283.829642
28.849641 0.216605 265.323799
-19.490303 -53.855198 284.001866
-29.175220 -46.235098 288.122005
29.846752 -27.616962 269.370783
28.270010 -41.489605 275.291935
23.341014 -46.299943 272.410387
8.282339 -10.530450 270.425280
-21.196143 -39.611217 280.840029
12.625412 8.152094 267.186154
27.423740 -13.896628 263.960933
4.221852 -4.689929 271.953345
44.866405 -25.541282 268.850005
21.375152 -2.730810 267.652685
-18.471189 -11.658780 272.995798
-16.531325 -55.620995 281.742916
-24.916335 -52.158324 281.884652
38.982976 -30.154117 270.387195
-16.995221 -39.690625 283.722592
-23.058991 -55.148408 288.959979
33.650337 -52.226115 272.535069
-19.269688 -16.950412 278.183031
-23.542871 -46.946328 286.779728
31.457889 -22.664325 270.464218
31.773862 -33.421545 268.039697
22.889147 -41.576183 276.435521
-3.521237 -11.921110 275.468363
41.753686 -47.634481 274.584212
9.874095 0.606962 267.970772
-3.435390 -14.668335 279.015837
-8.915172 -4.440838 274.285744
-17.274859 -8.256614 272.004468
-25.865940 -34.049140 279.144412
43.323011 -28.136837 266.487098
-0.252576 -47.907946 277.411413
26.645922 -25.547530 265.979059
18.126205 -51.559809 280.210641
-12.235574 -34.554336 282.996040
16.898275 -1.104904 267.997306
14.469263 -68.709242 284.526429
-6.186684 -10.076687 268.977217
30.305981 -52.504430 277.291756
22.332096 -31.301903 272.184887
40.527714 -25.300315 267.470075
31.858269 -30.880623 271.053034
6.699787 -12.256607 276.072058
16.746099 -16.126065 274.869286
-8.656715 -13.619198 270.565172
-10.867128 -64.549658 288.517465
-21.728041 -1.060256 275.684432
35.718300 -25.843633 270.207586
11.819551 -56.148614 282.408709
25.903444 -64.152048 281.463560
7.533939 -65.102928 282.692249
-24.329925 -40.941537 285.692681
20.073120 0.390826 261.472749
-7.399200 -18.188349 280.430709
26.547157 -46.668912 276.681009
-2.625732 2.516163 271.121175
25.908058 -2.270505 266.475103
-28.670684 -48.744353 284.548635
6.151333 -53.764778 281.236888
10.857754 -63.907309 278.835473
-15.339404 -22.601529 279.954031
32.444925 -2.787371 265.799166
29.856292 -61.184905 279.816464
41.460823 -26.624882 264.185567
45.048158 -31.510105 270.182205
-11.612388 -28.204965 283.210778
-28.796943 -28.299082 277.876413
-17.391275 -60.604392 288.981904
10.378231 -62.654120 282.349033
24.771787 3.569663 265.946486
0.354694 -51.374494 283.927959
-22.159217 -6.300087 277.071860
36.836309 -48.524360 274.478460
-29.572185 -23.748601 280.645878
15.866092 -17.639534 270.841179
-11.858649 5.407110 272.377737
-23.502947 -36.990783 280.527612
43.907984 -43.325934 273.475661
-31.186716 -18.508448 277.026903
-19.709750 -35.437506 283.704399
-32.710271 -35.236431 286.343850
-15.773665 -6.398660 274.454559
24.633081 0.109534 262.034000
-13.460435 1.624970 272.924185
27.330741 -12.788063 266.918126
19.977718 -10.638686 266.159675
1.515880 -68.270543 281.531656
23.155527 -36.967834 269.272417
1.645546 -12.688050 276.625527
-15.771336 -4.925809 270.344645
9.793585 5.435568 267.791295
44.448823 -37.769875 271.634495
-10.343400 -17.479640 271.661530
-30.456835 -22.389078 277.001147
-16.665186 -28.471649 279.645329
16.589770 -11.973171 271.104863
3.786964 -67.026348 283.674953
-5.006769 -48.178836 278.037543
-11.049819 -22.262541 273.018134
-23.952435 -27.890192 282.727698
23.997666 -8.176108 268.179466
-26.341818 -50.801650 283.358035
13.674376 -9.267101 268.525564
-3.908100 -2.133705 272.693617
-3.535610 -43.859923 285.020960
-6.450219 4.339614 270.722534
-0.055324 -47.345407 282.146081
16.483252 0.176751 262.055098
-15.567514 -33.002670 276.925037
22.339116 0.781778 264.669505
2.710786 -9.117798 273.111838
19.523907 -20.162743 266.323500
-14.130132 -62.599343 288.694094
-27.597140 -31.070532 278.819991
20.991528 -66.750247 282.967542
-25.894080 -22.327947 281.677367
22.038475 -32.778187 269.065607
28.192959 -17.626190 270.065236
29.060113 -6.499787 266.916490
9.171579 -52.309913 275.848346
31.606291 -59.124274 274.099780
33.977725 -47.690378 269.978430
-16.618202 -52.541260 285.936148
42.153979 -16.150491 267.248894
8.094431 -47.455264 282.835225
12.601619 -65.639740 283.823524
19.369378 -17.870420 270.912423
10.022026 -10.581077 265.706122
-11.606343 0.789022 267.341763
33.133875 -37.778835 268.535962
7.899466 -0.492864 265.706958
-8.174662 -46.462163 282.069535
22.834695 -12.962806 269.944473
13.081021 -3.497208 269.705608
5.282873 -1.486837 265.325121
26.934992 -27.097354 272.126962
5.827951 -1.364157 268.705212
-17.978602 -55.670913 286.809008
-17.754055 1.420346 274.243370
-8.585977 0.194390 272.727121
-10.994235 -36.846100 279.896477
2.635975 -55.683339 278.326547
-30.468409 -19.364262 279.690104
18.477667 -62.647076 282.039747
-19.413988 -18.394333 274.378635
-5.695177 7.577765 270.377318
12.506773 -13.361591 275.133311
21.838844 -51.267097 274.130025
-10.435660 2.164573 269.805317
-14.259283 -3.283388 273.098764
4.819996 -11.992437 267.335449
33.713758 -35.078340 271.415245
-10.750698 -20.640956 276.911205
-20.426946 -58.242202 289.247811
40.510307 -34.321376 270.967134
-10.177688 -55.436426 285.037294
15.252524 -18.855001 266.236904
-20.717199 -23.504152 280.785030
39.862839 -12.234115 266.481442
-8.533193 4.337078 266.697517
-5.923966 -50.124036 284.454932
-24.742803 -50.885421 285.664035
1.240929 3.558142 270.075583
-2.567068 -56.867197 279.696210
-22.094633 -12.219991 278.610603
-31.291714 -15.125093 281.207718
-18.229830 -28.190389 275.419796
23.720922 -30.186728 277.343193
25.552615 -22.637210 269.722372
9.074107 -5.741651 271.244229
-13.624811 -44.054563 281.528399
22.220836 -58.816875 280.503075
-24.482672 -33.830849 282.706881
-13.950570 -15.408552 278.242245
-18.903404 -14.559143 274.738097
34.816426 -19.296911 263.338308
14.562970 -46.666245 275.199284
31.207444 -10.473074 267.437058
32.330140 -47.330673 275.570499
16.318701 5.899698 266.789773
-20.941665 -51.378051 286.204305
38.913879 -22.336176 266.025021
-0.931714 -4.433313 270.914061
2.087942 -2.256326 269.913820
14.087387 1.068174 266.309528
-3.878446 -56.334494 283.811922
-29.684043 -25.472844 277.905783
29.069163 -35.588678 274.408288
-22.863529 -52.534824 283.386137
-15.305714 -45.102783 278.511435
35.108859 -13.432072 267.232158
38.247996 -23.146474 263.103695
-26.528845 -51.473502 289.095312
-12.020098 -10.034591 276.416827
-28.337187 -27.462188 281.243007
-16.554688 -43.268182 282.765314
-12.015658 -50.111515 285.678654
23.449443 -11.924631 264.605399
-7.223911 -9.399342 273.736552
37.577177 -43.141301 273.599147
20.351267 -20.000187 275.271124
19.585865 -43.028312 279.742661
-25.523366 -17.303736 280.404787
16.555792 -17.800795 267.951195
-10.378539 -22.499845 281.282715
-18.932765 -30.533425 282.539229
-26.630049 -7.136666 278.419162
-32.853395 -25.390593 283.974142
-33.461768 -29.822568 285.382906
-8.643398 -15.325078 275.827511
22.893603 -49.994599 277.589920
39.017819 -52.147731 276.018439
-12.319636 -46.533949 280.969350
-7.640622 -56.436580 283.467758
-1.816012 8.164635 269.865991
6.302430 -66.450890 279.321453
-16.319824 -47.011282 285.765741
-29.138880 -31.552758 284.354210
5.263187 -59.725745 284.202962
-15.132662 4.155453 273.214612
36.222127 -20.046094 266.863250
19.934855 -54.878827 276.083997
14.492543 -60.999197 277.473275
32.520165 -55.903999 272.295060
-0.289294 -4.588346 267.466791
8.164126 -69.156509 285.840108
38.048139 -38.302225 272.487901
23.002702 -22.404186 265.946457
0.590678 -56.141993 282.372436
11.839301 -50.824324 279.547773
34.351484 -44.478122 272.115004
-18.811122 -42.245859 279.886513
33.927493 -42.262998 269.221460
-8.930477 4.455248 269.072722
25.719981 -55.318271 279.056713
-9.778295 -47.320368 277.764094
11.601598 0.207089 265.444737
-13.923122 -2.062216 268.964385
24.073862 -36.898293 273.021687
18.179797 1.150760 264.873260
-32.978086 -20.642726 283.154620
1.005154 -69.004030 286.051369
33.864543 -59.215031 278.743793
-6.877502 -66.460600 288.248296
29.536448 -29.560799 266.572721
-20.105990 -43.471448 285.623531
18.013416 -6.177417 269.169788
2.046371 8.764060 269.153352
41.551564 -42.034966 272.400760
-3.030830 -7.273452 272.680450
23.939725 -41.606395 270.454011
-12.447212 -36.897100 276.339238
-31.181815 -40.841211 287.366156
33.836144 -39.907197 272.321193
13.996400 -61.334110 280.873308
-26.613580 -31.041830 281.796604
23.584002 -18.092805 270.637052
-17.881999 -3.009091 275.398430
-27.078593 -36.837197 285.232368
-31.248891 -15.952588 278.315943
31.302208 -15.849483 264.242722
24.491876 -32.119805 274.239292
-3.269438 -6.719282 268.534788
-6.782466 -57.128257 280.478580
14.747848 -45.533743 281.008873
-12.992062 -0.870957 271.264302
38.715524 -17.193295 267.276805
-17.591180 -10.541421 276.032987
-14.242229 -55.642340 284.026031
