-11.759619 -56.659478 280.876262
37.211595 -8.359961 266.255908
-28.869283 -27.921991 278.163231
-27.791024 -17.437941 280.674953
10.165546 -12.638829 275.310572
22.856373 -42.299918 276.903010
33.964118 -48.556903 270.217692
-18.282519 -47.058462 286.063064
-27.514435 -42.529774 286.474460
24.688434 -41.349969 273.419634
-10.583234 -18.455462 271.929212
-16.734344 -56.168077 282.008963
10.705685 8.080354 267.359026
13.727080 2.875432 266.974711
32.371779 -56.184336 272.111168
-1.507907 -48.464513 280.512122
-27.044254 -12.142362 279.391814
31.736461 -47.289660 275.868063
6.877841 -57.126492 283.396043
26.404503 -5.968155 267.399493
10.459100 0.270380 266.865178
26.096682 -19.276316 270.617992
5.163320 5.148876 268.831258
33.961035 -52.452211 274.142793
-17.760927 -43.235512 279.604198
-21.334145 -34.771252 283.537298
10.700576 -63.909783 279.189362
8.463980 -52.877437 275.566682
17.619546 -57.732966 276.810165
19.973600 -54.650626 279.190003
-18.202395 -29.643250 281.469573
6.547506 -10.304526 271.354343
17.119663 -7.445148 269.009430
26.733828 -2.266342 266.281785
-29.394366 -46.680665 288.307677
-31.588334 -41.153781 287.725886
-13.395733 -33.031975 280.640629
20.260085 -5.987213 268.809264
13.634602 -64.034666 282.707961
-11.463654 -36.444546 281.697909
-15.290164 -55.159328 284.751985
-6.180647 -44.420795 283.418351
16.642248 -19.190118 265.646525
-9.465699 -15.407114 274.910309
-14.962962 -45.240362 278.498963
10.038009 -49.777653 279.851402
1.770990 -46.589960 283.750747
31.877938 -6.934574 266.368803
-6.546245 -40.688451 285.698236
-32.617041 -35.592297 286.402270
0.950241 6.261274 269.339571
-24.859826 -36.825836 284.470081
10.488951 -51.763738 277.554377
29.225689 -41.404276 275.561315
-31.985625 -15.846275 281.838212
-22.054055 -44.593748 286.119397
13.994473 -61.425342 277.920556
23.642530 -43.860539 270.767579
-26.072416 -33.064381 280.013132
39.929651 -13.052524 266.650962
32.593474 -17.299270 263.794602
30.042493 -10.175520 267.633352
35.285768 -18.211109 265.852297
32.216245 -59.028903 276.272168
-21.845351 -53.252972 286.380227
0.469409 -55.733306 282.280708
-14.272478 -2.629658 269.121591
-10.597055 -20.861734 277.279268
45.057879 -30.502576 269.894063
-7.065134 -11.218326 269.222844
19.825946 -55.092125 275.278831
9.776349 -9.984529 269.411161
21.165629 -52.583563 275.130402
-8.277847 -47.819610 277.664734
32.945877 -35.421452 270.362486
-5.454463 -58.353590 285.766450
-22.454479 -29.972517 283.019663
-17.070467 -60.815685 288.944676
25.117839 -24.093468 265.874001
10.954297 -2.411599 269.846921
-1.510731 -0.684431 271.823047
7.658383 -53.359533 280.181107
22.772727 -11.836359 263.957780
31.470975 -19.684276 269.751525
3.083563 1.421016 270.315523
2.720768 -49.828451 283.262048
-32.940239 -20.762649 283.149071
-7.852876 -57.113793 280.571931
40.539066 -26.818246 268.684492
21.850233 -50.347499 277.337092
-9.921179 -56.240242 283.339644
5.645806 -12.172244 276.680628
21.967387 -32.473683 269.334400
8.172640 -64.751844 282.732718
23.592126 -33.172461 278.641191
18.759081 0.426861 261.969961
-17.931487 -9.348219 271.572555
7.336109 -0.813231 265.355481
30.965270 -31.958488 267.167704
-10.745896 -45.813415 281.805168
27.087220 -23.497310 270.218943
15.767092 0.386394 266.304075
40.624253 -32.515802 270.515072
44.083399 -22.802974 268.307516
-3.971258 -48.597058 276.978488
26.184139 -9.192102 268.176396
20.206563 -20.180379 272.407918
-19.062668 -24.283136 274.939797
20.531901 -10.392247 267.373612
-10.787195 -41.132099 283.825454
-4.096666 -67.640246 287.999316
24.553271 0.106099 261.991314
-30.987305 -19.351919 277.281855
-16.434833 -43.134336 283.439321
6.868639 -0.477031 268.440821
14.332475 -12.841405 272.272362
15.287143 7.361250 266.914226
13.534639 -9.602805 268.299894
-19.143843 -41.168272 281.488155
-23.258488 -37.394415 280.393237
-6.082005 -14.508157 276.301288
-18.308708 -28.380392 275.322192
2.457990 -2.938066 266.609344
40.855263 -49.678333 275.263575
15.397240 -45.486353 275.987650
-22.799672 -23.864975 281.662016
-12.490597 -6.762518 275.551181
-13.882216 -35.362056 278.616553
3.651062 -59.303302 284.425199
-11.475501 -46.840364 278.216805
18.723074 -47.996846 279.620598
-9.263351 -36.458566 285.485153
-13.867575 -47.788628 285.550672
23.222815 -7.568692 268.500027
39.714406 -23.471121 266.567011
0.984436 -56.119679 278.757553
23.093558 -47.335134 272.245606
-0.096203 -68.922081 283.760149
-19.446893 -19.571877 274.407094
-21.212190 -40.096084 279.394741
16.179749 -50.372590 280.548483
19.573807 -10.921538 264.594268
14.471569 -46.521143 273.340181
14.781994 -44.920971 282.861769
-4.488345 -8.013649 268.728791
10.924448 -60.975125 282.679304
-5.976605 2.787264 271.636337
44.638011 -37.383984 271.560968
23.368690 -16.515828 270.957882
15.959089 -55.985422 281.336751
24.149616 -37.045464 272.681685
22.084093 -23.013151 276.108416
-21.776549 -8.256624 277.524233
23.726424 -28.036929 276.474981
-16.705810 -6.736059 271.181869
-28.074588 -49.169387 284.645686
-18.607569 -12.514893 273.346672
27.571196 -53.348326 278.232261
-10.021922 2.621984 267.184321
33.156439 -52.832910 270.963867
30.908642 -30.116179 269.680929
29.008380 0.114518 265.336643
-28.936434 -24.531235 280.885172
2.785335 -55.645913 281.456924
33.551685 -3.599061 265.840967
-11.166858 1.885750 270.678983
23.685410 -39.806016 269.558259
32.733491 -56.625050 275.382298
-3.566237 -14.816204 279.389165
36.993935 -50.318865 275.043441
29.574191 -14.601683 264.403191
16.057944 -17.494325 271.516266
33.780608 -41.167169 269.102143
1.446518 -14.906639 269.928499
-8.744882 4.167478 269.500383
-5.028218 -50.282156 284.640933
31.513283 -59.117793 273.626456
35.041733 -34.126646 271.864117
-16.270946 -34.363549 283.115344
-18.817605 -19.949569 277.388874
-10.933741 -22.410410 273.481220
34.108757 -44.546992 269.796923
32.003759 -34.320133 267.874571
-6.029783 -1.772601 273.006101
-25.193471 -51.570606 283.037825
36.084060 -22.155861 268.995224
28.138287 -16.008097 269.651524
-17.412595 -25.131753 279.511348
19.419352 5.283518 266.300100
4.055569 -1.910592 268.695422
25.984895 -48.842846 277.356081
3.775452 -4.003030 271.562115
-19.303959 -41.521416 284.405986
-33.056864 -25.620517 284.168794
31.324652 -52.067782 276.906768
0.911994 -3.421627 269.511061
-0.107993 -52.566836 284.202335
-21.431666 -1.917695 275.823628
-13.481657 -0.649883 271.622698
-6.174855 -61.488111 286.524541
2.388453 -9.602031 273.498184
14.619773 0.253074 262.669474
12.424558 -46.181362 282.020780
29.357348 -28.150959 268.485782
-12.118547 -63.848891 288.605545
21.153443 -21.454523 265.141010
-10.804292 -37.547135 278.167110
27.763030 -13.128806 266.455322
-0.975892 -48.802425 283.554486
22.279707 -50.539499 273.684811
23.693396 -23.769666 272.734229
-10.188846 -1.009626 273.287877
34.026343 -59.356018 279.109194
27.299271 -63.006525 280.773497
-13.362346 -58.007583 286.985662
-19.737932 -54.382952 282.130731
-4.738998 -57.068467 280.628670
-32.918729 -30.580541 285.301047
-0.661101 -58.259245 284.881725
41.639359 -17.674807 267.400736
29.437286 -29.420588 266.186824
-29.894829 -25.181765 277.801767
-0.491256 -68.343260 287.218206
41.448210 -39.797311 271.969923
18.041666 -42.752168 281.575813
6.539741 -66.381894 279.335955
-23.144670 -13.380164 279.077185
-10.579908 -22.628597 281.375141
25.653315 -45.204368 275.701345
14.656924 -14.598428 275.841321
-2.321688 -5.967412 267.816494
25.677459 -13.067416 264.292387
-10.860047 -31.785071 284.499228
-5.526514 -64.411070 286.927314
-7.911902 4.921521 266.905488
18.890019 -18.104839 275.711677
-24.971741 -26.927864 282.626699
17.400150 -67.449857 283.564584
6.266181 -11.425915 266.852174
23.132050 -21.580911 268.111043
-12.660459 -52.481737 286.044653
0.581373 -13.067327 269.926770
21.516143 -66.156051 282.675985
-1.298279 3.611720 270.547304
-9.309060 -9.908451 275.382131
37.695776 -41.069472 273.185672
-18.278477 -55.729408 286.893654
-10.947720 -26.604702 283.681249
-21.629751 -57.218030 289.386254
-1.845017 -56.484780 281.561262
-27.602037 -31.318669 278.156953
15.966882 -44.139803 278.467271
34.060749 -42.058194 272.693191
-16.455102 -30.660541 277.644291
20.763400 -12.597921 270.569332
0.887804 -47.336188 279.932524
22.965493 -33.251175 275.276014
-12.689479 -16.779825 278.180250
22.537143 -3.453268 267.600160
-5.272366 -46.419021 279.732981
17.299896 -11.005074 269.867378
2.076327 -68.065804 280.864580
-25.225484 -5.235891 277.549110
-14.085608 -3.139037 272.817833
3.709882 -67.353932 283.320725
22.913429 -35.666534 269.281907
42.995269 -27.729051 265.630043
22.219957 -46.491574 277.556507
-5.485820 -48.596547 281.480661
19.841584 -42.735736 278.763259
4.641547 -52.294836 282.673189
15.977559 -60.268542 280.466704
22.674417 -38.079129 276.987082
3.563065 -11.996998 271.119400
23.408508 -11.036210 266.760164
25.013964 -31.689238 273.797424
-16.883511 -7.309981 275.518462
-19.203270 -15.819605 274.096623
12.402370 0.154424 264.371104
1.353818 -12.831896 275.360341
3.628747 -69.455679 286.968297
-21.360134 -38.609294 282.501942
34.095668 -13.423898 267.197309
0.598071 -4.945110 267.039574
27.524915 -26.851909 265.629900
-13.083545 -12.235618 277.219291
4.810258 -1.524643 265.503998
33.933218 -38.562368 271.312876
42.638854 -44.505273 273.582049
-23.083785 -40.531205 285.437775
-15.173653 -20.391713 279.744854
-7.842862 -5.645164 274.426695
35.306793 -45.520107 273.144248
12.644376 -52.262969 281.077054
32.422193 -31.916682 271.255628
18.695963 -15.945653 271.251931
15.570235 -10.477608 264.673386
-17.540527 -10.759090 276.013274
-14.233192 -44.363169 281.837641
-12.605907 -36.742848 275.637634
13.549919 -5.288436 270.123522
-18.682561 -13.412704 277.068283
36.783673 -28.437169 270.559764
-28.926176 -37.645062 285.659373
-1.320528 -62.943068 285.944000
1.427453 -13.984237 272.918075
-1.936712 -45.929206 282.312989
-2.039866 8.450723 269.932782
7.947785 -69.008354 285.741980
-13.687537 -27.738941 280.991938
3.317074 -63.391671 285.192636
-15.573703 -33.565252 275.578872
27.713848 -29.009212 273.107074
32.574378 -25.590659 270.848028
12.170954 -68.776338 284.969101
2.719910 -13.241890 267.374435
-9.502198 -59.308014 286.677449
-28.459867 -27.909196 281.736382
2.088068 9.322447 269.235859
4.743443 -55.239958 276.890363
-2.214391 -44.072820 285.678773
21.001399 -60.353427 281.067694
24.372843 -13.001569 269.624210
-18.738505 -16.904904 277.521088
19.695397 -19.148105 268.542618
28.440884 -26.074531 269.437961
-26.075056 -33.147512 283.345841
40.355831 -25.268618 264.074223
25.179752 -57.967117 279.672704
17.368680 -2.488823 268.483941
11.915293 -49.815229 274.491731
-8.231810 -66.324564 288.622598
22.196724 0.999969 264.102737
-0.338864 -3.797544 266.936110
-8.757382 -52.692545 285.624499
36.905294 -21.817572 262.734221
22.384092 -31.094879 272.509579
-29.764524 -10.967773 280.403491
-6.628369 -56.444071 283.433069
-14.047508 3.927219 273.004364
-25.901900 -52.059727 288.785918
-3.333765 -11.231293 275.179092
-16.380308 -54.572297 282.022046
-25.432913 -46.722194 287.006919
9.733308 -0.547045 263.627739
-22.559125 -49.521893 286.401411
-23.570310 -18.478271 280.422557
-27.470592 -8.023739 278.853324
24.456684 3.682861 265.947709
27.939418 -34.716869 274.483928
-15.925065 -5.056523 273.865826
-2.299700 -57.020327 278.867865
8.034499 -5.795868 271.486922
-3.583315 -5.993273 272.391857
14.105666 -48.108525 277.838164
-17.929466 0.664438 274.477653
-3.783452 -54.871364 284.247002
-15.989621 -38.749409 284.039905
-7.555977 -18.299913 280.345561
23.620947 -52.918281 278.691826
25.102594 -64.903357 281.869719
15.554795 -17.966216 267.909046
-30.358668 -22.731602 276.664197
6.540565 9.038285 268.330543
-6.164124 7.236934 270.470548
4.587082 -54.580503 279.615706
10.856843 -10.524048 265.240354
33.085334 -37.812732 268.070135
37.416520 -54.856116 277.090446
37.654246 -36.394476 272.170477
-17.290644 -9.119301 273.696752
21.420024 -38.876715 280.317583
0.936386 -12.720765 278.180514
-13.228195 -56.012102 283.056850
9.358135 3.636070 268.376727
-27.106513 -30.412377 281.400541
-31.170302 -17.156434 278.433707
-9.111727 -48.360893 284.125270
-20.262256 -21.538540 279.901204
37.600794 -20.992716 265.523227
-15.565457 -4.551279 270.179313
21.070109 -0.557133 266.663281
-29.817973 -21.133215 280.145083
-17.619520 -52.136555 285.890145
-24.891842 -35.373911 279.786582
9.580905 -47.014199 282.751947
-1.549761 -5.114676 270.519398
-5.920777 -9.610501 272.268309
11.218877 -56.083956 282.522590
0.133409 -47.875252 276.836938
-31.086556 -14.206755 279.672835
-12.479013 -0.168687 267.982085
30.240074 -61.500584 279.944888
31.117287 -36.989355 274.146385
-22.086748 -52.886566 282.819249
29.742791 -56.942536 278.367880
6.450145 -48.283356 282.639222
-9.210232 -14.474595 270.452639
0.320712 -7.009258 273.421089
-10.214473 6.546375 272.073238
