-20.486493 -54.464520 284.028785
9.538302 -52.244227 275.704546
2.192739 -12.340258 271.426475
-25.640471 -33.455984 281.079977
-0.767632 -68.973038 283.640781
-19.233040 -5.397588 276.305873
-10.949383 -19.949804 276.495261
-5.084480 -48.438507 277.227327
-5.158290 -16.010398 279.868076
12.665425 -0.017216 263.090972
-11.912301 -33.037672 281.518674
-5.675001 7.551161 270.469886
8.410439 0.361929 266.839565
-1.656359 -56.805480 279.376743
23.279864 -33.998348 277.418492
1.944296 -12.521634 277.782877
35.755898 -18.720821 263.623284
-22.165305 -42.067925 285.626481
43.279224 -43.041547 273.091180
35.654637 -54.337269 276.000036
21.674857 -31.729376 270.394721
19.560963 -19.227221 268.260145
34.022644 -43.983765 269.470063
9.349937 -10.768980 265.881880
-25.558582 -51.511570 282.279646
22.027547 -32.948864 268.300302
-33.017441 -24.734533 283.847257
-12.770897 -55.904340 284.550312
-14.097977 -56.202455 281.553837
7.255228 -8.942831 271.078975
-13.021578 -37.031238 278.945646
-17.125458 -42.782125 279.799758
-22.449777 -53.390761 287.030673
22.801419 -31.049701 273.256812
-25.163521 -53.189613 289.256491
5.469797 -59.692466 284.158044
-19.349605 -19.275134 274.752794
-8.593631 -48.491541 284.317693
-2.232417 -13.987200 278.899041
19.815204 5.935013 266.355989
-18.070066 -29.184433 274.682778
23.983607 1.634046 263.448089
33.959584 -31.051947 271.483134
-16.919945 -42.520613 282.587012
0.153933 -9.021398 274.089335
-12.376695 -44.186091 281.434137
-12.653367 -2.162630 272.247506
33.540211 -50.504656 270.094016
5.695781 -11.355588 266.034981
3.870586 -66.345298 283.968736
33.333186 -2.900971 265.928784
22.517412 -44.112490 277.367864
32.348845 -33.860301 269.458930
-33.522438 -30.677457 285.652778
12.075806 -11.957489 272.441461
3.819730 -67.882268 282.155283
-18.900051 -14.973670 274.565104
16.289653 -5.386503 269.539820
-10.455764 2.084803 267.592930
-7.077212 -13.802991 274.110682
-29.174087 -25.366231 279.344011
-32.035941 -39.247148 287.302466
-13.603127 -47.207799 285.354393
22.928456 -48.230035 271.975294
-16.893292 -30.567401 277.449111
32.852981 -25.189677 270.779357
-16.536820 -61.345919 288.979624
34.315827 -48.898355 273.544150
-23.490865 -5.092227 277.019942
-16.156194 -55.636741 281.903390
22.406692 -36.898168 279.400238
-18.965283 -12.808580 272.652936
-18.991865 -25.418261 274.850858
19.971139 -11.028083 264.266764
0.564533 -55.047861 281.044997
-20.471659 -14.136399 278.667171
32.962388 -36.842579 268.139866
42.930459 -28.637743 264.488693
-12.716830 -46.592573 281.667098
15.614208 -43.898409 277.315971
-14.573119 -1.457264 271.815911
-28.382333 -27.614313 281.587070
-14.107030 -7.494726 275.823869
27.962259 -16.185325 269.748584
-19.098664 -23.235955 279.051151
22.074326 -50.837715 273.174851
-14.943525 -4.101039 273.084350
31.913356 -43.542493 275.263610
41.944666 -46.839489 274.340648
4.104904 -55.090716 279.480645
28.681099 -8.613292 267.561592
-11.450848 -56.450720 281.601354
-13.963917 -35.564562 282.202971
-7.211834 -5.810409 274.351176
19.079473 0.445172 261.745718
-28.892450 -10.075430 279.790174
0.769769 -56.703541 281.955909
24.289149 -17.521967 270.907455
30.409737 -30.905425 270.835444
37.391468 -49.085209 274.974391
33.346202 -39.342438 268.720211
-2.199738 -5.969825 269.940211
42.291849 -17.011361 267.303709
-22.185442 -52.051494 282.202746
9.324888 -64.829509 279.269536
14.851230 -60.601121 277.017511
-26.767534 -32.684351 278.588357
-10.594066 -36.586937 278.623160
-28.321019 -36.757158 285.387279
-32.498309 -33.321571 285.610850
-27.534226 -50.270303 288.924036
1.542264 -13.374857 274.169257
-30.731335 -19.708120 279.662279
-15.812067 -57.687503 287.459877
21.297674 -10.686766 266.884729
23.575284 -38.876737 269.602339
26.877794 -42.765090 275.489696
37.400554 -8.209185 266.271713
22.128156 -50.903357 275.976564
-30.227295 -24.593094 281.648904
-18.785165 -20.034843 277.780332
16.559105 -10.580639 264.453143
40.165993 -20.167538 267.195089
-23.596087 -37.159660 279.964228
-16.482760 -4.767995 270.394184
-10.654095 -19.480288 272.129442
31.302928 -48.538529 276.396560
1.994529 -13.723626 267.513085
-10.944095 -30.926745 284.734629
-12.471556 -63.922061 288.797367
-21.501491 -0.977946 275.622428
30.681943 -2.094935 265.571313
21.704890 -66.244986 282.697162
12.341738 -54.065561 281.959175
-0.622301 -5.210835 272.063000
-18.131079 -11.956854 274.955054
35.822435 -19.104833 266.389846
25.678022 3.179956 265.894466
33.907573 -41.535458 269.132889
-20.015455 -50.317245 286.616537
16.384082 -51.700383 280.771753
-5.383035 3.447211 271.335973
33.721249 -17.618738 265.684369
-31.414303 -15.335054 278.171116
26.840437 -46.266282 276.646767
18.283567 -17.841531 270.850363
3.523176 -69.530159 287.106446
25.395200 -40.943080 271.984696
-6.332329 -52.844151 285.275815
-5.565535 -47.319405 281.037990
-27.708875 -29.689983 279.930114
23.204920 -20.980303 268.616050
15.357134 -60.229445 279.928901
17.866667 2.798145 265.904085
14.399402 -45.154693 282.451147
22.751674 -39.137445 276.843027
24.732253 -0.383747 261.197921
29.267805 -0.008280 265.722945
45.042506 -29.270764 269.381299
24.843143 -28.956697 274.227751
20.858326 -53.089557 274.495085
-22.721030 -56.117790 289.354089
39.360468 -24.098259 263.279576
-26.595155 -7.036309 278.373048
22.637229 -57.005835 280.098217
9.578013 -0.567450 263.477279
-2.574544 -49.470562 283.850193
26.978982 -13.946485 262.882271
-11.388909 -13.477119 277.164662
4.231904 8.822393 268.754015
-25.740536 -50.654999 285.325020
1.697431 -63.088399 285.433411
-15.323131 -51.648983 286.382596
1.904517 -68.559374 284.119180
3.541617 -50.977569 283.292772
26.412694 -3.656051 266.752860
-21.076086 -25.062186 281.703564
-32.454685 -17.416892 282.379580
43.716981 -20.715494 268.056434
31.801496 -34.415574 267.172573
-17.797289 -54.158241 284.572339
26.061333 -64.528873 281.673516
-30.784096 -41.487673 287.328724
-18.290458 -13.087962 276.776895
33.279096 -15.543886 267.309744
-3.927454 -7.472704 272.294792
1.555544 -68.079193 280.911887
31.057812 -36.666880 274.102853
5.326931 -3.957062 271.498861
0.735168 -14.315807 270.022213
-22.996209 -21.123135 281.012258
-29.426325 -22.389473 280.109391
23.784194 -30.329555 277.629232
-24.046917 -11.685948 278.801023
12.756858 -10.403515 264.660351
20.873354 -20.713498 275.866134
-28.566877 -48.829803 284.274168
5.853070 -12.852823 268.342550
-18.911935 -17.251279 277.147769
24.818605 -24.360924 271.745077
-15.284042 -44.018653 283.266596
17.890883 -57.551213 276.604846
21.032078 -39.522450 280.452505
-15.751691 -33.138518 276.110689
6.450588 -1.117224 264.950817
21.023178 -7.260600 268.726523
-9.081627 -57.071249 280.959767
3.966692 -10.985514 268.358505
13.308759 -69.002264 284.840303
-0.848876 -68.206955 287.329549
31.676291 -16.399665 263.555021
-19.404099 -55.123419 287.242654
37.430337 -21.995536 267.457448
-17.294584 -9.266679 275.012914
10.557053 -5.613681 270.879335
-3.249100 -56.160348 283.069309
-22.739600 -53.936064 281.988528
15.383423 0.394152 264.703095
-11.366571 -37.848340 276.112852
-0.678947 -48.013785 276.655964
31.570128 -53.077393 276.777065
8.289313 -56.761979 283.131110
-6.535058 -15.436199 277.015984
-8.130770 -19.145167 280.702513
-3.631934 -2.824373 272.823095
-14.410701 -16.101912 278.513225
20.372867 -53.717231 278.239389
-30.495449 -17.027234 279.859111
-8.883084 4.232216 269.488703
9.030779 -10.390959 269.609429
18.492392 -0.960620 267.431960
28.478178 -27.978010 265.704652
-10.761051 -21.969159 278.542273
-6.688761 -1.187802 272.963526
-4.922211 -8.687598 268.196204
23.450788 -0.175156 264.756651
40.954962 -13.664031 266.815988
-14.348447 -2.989962 269.076251
23.615536 -40.742985 274.205486
15.257366 -63.489521 282.578039
-29.858333 -26.451562 277.214448
21.451253 -21.294274 272.492800
-15.071374 -44.997297 278.116225
5.775275 -66.788022 279.758272
6.029570 -12.180923 276.661552
14.071817 -14.278025 275.822963
29.061891 -39.132182 275.154827
8.644670 -1.117875 266.429488
-24.388555 -26.949167 282.570875
12.445693 7.668873 267.146323
17.470060 -67.631167 283.598286
17.666223 -56.138351 280.197701
-26.859281 -18.806550 280.952401
7.772814 -53.030640 280.006949
28.171595 -55.050089 278.396021
-18.830740 -35.334557 283.738869
38.881097 -52.670452 276.107970
16.526956 6.919573 266.754392
-20.860735 -9.278173 277.635754
35.871295 -57.287985 278.235089
35.201116 -39.892124 272.575477
21.884547 -2.914541 267.593502
6.896946 -48.259759 282.540414
25.930026 -49.855931 277.852664
12.390648 -62.813532 278.660829
-23.775122 -52.837843 284.521946
-10.794050 -59.546466 286.947542
37.297303 -25.233903 269.636017
-1.801392 -47.704595 280.683536
35.337948 -5.799862 265.975684
-12.993448 1.979965 272.489562
10.062396 -69.489422 285.630810
5.294429 -11.746622 272.320140
7.172552 -64.455558 283.266215
1.315529 -47.132386 283.505896
18.831838 -10.815383 269.220158
23.778264 -23.080168 265.490826
34.427667 -42.671148 271.974559
24.255817 -36.631367 273.109784
4.021748 -1.930442 265.956290
27.842258 -27.458359 271.602572
-18.485832 -28.092443 280.726474
45.106803 -34.289773 270.846331
10.752101 0.085412 265.533177
36.941043 -22.668280 264.238641
33.240538 -35.161861 271.007609
-24.283948 -30.593630 283.180758
-8.807133 -56.127324 283.939695
1.179125 -56.293062 278.384258
-30.315799 -44.215030 288.123763
-9.587284 -17.135920 275.188165
38.307374 -43.315701 273.516188
31.063633 -28.493292 269.968014
-11.244662 -4.205041 274.604609
23.617567 -45.339655 271.985654
37.112926 -35.709006 272.160984
38.077956 -54.962750 277.500380
-12.789732 -0.226624 269.770510
34.088363 -46.681092 269.851449
11.037908 -65.726769 283.711494
13.432844 -48.291152 278.416736
-29.031675 -30.868628 284.163465
-20.283080 -54.151238 281.114817
43.121260 -27.235922 266.512261
33.268773 -59.585877 278.770489
-15.644963 -55.052514 284.671429
43.094438 -38.699226 271.817741
28.006812 -13.056702 266.851258
-24.425173 -38.666305 285.239455
-9.938566 -37.430389 280.814702
4.107559 -7.338516 272.816422
-26.433712 -43.027814 286.413809
25.753939 -60.331987 279.973365
-16.380319 -6.601883 273.645012
-9.821097 0.268387 272.445963
23.321196 -47.949453 275.579173
22.227199 0.183379 261.373081
26.411771 0.202259 263.178198
-0.248206 -53.666402 283.830316
-6.929381 -11.205554 268.714501
-14.848083 -39.451942 284.029832
-10.165884 -23.091028 282.488538
-19.343677 -42.202047 278.967451
-16.033023 -32.215437 281.055277
22.702337 -42.442765 271.497441
28.900656 -26.551056 268.658863
-7.817844 -14.772458 270.781033
-9.902346 -34.956670 285.643400
37.528904 -21.601702 262.349023
28.236897 -22.044255 270.302132
-28.949595 -47.384039 288.162576
20.918491 -48.914699 278.903004
39.536454 -24.346252 266.654683
30.815231 -32.039239 266.725549
-26.835505 -30.775036 281.697488
-11.057283 -37.026108 283.133098
23.819392 -13.165530 269.877064
20.129267 -61.084442 281.391461
10.078317 -12.700906 275.845516
33.901370 -52.385616 273.644698
-28.779314 -28.145094 278.194808
-12.717082 -0.412847 267.550588
26.350441 -25.345199 266.216573
-0.445260 8.038568 269.627971
33.796992 -37.730152 271.252217
-4.244598 -57.107315 279.901602
-4.230227 -6.716159 270.014113
34.595241 -21.259585 269.324026
17.106081 -47.978854 279.939500
31.141644 -19.132750 269.714064
-6.242479 -9.750197 273.725397
-8.787068 -47.631698 277.364463
12.826558 -58.188465 282.529494
-12.924962 -34.344409 277.354159
-31.248851 -14.016821 281.148317
6.182542 -0.681452 268.389852
-31.222916 -17.880122 277.033720
-3.129744 -11.923287 275.579569
10.477120 -46.607083 282.832436
8.214727 8.399768 267.921357
-33.026001 -21.108172 283.257091
20.234823 -20.999969 265.397461
30.757696 -14.673390 265.711763
15.272898 -45.665980 273.671106
-17.448108 -26.814300 277.844290
-9.493784 -12.784340 273.569821
-9.621206 -13.713115 269.802477
-7.260247 -43.703758 283.551622
41.080098 -32.826947 270.468159
38.361601 -20.889735 265.079781
34.815096 -20.423112 263.352122
22.642988 4.432365 266.080022
-17.218522 -7.873358 271.215961
-16.716887 -3.011059 274.937592
31.696479 -11.160958 267.490213
-22.619064 -17.328187 279.999372
40.963997 -26.452489 264.456144
15.611788 -9.583081 268.003779
-16.582628 -44.699876 280.214394
-6.105395 -58.477286 285.684389
-20.088250 -58.598524 289.268137
-0.529597 -4.667017 267.837420
-6.531965 -56.870696 281.700299
17.463224 -44.126430 280.273275
16.372515 -19.029295 265.686385
-1.977457 -44.624637 285.014747
10.911619 -62.329211 282.060844
-17.987989 -10.100080 272.604143
14.639563 -1.625509 268.750994
-30.236157 -23.479906 276.746314
-2.670475 -6.262021 267.361161
-15.099565 -5.593722 270.444295
-27.207044 -13.979427 279.855610
-11.271870 -41.817299 283.919257
7.083613 -54.089196 276.376238
-18.237452 -55.311689 281.659673
32.617421 -55.376764 271.885409
23.297264 -11.974401 264.120195
19.638405 -41.998483 279.655043
-3.631647 -62.771800 286.312981
-8.844438 -65.111680 288.169753
-10.559922 -16.595527 271.019743
-20.665973 -40.346736 280.163703
-10.986535 -22.754461 273.323298
12.892490 0.563706 266.281542
37.629594 -29.826380 270.668959
-10.183411 -9.157192 275.824487
-21.546272 -38.634578 282.312593
24.583883 -11.265417 266.802475
-19.322083 -22.172200 274.740981
-15.073979 -11.230350 277.149797
7.086410 -68.875741 285.813730
-9.488912 -46.889230 280.368218
23.008680 -25.317151 276.399779
15.599317 -17.481999 271.332982
-5.308850 -67.219219 288.126919
31.540649 -59.093673 273.854767
11.025688 -50.855645 279.497018
15.487019 -17.996868 267.922480
-20.364061 -30.610687 282.914902
37.588582 -15.864609 267.230418
-0.064421 -58.601945 284.898621
10.001905 3.056026 268.261706
31.696945 -6.304864 266.242939
-19.651705 -52.660003 284.252131
35.201265 -11.673347 266.790192
10.198081 -1.719594 269.579124
3.574653 -2.119191 268.782231
25.871751 -13.019871 264.811715
-19.927476 -45.678898 286.038343
19.625205 -55.354755 275.402559
-1.496884 1.814717 271.109031
-26.955125 -23.958451 281.764624
22.890067 -35.934177 269.286845
40.818890 -49.923370 275.337695
27.178722 -32.897596 274.289209
-19.171108 -41.289671 281.741376
26.915772 0.663620 265.897617
25.138626 -7.726405 268.149031
32.953516 -18.093856 262.767360
-17.212843 -47.847227 286.053866
20.504618 0.931760 264.782015
-14.871300 4.122309 273.148138
4.266134 -55.158199 282.189502
-22.169940 -39.279455 279.106159
29.354544 -14.035220 263.829779
32.349853 -57.407864 275.778636
-5.302270 -41.711938 286.073065
-28.102028 -30.526560 277.755215
2.287029 1.495324 270.455021
30.199001 -61.476759 279.917588
16.321594 0.180172 261.661586
3.996441 -55.287274 276.869029
29.742701 -29.815109 267.218661
34.481920 -45.489523 272.662197
15.161137 -46.651784 277.049527
-15.096683 -23.993779 280.309538
-13.711709 -28.008514 281.020995
11.689115 -50.195133 274.915588
1.718942 -3.455586 266.618184
-18.536320 -39.557912 283.715696
-19.519035 -16.919076 273.777330
-8.149580 -38.753465 285.479608
41.652696 -24.265265 265.894145
17.964967 -17.196863 275.552078
-6.739383 -10.420085 271.306108
-23.228347 -35.562619 282.669626
24.022323 -42.555551 269.505177
-12.215269 -46.699629 277.836187
-11.012856 -26.986178 283.740474
20.031401 -14.794736 271.410790
-24.005209 -47.217272 286.897293
13.259948 -47.896174 273.791743
40.869727 -27.364252 268.947089
23.792819 -53.038961 278.749731
23.135445 -33.328315 271.964857
-14.207950 -35.857131 275.229042
31.626783 -31.521742 269.012480
15.772057 -13.390103 272.086902
1.103086 -3.035520 270.126945
-33.425768 -27.734750 284.869189
-10.981661 -52.055869 285.854645
0.939663 -47.453237 279.717593
28.167709 -14.727596 264.485802
14.193847 3.048274 267.034580
-10.621952 6.326319 272.140837
-25.157243 -35.211252 279.222134
-15.113351 -19.863739 279.631723
-17.855958 1.110084 274.342744
31.046599 -33.098663 272.770956
-30.758309 -20.526951 277.376837
39.219560 -11.084740 266.349838
-8.128370 4.717232 266.869315
-32.832933 -36.121053 286.685801
44.628046 -24.491470 268.626139
-18.574194 -42.677805 284.913758
5.141549 4.041863 269.155552
-22.916775 -50.880084 284.978616
-25.557145 -33.692441 283.562691
12.186078 -9.443682 268.628336
