43.390890 48.647738 5.236145
48.379207 48.039043 11.839359
86.026947 57.074150 13.501395
88.955070 58.687267 9.980884
40.714864 44.746129 8.613912
60.095112 7.119033 6.607283
68.974737 58.019217 8.448748
79.172462 59.341037 10.155310
94.204672 56.304860 6.134449
76.834552 10.192438 18.475123
65.269203 30.877760 23.448980
79.897830 50.565550 19.138190
28.381110 39.075750 4.511832
58.289390 53.834733 10.272408
105.586050 49.267475 12.069323
106.654300 45.177883 16.981505
103.085186 11.080386 11.953550
116.156615 23.367154 10.606335
6.981880 26.935489 4.400958
100.441090 11.046229 13.580479
58.197920 19.129400 19.299134
84.121941 5.360300 12.205556
77.891796 20.440367 23.035476
64.599526 5.791443 4.803242
73.551607 55.315325 14.892883
93.033640 9.449658 15.219373
90.843887 53.829186 14.921154
96.028819 32.667614 22.577964
107.992517 11.639533 6.917964
70.706864 14.086911 20.001300
17.766222 24.557418 4.875896
49.152439 12.413830 9.030679
33.489378 36.366433 6.728483
51.358170 59.391533 4.911364
22.588675 32.342980 4.921653
93.758659 26.300957 22.779446
71.727394 30.927263 24.191879
55.781795 28.285830 20.964363
32.890068 33.134483 6.515728
106.276875 51.753900 7.535998
61.611226 56.149678 7.269084
41.531805 41.725400 12.957677
65.908759 52.098100 16.326184
74.036923 6.807229 14.725983
29.978322 34.139992 4.999747
85.664198 45.541300 21.229188
109.081920 49.767420 6.368543
90.407876 25.767175 23.318358
113.767586 17.672829 9.502642
44.460574 47.878150 7.598635
65.600835 9.411750 15.725005
39.155284 21.878140 11.650700
55.867290 42.933111 19.179612
106.951410 15.734080 13.847022
77.376360 6.319589 14.364644
86.590577 10.850800 18.145276
37.363755 38.362887 11.779166
98.420750 42.867540 19.912932
71.541100 18.852513 22.101914
90.746022 11.896544 17.896292
45.698412 38.086640 16.637890
78.510515 3.684000 6.572718
48.722980 20.873843 16.315164
42.179084 39.927160 14.414402
52.495924 26.823700 19.562546
116.175540 40.118960 5.158915
80.897760 17.471140 22.139921
53.150151 40.703778 19.001542
94.840626 55.061086 9.836943
70.092514 4.891186 8.906988
67.533677 38.121333 23.018222
78.588468 3.630650 4.333829
82.634302 60.415517 8.119816
100.423440 18.072133 18.312533
69.493208 4.694617 5.176322
39.029208 50.424940 4.720371
26.499746 28.077329 4.958542
58.691007 55.931800 5.819389
109.729550 28.856400 17.133367
64.167148 39.681520 22.180216
102.577467 48.622367 14.726060
103.087157 21.359243 18.661900
68.993320 53.732357 15.561547
43.532190 42.201820 14.044392
70.599734 25.522300 23.636823
8.257673 36.059629 4.411843
66.241189 27.332044 23.352539
10.242627 19.744044 4.769558
52.173744 29.456362 19.809352
66.704583 58.002733 6.192560
65.135115 6.467900 10.801274
104.722500 9.758200 7.660497
98.497087 44.871400 19.036953
90.396275 29.213450 23.693120
49.841255 57.121664 5.097243
97.598740 36.685225 21.741215
85.871879 15.151755 20.824443
70.715726 7.702920 15.350694
64.051768 63.809367 5.370800
29.590767 26.021900 4.967423
40.363474 47.936714 4.846701
98.348374 7.519188 9.873247
33.317436 26.732562 7.356724
45.832129 54.704542 4.959449
69.166003 7.118025 14.100857
33.952246 24.114277 7.419161
98.369006 31.382275 22.037595
11.302870 29.962314 4.819251
71.774903 45.032367 21.573597
12.400936 22.513829 4.836799
93.548615 5.133213 5.630062
105.256567 47.454033 14.702407
116.858217 38.426167 11.072762
52.165953 11.460322 10.564778
32.288262 30.335580 5.724975
74.735258 50.078050 19.395407
94.530867 37.362788 22.352929
41.402205 27.935767 14.779280
58.072449 31.700138 21.856095
60.103859 9.150860 12.859300
101.631067 28.199567 20.831110
46.557510 13.821217 8.916119
67.161566 5.317189 7.941992
115.022677 26.378477 12.660706
66.901212 41.836112 22.061063
112.297387 18.635300 11.996888
69.422232 11.168100 18.149577
72.021020 58.578814 8.890143
97.483851 8.652185 12.497674
34.500156 38.190380 8.090562
67.021486 6.770421 12.655692
88.481260 58.192250 11.184852
46.054693 44.553729 13.837798
8.064554 28.967100 4.733821
68.531910 58.490133 6.193306
39.332584 37.243944 13.590978
19.979791 34.978800 4.883331
46.974546 19.026529 14.585601
66.204179 16.507014 20.252260
75.587059 25.418300 23.972730
115.367225 20.012450 9.887196
19.543313 20.703400 4.409642
90.935056 37.634690 23.007283
45.383540 50.045383 5.320613
47.004322 12.836120 6.266222
73.293951 64.257490 5.489293
83.253415 42.173200 22.601958
35.492047 35.699383 10.982065
80.340585 44.709967 21.893222
72.188764 38.564060 23.425416
37.413108 19.116383 7.115481
15.598582 40.443217 4.614424
103.406900 51.084967 11.289500
77.203874 55.807650 14.948094
38.592032 17.847410 4.341626
64.352616 60.743362 5.454351
104.598467 40.075983 19.121785
63.177127 36.254100 22.664743
32.138258 27.200817 5.202167
54.943649 11.379689 12.646730
110.954840 40.855180 15.156786
82.951004 38.251190 23.658391
58.374509 35.004812 21.704870
80.938170 6.299030 14.274619
110.734875 38.553325 16.275775
116.078650 34.205400 12.164410
40.095618 39.641700 13.230844
93.021957 55.023612 12.164957
88.849575 51.748137 17.404919
69.548007 55.882286 13.018869
67.215740 12.781020 18.636644
107.176440 36.391760 18.347664
115.892450 34.717150 13.649528
75.220690 3.846767 6.259380
105.529400 52.607433 5.260223
104.772350 45.617225 16.791225
100.178471 13.356475 15.592980
29.788334 29.690543 4.997945
102.637900 52.349060 9.540029
108.006927 19.659845 15.637222
102.121325 50.866025 12.411325
91.057429 40.741050 22.287069
115.744773 31.053373 12.212161
27.472100 31.199100 4.975745
61.427156 42.727986 20.789639
109.198444 15.358211 11.846743
41.717637 15.719800 3.511074
78.956341 8.315628 16.878659
53.331422 15.078244 15.313991
86.986676 5.700687 12.226085
74.136246 22.132643 23.292823
11.089428 32.754467 4.812193
44.546172 14.601940 7.761670
52.482081 12.930589 12.965082
49.821046 15.098900 13.431281
59.514802 54.912683 8.848191
47.123748 50.669150 5.820346
113.469629 39.319314 15.992586
105.092900 51.637750 9.161756
78.930934 27.427855 24.305320
90.682875 4.647126 7.199628
58.408992 25.475954 21.308455
100.586636 15.589180 16.898928
71.230272 11.066225 18.436210
69.605712 47.740867 20.178338
91.746650 21.575642 22.237282
65.373390 48.567720 18.954155
50.675173 19.762300 16.710982
52.902579 54.700150 5.232460
73.895737 57.959289 11.212356
54.528384 45.560420 17.438524
58.140107 10.804433 13.946792
66.929770 5.236300 4.512485
50.692483 46.908986 14.675196
104.648900 12.783163 12.766573
112.269813 14.909113 6.957784
60.404094 13.074150 16.895446
44.048478 22.643678 14.799511
99.743982 51.574980 12.770608
106.858714 12.623671 10.812492
57.486859 50.678237 14.508323
54.973435 17.453267 17.405670
104.124200 10.236534 9.758317
84.107615 3.654925 4.596777
73.784939 12.540133 19.668437
59.125340 62.013350 5.242149
99.503115 21.811220 20.165121
70.542567 51.298100 18.076952
98.042044 39.498860 21.038194
100.852267 44.120233 18.562187
91.401200 58.366780 6.447688
118.167331 24.088854 7.942875
14.222785 19.258692 4.436616
82.366914 53.163914 17.342410
105.444700 35.410667 19.408507
117.390725 28.113825 10.546014
35.437940 25.881818 10.338650
108.436483 37.265233 16.582062
92.242122 44.894683 20.686442
107.128075 38.606325 18.192303
78.829537 60.190417 7.547320
88.217538 17.997108 21.725630
118.084390 22.241580 5.949748
56.430788 45.820200 18.001073
46.800375 12.800100 4.180922
100.306612 34.185167 21.318491
105.769325 10.056100 5.170841
57.472483 8.049934 6.556853
39.682853 24.086243 12.983600
49.893165 13.289000 11.517395
46.916006 16.102729 12.469913
57.431230 61.874125 5.105167
91.481987 58.039933 7.945516
46.732005 23.416910 16.311796
23.189974 35.532943 4.910535
85.419468 59.464975 10.260943
110.416733 26.727367 16.467877
64.371847 56.191100 9.791340
110.853337 47.499738 7.805692
56.031066 13.755688 15.589111
65.622687 34.749900 23.280117
40.631236 51.600386 4.735739
111.296120 24.325740 15.407258
59.174269 11.887814 15.517306
75.544587 41.837556 22.818727
49.809016 27.027743 18.549553
17.207688 20.140583 4.572459
37.318392 41.023100 9.745052
41.487188 22.290860 13.344818
109.918750 43.163875 12.863430
102.277450 9.058417 9.352610
76.371465 51.605700 18.477810
78.878890 39.762110 23.429961
78.770426 47.170200 20.963042
116.065733 39.253317 7.660916
101.236675 53.558125 5.167898
84.417612 48.133040 20.198470
108.590000 44.251633 16.301330
81.306880 35.452000 24.199387
114.582367 42.573256 6.304430
100.386704 8.925257 10.925299
105.517567 50.480583 10.538910
92.622093 29.380133 23.315877
109.432314 23.896571 16.418143
109.195100 27.061700 17.256163
109.199580 39.596440 15.344156
108.488243 48.100143 12.247404
37.888921 30.853125 13.116199
102.806250 30.946220 20.604164
86.759588 59.723450 9.182373
49.448002 42.537785 16.879519
63.170921 14.131789 18.373917
59.574211 45.017277 19.402954
7.240057 23.818486 4.004687
96.362455 5.865000 5.484371
64.333557 57.489250 6.102620
49.195880 38.827253 17.971393
87.532498 7.838344 15.148128
58.989904 52.890133 12.372818
97.576130 10.118567 14.176500
98.375145 54.124713 5.459134
72.508529 56.425100 13.243610
32.572914 37.012600 4.956400
105.461167 27.991167 19.241507
95.086132 53.423067 12.878601
66.858860 59.045350 5.483068
78.402038 52.564975 17.850832
60.096752 38.526891 21.587450
81.869660 8.036380 16.411427
55.603804 20.753012 19.039441
37.126571 22.020900 10.112566
100.114450 50.189640 14.377018
110.039420 13.039420 6.696375
16.680284 37.280578 4.829128
71.090326 53.087957 16.670899
81.844433 30.764250 24.468382
112.008313 15.953125 9.588030
88.282462 54.615583 15.227052
61.694150 31.663100 22.773228
65.555924 57.303120 7.746939
107.570775 25.436450 17.794673
62.624706 47.174675 19.134855
6.410004 15.964917 4.058628
41.607235 15.990700 6.202346
96.545221 46.769271 18.663183
72.716901 60.116878 6.101971
61.384710 52.177022 14.525729
35.836007 46.714858 4.503894
77.793635 50.112383 19.453330
96.456498 27.406000 22.289381
51.464472 16.976740 15.648114
79.200016 63.829040 5.486410
89.846214 58.775960 8.693267
13.456048 40.222200 4.741116
107.474080 46.887380 15.105106
82.518459 13.625067 20.382897
84.461690 8.392320 16.437700
42.845531 19.744678 12.744798
76.010497 45.183329 21.760044
76.105453 3.768000 4.544452
66.048812 45.182300 20.805107
14.242269 29.682250 4.845577
117.973578 32.978822 8.850322
53.605299 52.386330 9.047948
24.265261 20.924571 4.330533
111.729525 29.043300 15.709308
64.381614 20.597760 21.457344
15.301245 23.085033 4.856566
31.653962 39.749860 4.295871
86.782110 39.310138 23.153836
37.475806 48.750240 4.791639
102.440517 37.185933 20.181693
66.427372 63.766883 5.546277
36.393804 28.113957 11.765451
105.725575 48.229800 13.486130
87.149157 21.703217 22.981719
18.913616 39.740422 4.569949
93.445900 11.742975 17.000635
83.910872 56.658333 14.263672
53.861146 23.928073 19.410275
96.143815 22.955838 21.539319
81.715728 51.185225 18.703150
88.670267 33.393471 23.863134
75.128866 29.888100 24.369787
74.366084 34.183450 24.216891
29.965991 37.791229 4.887238
76.625059 15.635244 21.374103
63.837455 42.793575 21.286090
50.349824 23.659256 17.963812
80.766036 3.581680 5.058193
79.702634 54.638013 16.264339
38.906798 41.278150 11.083135
58.951637 28.521487 21.973274
26.403542 25.650300 4.939177
49.484081 34.964543 18.673337
87.873041 30.282456 24.039812
48.421417 45.822386 14.305097
70.243444 22.001629 22.885820
78.589902 32.863945 24.450586
108.730945 32.302182 17.671735
18.064529 29.902279 4.886180
109.135413 13.490813 9.576172
87.165513 49.892500 18.969745
104.198957 14.542614 14.543920
114.312944 21.389389 11.970439
90.260927 4.413283 4.908859
56.177654 52.708300 10.781894
62.450026 10.505400 15.625005
55.657900 56.160300 5.245583
62.000031 28.738250 22.734669
55.722340 35.500000 20.863587
99.875083 46.255800 17.775447
83.649918 3.759750 6.704099
61.650069 18.876750 20.179453
99.550948 7.124943 6.562950
86.243462 55.213717 15.240888
82.825755 25.007169 23.914448
90.581416 58.929780 4.754053
47.803946 30.066643 18.052571
62.917063 8.895525 14.072072
101.964900 51.876300 10.982480
34.523608 39.372320 4.815177
24.287969 23.644933 4.895365
7.207870 33.227850 4.338672
107.650080 50.560600 7.796546
73.752821 9.393656 17.618230
63.976655 6.060488 7.797439
25.818956 36.038457 4.929972
67.132165 61.035400 5.509753
37.351946 34.466340 12.729141
93.430976 47.514187 19.127717
41.820829 25.596575 14.562145
89.499888 5.304928 10.567888
77.467060 3.964860 8.377103
103.559300 53.164375 5.333394
95.527864 5.945013 7.925367
10.263402 17.459600 4.205106
62.307025 7.723638 11.767934
48.983168 51.732530 5.887396
101.800320 42.465260 19.007650
84.499292 58.460283 12.053122
99.632230 37.633933 20.994007
34.654837 39.280200 6.817801
111.919200 31.740000 15.440926
100.108604 30.032443 21.503519
68.112583 8.257367 15.307150
113.225200 42.185013 12.318076
62.605462 54.673950 11.586971
4.234422 16.600960 4.144206
53.854576 57.824200 5.239172
111.204062 45.105737 9.918728
14.385590 35.019617 4.840773
35.710197 40.991817 3.556013
107.594000 51.382760 5.290468
114.038762 36.210350 15.954364
92.268920 56.800357 9.871824
81.486004 58.355038 12.241646
81.048312 5.078700 11.998542
19.713545 27.608660 4.900391
114.328862 16.692100 6.387095
103.283720 18.824620 17.534274
111.508571 36.741071 16.451851
91.617174 33.326320 23.417992
10.612857 37.823550 4.770517
90.093430 7.254938 13.741352
87.632404 3.981361 4.948541
87.292889 36.018900 23.734280
43.167006 33.966588 15.927104
100.302567 52.879067 9.908641
39.416999 17.862813 7.719808
95.867170 55.196657 5.226834
116.707086 34.715929 10.637756
22.156445 38.450709 4.730697
60.966705 49.937127 16.683895
47.211808 56.846160 4.852408
107.380800 11.012525 5.284772
106.912780 42.628720 18.076482
108.552633 41.938083 15.182898
50.598336 50.763690 9.312141
114.831550 34.325625 14.421810
84.872334 6.806880 14.460806
84.160424 61.095729 4.990199
97.649215 15.110783 17.747187
10.542383 26.995800 4.814555
116.485783 18.879733 5.409989
76.134586 37.552600 23.850939
82.786820 59.695780 10.014605
105.587086 20.799514 17.367653
58.716508 22.417875 20.607147
46.909043 27.529386 17.353557
34.290537 33.747522 9.822676
70.646231 41.653122 22.531498
57.280316 58.583787 5.305990
71.481419 6.456729 13.701623
13.284535 36.730200 4.818782
59.484711 7.288486 4.137278
55.531765 8.732720 5.211951
75.799009 59.225850 9.137485
69.197189 5.693390 11.197284
113.308250 29.420100 14.539780
86.196223 4.597200 9.850160
52.976099 10.216139 8.170726
98.944773 26.042214 21.375776
96.317143 12.666450 16.681888
95.978784 10.592240 15.208422
55.342890 32.451113 20.995349
64.431294 8.081860 13.639682
86.099556 3.908421 6.536184
77.504718 5.150533 12.162413
112.982511 44.820578 6.611822
52.912876 9.811613 4.402977
84.743323 32.737678 24.292179
76.632737 7.966500 16.462107
95.631696 49.333886 17.163116
72.083623 50.532400 18.845414
103.664120 47.405940 15.279912
83.037296 55.431080 15.502484
42.764943 36.771214 15.488551
113.206367 33.385400 14.835732
71.479130 33.916433 24.058647
93.947962 41.269433 21.610832
92.091055 17.189800 20.574682
9.441904 23.533156 4.784432
93.775433 14.507686 18.685531
43.827607 30.263660 16.222579
68.530753 30.207822 23.882170
97.420670 50.811000 14.981062
54.412410 59.921840 5.211943
96.198845 40.683275 21.228635
7.046561 43.330367 4.307613
75.790986 53.809162 16.699596
54.888657 38.304871 20.155239
107.449250 27.396750 18.235283
43.784419 46.207850 10.013194
43.379957 16.978467 10.718295
116.962729 36.581057 8.881378
40.327308 45.710018 5.826069
35.127844 37.547400 9.697246
115.684213 40.448062 13.381222
62.870352 24.789192 22.286887
119.006985 31.630454 6.353862
88.188706 44.257570 21.526040
55.140197 61.289350 4.819707
92.072584 50.834190 17.152366
5.947969 29.783400 4.231741
69.668453 59.868700 5.607924
111.004533 47.865633 5.310657
85.300802 60.668740 6.915922
49.697884 31.446300 18.920474
104.542133 24.803867 19.049086
67.597615 10.503175 17.259232
38.371101 26.692657 12.873791
83.491835 19.792727 22.783010
55.344992 53.783456 7.309420
78.646690 4.629675 10.908015
92.966122 57.188450 6.758755
21.711597 21.092083 4.532487
58.569068 15.573400 17.762064
69.140938 9.323960 16.682476
39.962901 33.777986 14.347409
80.960713 3.734724 7.069405
42.787410 15.617475 7.546641
76.315303 63.959361 5.598543
8.788275 40.142975 4.565402
52.775947 32.468417 20.113793
103.739011 16.731856 16.215672
70.492783 57.443537 10.800890
104.357700 52.523000 7.738289
72.910217 4.144933 4.078612
95.599810 6.687314 10.301162
94.518808 51.929183 15.129273
112.574183 26.505717 14.871630
26.244650 33.435850 4.953741
26.418789 38.241414 4.793158
109.579367 18.101367 13.760975
109.517550 45.719937 14.072926
115.902540 40.377100 10.787906
52.133708 35.866030 19.601275
21.746470 25.562020 4.917264
54.455581 49.014571 14.718247
71.679009 4.508386 8.129817
80.656480 56.475343 14.546673
69.526356 64.696211 5.468708
49.820101 11.296433 4.916287
102.477975 53.220250 6.802888
62.489304 6.343558 5.836708
66.506496 54.396280 13.904782
6.599034 18.871017 4.421939
107.581633 40.293417 17.324032
116.866300 36.299900 13.049033
40.289312 18.726550 10.143219
53.263510 47.254014 15.752103
8.641847 30.895667 4.767002
15.712066 33.191214 4.855059
84.751788 51.172580 18.493602
90.011211 55.713457 13.455730
67.063386 56.363438 11.124185
74.039398 5.091755 11.454318
36.062716 19.797729 4.618628
52.909924 20.059914 17.751534
104.191743 42.831900 18.447197
75.782365 3.911100 7.507543
112.303438 42.772225 9.923353
92.384640 6.882801 12.411791
116.130375 19.093287 7.399688
103.469260 49.568180 13.186370
28.495697 22.094750 4.733123
106.064250 11.026700 9.023648
35.506940 31.250371 11.345701
101.936437 24.882275 20.127199
44.074380 14.322525 4.379713
98.479933 11.902100 15.268160
113.176417 23.647117 13.843252
70.462384 36.021240 23.708802
67.810926 19.181812 21.633264
58.631115 8.304383 9.890879
68.618685 33.554675 23.800155
63.549881 51.959812 15.647131
23.792940 29.632678 4.938661
64.897145 11.357217 17.149272
95.682556 43.718857 20.384850
88.771394 13.557617 19.471430
27.411008 21.069613 3.918141
98.268053 52.536225 12.092485
31.274069 23.183309 4.910705
33.973230 28.312271 9.114134
98.366970 48.212650 17.015638
80.914980 61.691300 6.019721
76.430040 48.911175 20.117605
57.776397 48.043967 17.048853
40.814740 43.334383 10.792957
71.084610 9.115733 16.951987
97.739990 18.016880 19.256304
52.282148 44.180725 17.294328
72.540047 4.158467 5.755703
85.565270 53.151060 17.025178
40.422177 30.491883 14.528295
36.252161 41.329300 7.494029
38.326604 43.261571 7.708448
11.096831 41.574989 4.668331
110.437960 46.609560 11.370328
73.327271 47.799325 20.536864
110.575214 34.656957 16.177867
51.203417 52.847573 5.855887
94.604594 7.452360 12.351536
110.854067 30.144900 16.413547
66.555020 8.031950 14.487630
119.175367 27.545700 6.786119
86.485404 26.765375 23.926755
108.392657 49.069271 9.605395
45.067333 19.187450 13.647525
107.436543 23.020300 17.231884
77.786415 12.336400 19.827796
75.737881 60.634443 6.105944
96.365128 54.659100 8.169688
97.764036 53.713400 9.718391
111.618233 21.622522 14.273389
62.056423 58.581978 5.401014
102.587892 8.402850 6.125264
106.623420 33.929980 18.942252
33.937110 30.481900 9.349289
61.922992 7.013075 9.521704
10.282665 35.354343 4.794732
117.815733 36.214833 6.065679
56.238844 9.685690 10.863594
90.396230 57.004420 11.605374
108.069580 29.796020 18.131840
70.488501 62.119975 5.590254
114.560211 41.188922 8.686710
73.882753 52.042925 17.943445
46.941465 35.859067 17.498678
44.284211 26.747263 16.000984
110.842640 13.466660 5.127871
43.476377 44.035400 12.502577
51.775446 49.934014 11.889723
112.553367 41.451200 14.793713
74.133231 17.288256 21.851766
47.363046 48.942700 9.278125
61.764177 34.394183 22.614890
77.172665 57.703675 12.568722
81.460250 47.813760 20.551442
54.900358 51.181750 12.314384
67.853944 50.400588 18.258353
100.907625 40.185400 19.993435
94.485525 30.922525 22.970717
37.173069 43.512856 4.571134
13.907534 26.076809 4.847348
116.041450 38.049363 14.665470
89.968886 48.069417 19.554744
61.280404 63.049414 5.299812
80.874969 10.377678 18.539648
66.458614 23.486100 22.682317
58.758053 17.216850 18.653980
46.361443 32.123650 17.470015
57.613337 40.725520 20.420127
79.687895 14.270450 20.824072
88.166123 60.054090 6.112208
33.358460 21.169636 4.740272
90.193292 9.330911 15.974803
83.403402 4.262350 9.338005
79.529378 4.095225 9.128624
74.140437 4.225450 8.453092
87.609658 57.394020 12.685954
94.950816 8.426700 13.468308
35.596427 21.089150 7.589704
104.873617 37.745117 19.387918
100.494122 48.497740 15.864740
102.630040 45.091220 17.508974
44.991339 40.485690 15.672308
81.558677 4.295000 9.765944
83.896374 11.196150 18.824589
100.190102 53.499820 7.721820
45.799024 15.310243 10.744095
43.210467 53.023337 4.952965
105.071312 32.581700 19.693497
95.335113 19.215878 20.579049
102.063550 46.630150 16.603210
92.654385 5.613262 9.628258
49.055796 17.506520 14.771282
60.078785 59.435500 5.363454
