-97.411831 256.339793 -90.020938
-115.063280 259.678372 -65.053021
-75.427845 259.097522 -42.695907
-87.695592 253.961348 -87.158947
-61.483145 259.752916 -93.041434
-109.372050 256.294691 -72.029885
-66.173303 259.682028 -30.377299
-68.549632 261.921446 -85.192915
-103.782601 257.445777 -60.592158
-74.977584 259.871717 -107.217208
-88.420325 260.227392 -51.604969
-101.221687 259.733280 -37.790907
-73.694429 256.309645 -33.155359
-90.092209 256.745743 -102.231212
-80.973631 257.406935 -30.195306
-96.449956 260.032356 -65.476000
-84.728258 258.388653 -105.996958
-56.644261 255.503887 -61.323598
-71.742641 253.922053 -47.073808
-41.045185 259.630769 -50.107175
-47.173409 256.018626 -51.974884
-65.913721 256.343853 -39.006058
-109.204394 257.151020 -48.956345
-79.695209 254.255910 -43.142056
-111.308129 258.464876 -84.244819
-47.802508 256.606892 -82.948706
-59.985795 255.769260 -88.737524
-100.579435 258.956688 -75.869154
-66.159836 254.888331 -53.126948
-57.714310 259.813117 -67.777986
-41.641153 257.061295 -78.727089
-114.752819 259.541042 -75.375470
-89.917809 256.240295 -41.945071
-90.942755 254.716740 -78.471490
-98.292192 259.233895 -54.029948
-44.735457 259.683454 -91.452031
-92.065774 261.499165 -59.240814
-61.954967 261.886987 -56.342397
-94.106371 255.735409 -96.311693
-107.025368 256.631160 -66.316504
-87.034488 259.271428 -91.168870
-82.419115 254.538567 -51.364382
-94.354240 261.132661 -71.433691
-93.357001 254.648666 -63.037603
-96.206650 256.362059 -43.154622
-61.774014 257.711549 -80.564919
-80.470549 261.060008 -50.279952
-99.287708 254.179613 -81.112773
-53.754866 257.805115 -99.849814
-81.281222 256.547287 -94.464247
-68.787301 256.606775 -99.620847
-98.168469 254.114091 -71.267188
-37.785416 257.393054 -71.292631
-76.947018 256.287514 -86.867323
-47.304164 256.792946 -60.552023
-91.584986 259.577886 -32.735733
-98.786525 259.674419 -100.046453
-49.183699 256.812195 -68.616066
-75.288196 256.982417 -97.667197
-110.873994 255.185261 -79.307391
-64.249017 259.931136 -105.724674
-112.902237 259.719789 -55.995713
-81.516619 261.990708 -85.615453
-103.624113 256.590626 -45.402216
-99.664224 254.476689 -57.084364
-53.749216 257.113524 -86.938121
-55.892134 259.533226 -35.026492
-69.227863 255.806662 -89.811326
-48.795795 257.047272 -41.963502
-61.679895 255.813354 -100.360076
-54.700722 256.354820 -76.018265
-106.330145 259.548227 -92.631118
-69.164807 260.751763 -49.598439
-37.804564 259.649435 -61.093048
-60.305171 256.752114 -45.376909
-91.688839 254.065274 -52.512976
-56.720124 256.472066 -52.785892
-84.084561 257.864507 -41.555142
-99.773626 258.633003 -84.034104
-90.683505 260.390973 -81.048052
