-33.937875 -253.097974 77.703167
-29.713445 -253.067587 75.701031
26.511420 -252.502729 84.680310
26.450463 -252.517409 84.069828
25.944258 -252.522868 84.821447
25.874214 -252.507375 84.226532
25.364675 -252.718808 84.268909
25.503677 -252.554295 83.373681
27.087916 -252.843639 83.725884
27.077431 -252.965006 83.073269
26.623987 -252.467507 83.115434
26.950748 -253.081009 82.342437
26.808079 -252.562044 82.135408
26.758395 -252.703824 81.499436
25.675789 -252.499706 82.421708
26.602260 -253.045901 80.307795
25.147622 -252.649306 82.496013
25.070971 -252.611862 81.912418
26.341972 -252.833500 79.309002
25.474349 -252.482045 80.622052
24.995203 -252.577369 81.327314
24.924713 -252.560371 80.733155
24.859016 -252.559302 80.130787
24.790901 -252.550195 79.532560
24.431123 -253.208175 79.355250
24.727489 -252.773772 78.211323
24.333768 -253.325525 78.644158
26.413055 -253.334813 78.993767
25.887101 -252.827238 78.585095
25.805687 -253.001722 77.994004
25.236329 -252.891046 77.447345
24.667787 -252.792603 77.598680
16.632295 -252.549172 86.752480
16.591057 -252.682210 86.104552
16.458572 -252.909418 85.585729
16.006056 -252.531921 85.583864
16.075988 -252.606116 84.774844
24.180152 -253.562183 77.249652
24.474523 -253.073781 76.466379
24.271518 -253.083850 76.724625
24.101533 -253.143068 76.391765
24.324924 -253.318589 75.971749
24.112943 -254.220337 76.722302
24.079617 -253.679394 76.536421
24.497721 -254.014952 75.667210
24.674303 -254.711753 75.356996
24.115705 -253.298913 75.820354
24.088340 -254.880495 76.223642
23.961044 -254.469076 74.784198
23.975279 -254.569090 74.672703
23.963986 -254.806732 74.539700
14.699088 -252.624994 86.819012
14.352937 -252.752883 85.924371
14.271109 -252.698246 85.349644
15.938933 -252.837967 84.262463
15.302782 -252.534243 84.528347
15.760478 -253.112560 83.808665
15.510436 -252.582035 83.516536
15.528327 -253.442516 83.430824
15.393034 -252.793655 82.976366
14.187355 -252.637224 84.778218
14.851236 -252.529233 83.099357
15.194927 -253.088480 82.550356
14.894052 -252.610396 82.330146
13.860381 -253.014045 84.272371
14.280170 -252.536397 83.247180
14.756672 -252.842594 81.818229
13.729397 -252.610939 83.360227
13.597165 -253.159543 83.518981
14.286161 -252.539456 81.837997
13.650902 -252.567396 82.779799
14.290387 -252.625613 81.125752
13.570561 -252.517697 82.202524
13.759212 -252.518014 81.222204
14.158040 -252.852682 80.606737
8.228762 -252.556828 88.035285
8.163843 -252.714329 87.420872
8.021665 -252.951514 86.915755
7.613916 -252.674137 86.140460
6.300071 -252.660807 88.093185
7.443022 -252.940941 85.675969
13.101320 -253.063571 82.162060
13.690572 -252.507176 80.624880
13.190739 -252.533794 81.365583
12.929340 -253.331478 81.699100
13.115373 -252.500607 80.779780
13.050800 -252.503283 80.175495
12.613406 -252.737198 80.809187
12.509252 -252.608438 80.272722
12.430666 -252.564576 79.692445
11.985075 -253.000109 79.624431
11.836299 -252.711418 79.165239
13.663483 -252.664831 79.954247
13.492782 -252.931426 79.489479
13.121641 -252.525809 79.368673
13.301859 -253.218853 79.053312
13.059351 -252.680561 78.750525
12.890077 -252.945679 78.283738
12.348770 -252.509719 79.117839
12.531304 -252.527291 78.145428
12.624823 -253.309771 77.952726
12.424493 -252.727985 77.590273
11.967098 -252.519684 78.284072
11.891506 -252.485742 77.698653
11.442070 -252.679703 78.353000
11.896908 -252.574229 76.984520
11.334305 -252.538942 77.822717
7.069979 -252.537256 85.557842
5.899714 -252.608729 87.291440
6.983816 -252.716651 84.973477
5.810142 -252.528385 86.729985
5.344480 -252.885527 86.697181
5.193092 -252.599917 86.241652
5.113774 -252.553636 85.662633
4.837161 -253.004856 86.042545
4.188038 -252.660421 84.930419
4.088536 -252.547095 84.385976
3.845203 -253.071662 84.711427
4.020511 -252.538279 83.787591
6.458989 -252.560063 84.363824
6.357891 -252.754854 83.800583
5.819057 -252.612719 83.210751
5.632310 -252.895835 82.768673
5.098202 -252.527061 82.887431
5.339090 -253.288816 82.477241
5.103007 -252.743855 82.165351
11.722511 -252.844597 76.524966
11.250233 -252.476872 77.251842
10.902031 -253.006940 77.732695
11.319523 -252.471827 76.449214
11.496613 -253.168126 76.138289
10.738048 -252.679538 77.298762
11.243349 -252.640892 75.850705
10.630034 -252.537949 76.768904
10.419694 -253.050920 77.046130
10.550670 -252.491494 76.189955
10.993780 -252.988857 75.497523
10.169070 -253.399939 76.694427
10.692195 -252.511484 75.278309
10.027899 -252.659011 76.255017
10.151146 -252.442189 75.386786
9.923239 -253.744000 76.335937
10.493431 -252.807002 74.853235
10.151859 -255.615050 76.567782
9.684718 -253.201608 76.027516
9.915304 -255.070601 76.256570
9.600128 -252.515906 75.500248
10.233834 -253.165262 74.514222
9.435652 -253.549012 75.673606
9.664205 -255.420103 75.905534
9.192558 -253.011319 75.371647
9.184602 -253.898442 75.322495
9.405754 -255.777217 75.564913
8.989452 -252.608627 75.001004
8.921163 -254.260695 74.988928
3.462764 -252.589674 83.912594
3.380246 -252.532761 83.339055
3.035166 -253.299720 83.798987
3.313975 -252.529755 82.737655
2.750276 -252.561392 82.872861
2.121240 -252.593125 82.405066
1.657705 -252.975679 82.367363
1.489047 -252.614396 81.942689
4.836770 -253.108988 81.835740
4.513431 -252.654041 81.647298
3.882661 -252.606705 81.187517
3.739058 -252.845338 80.684410
2.680740 -252.547565 82.277068
3.267393 -252.543400 80.705815
3.450409 -253.233591 80.386507
3.165817 -252.738674 80.143246
2.042437 -252.548541 81.825160
2.629660 -252.503231 80.255880
2.867656 -253.136748 79.858804
2.540944 -252.685253 79.675124
1.388851 -252.498792 81.399444
1.323360 -252.498405 80.796730
9.142616 -256.139145 75.230915
8.403893 -252.784735 74.458711
8.649317 -254.631586 74.667242
8.120595 -253.160589 74.153694
8.380362 -254.999533 74.341482
8.105763 -255.373230 74.023678
7.589723 -253.889194 73.492203
7.824113 -255.754298 73.715885
7.303639 -253.395794 73.251045
7.540532 -256.137290 73.410800
7.022650 -253.776168 72.942313
7.250198 -256.527241 73.115268
6.739220 -254.158998 72.637010
6.969271 -256.907517 72.806435
6.666972 -257.309827 72.527834
13.220683 -259.094636 65.469385
12.653474 -259.114627 65.610607
12.715805 -259.240197 64.809334
12.011626 -259.103819 65.164770
11.367800 -259.086477 64.722335
0.172054 -253.202665 81.058587
-0.425481 -252.681582 80.581992
1.753200 -252.456445 79.461018
0.753831 -252.510657 80.941910
1.634999 -252.572799 78.928577
1.363399 -252.943436 78.606543
0.096623 -252.448870 80.522401
1.011483 -252.517971 78.458532
0.734121 -252.894584 78.144662
-0.565431 -252.370998 80.111204
0.356436 -252.495695 78.033104
-0.757874 -253.114942 80.345970
-1.043904 -252.685600 80.100355
0.095231 -252.855615 77.696366
-1.199263 -252.386799 79.651623
-0.300836 -252.475697 77.610819
-1.267108 -252.378621 79.052948
-1.675418 -252.709113 79.636806
-0.505273 -252.777071 77.193772
-1.834633 -252.397510 79.194689
11.241955 -259.364501 64.190131
10.706664 -259.128158 64.301537
9.965768 -259.194413 63.997557
9.299285 -259.183912 63.588301
8.636283 -259.124395 63.877282
8.541698 -259.267388 63.307935
8.069898 -259.147098 64.017082
8.516037 -259.915995 63.210520
8.192772 -259.717777 63.095294
-6.272248 -252.622194 86.471662
-6.358385 -252.553273 85.904328
-6.849616 -252.728270 86.622043
-6.909886 -252.625371 86.018614
-7.183354 -253.163011 86.387924
-6.834034 -253.691243 85.851880
-7.469913 -252.669198 86.147516
-7.407596 -253.484835 85.998903
-8.033705 -252.902696 86.268990
-7.924853 -252.435890 85.439318
-8.243761 -253.209852 85.859889
-8.485153 -252.478786 85.568682
-8.902154 -253.191007 85.439188
-9.148075 -252.398034 85.158964
-9.218618 -252.380882 84.564908
-5.532240 -252.585693 85.351210
-5.814825 -252.454762 85.803636
-5.902147 -252.986147 85.911218
-5.425148 -252.712500 84.777740
-5.684588 -253.118061 85.412109
-5.578362 -253.244872 84.838067
-5.879273 -253.648508 85.444514
-5.672160 -254.319351 85.101830
-5.754628 -252.568435 84.306321
-5.674518 -253.354727 84.133280
-5.655478 -254.442000 84.467506
-5.913932 -252.823246 83.825419
-6.314634 -252.448126 83.746436
-6.339962 -253.265580 83.727878
-6.939224 -252.336044 83.981957
-7.057942 -252.516843 83.445859
-7.505481 -253.068955 83.372731
-8.010929 -252.362370 83.472118
-8.717019 -252.360110 83.821169
-2.333134 -252.645630 79.218168
-2.481771 -252.369171 78.757934
-1.615512 -252.875287 76.736229
-2.977097 -252.627823 78.775960
-2.671310 -252.917380 76.201676
-4.375801 -253.007962 78.027543
-5.093522 -253.050316 77.690772
3.330344 -258.942202 67.571877
3.166310 -259.201902 67.097671
2.701813 -258.892535 67.108921
2.067393 -258.409511 66.684514
3.074975 -259.257826 66.529483
7.404411 -259.393519 62.888663
6.781442 -259.109715 63.133581
6.664004 -259.459268 62.583990
6.223566 -259.160681 63.258797
5.654315 -259.173866 63.403510
5.738072 -259.276879 62.571972
5.018144 -259.181911 62.947946
5.395372 -259.720863 62.350531
4.374940 -259.196453 62.502397
4.532991 -260.604289 62.170863
-17.423280 -252.147867 93.434036
-17.904711 -251.994630 93.737855
-18.389831 -252.389749 94.220301
-9.698870 -252.875371 85.244378
-10.353580 -252.419006 84.848260
-10.557162 -253.062679 85.106468
-10.901299 -252.503682 84.956070
-11.450319 -252.846502 85.048089
-11.138462 -252.367414 83.217636
-11.961419 -253.464166 85.064881
-12.142818 -252.405076 84.707078
-12.707999 -252.431778 84.844822
-11.724347 -252.612274 82.671099
-13.259275 -252.504660 84.958735
-12.299973 -252.417537 82.839570
-12.156177 -253.148180 82.575749
-8.732497 -252.408688 83.140793
-8.696218 -253.250196 83.029067
-9.357909 -252.352504 83.373701
-9.477488 -252.918633 82.812408
-9.912261 -252.578610 82.781609
-10.562029 -252.378060 83.060613
-10.781037 -252.776729 82.658528
-11.240513 -253.341176 82.602295
-8.041009 -253.298662 76.452052
-6.155930 -253.099177 77.165556
1.451871 -258.346486 66.203175
0.245446 -259.162260 67.939338
1.129130 -258.769860 65.953488
-0.414863 -259.090165 67.525139
0.466140 -258.755763 65.539294
-0.914638 -259.334039 67.550784
-0.223094 -258.768728 65.162221
-1.564200 -259.297631 67.118172
-1.727676 -258.653130 66.705276
-0.874575 -258.742761 64.731746
1.803818 -259.277851 65.616312
-0.468826 -259.153161 64.100764
0.742716 -259.362618 61.586510
0.240359 -259.195634 62.344277
3.804882 -259.177143 62.650534
4.308894 -260.588569 62.119604
4.107603 -260.468712 61.902603
3.895143 -260.363845 61.813711
3.845215 -260.342787 61.810485
3.263564 -259.295844 62.046462
2.482874 -259.403126 61.798771
1.647173 -259.567159 61.628910
-21.394319 -252.498461 94.244133
-21.995791 -252.404653 94.444052
-18.690813 -251.947954 93.772935
-18.621367 -252.494634 92.866743
-19.126018 -252.416784 93.680183
-18.641934 -252.497339 92.255481
-19.263278 -252.658220 92.467439
-19.731383 -252.527135 93.171838
-20.323848 -252.463243 93.356332
-20.865119 -252.692815 93.363084
-14.772879 -253.010428 85.190229
-15.070195 -252.418736 84.854709
-15.593456 -252.850607 85.283418
-16.213604 -252.428840 85.152553
-16.777576 -252.459548 85.288214
-16.863930 -252.389879 84.721237
-17.336538 -252.506908 85.415295
-13.799389 -252.614603 85.053511
-12.921743 -252.373270 83.066254
-13.029508 -252.911558 82.489322
-14.502591 -252.400100 84.712831
-13.535703 -252.645203 82.559566
-14.123369 -252.462863 82.745063
-13.988786 -253.203031 82.494280
-14.695418 -252.411032 82.898410
-14.644478 -252.964417 82.530994
-15.273708 -252.394220 83.058613
-16.423055 -252.384577 83.366624
-16.001515 -253.004164 82.697821
-17.002448 -252.364089 83.528717
-16.560523 -252.792275 82.842778
-10.824172 -255.484400 75.536145
-1.589472 -258.342683 64.421167
-2.543082 -259.227949 66.477034
-3.535229 -259.114217 65.858620
-2.576958 -258.753784 63.759772
-2.942577 -258.342447 63.631144
-4.191397 -259.055888 65.437331
-3.294941 -258.796416 63.423379
-4.818606 -259.093706 64.966417
-3.984577 -258.809822 63.046888
-5.678571 -259.201784 64.836431
0.345877 -259.862427 61.441655
-1.434824 -259.062151 64.141998
-0.240393 -259.239215 61.655390
-0.527636 -259.625987 61.355487
-2.097798 -259.048031 63.727779
-1.027311 -259.352930 61.416513
-1.308200 -260.112203 61.089337
-2.637117 -259.157912 63.121339
-1.377616 -260.122486 61.092267
-2.428641 -259.311895 61.400973
-2.759131 -259.186919 61.900535
-3.428577 -259.205822 61.493646
-20.194557 -252.533817 86.159021
-20.782373 -252.485359 86.335538
-21.365793 -252.451498 86.504533
-21.946947 -252.425169 86.669648
-22.259015 -253.063824 87.096898
-22.523263 -252.414915 86.826477
-22.846006 -252.914794 87.347318
-23.098682 -252.407599 86.981734
-18.468166 -252.556128 85.692944
-19.037364 -252.569493 85.837562
-19.583626 -253.135582 86.152141
-18.569052 -252.712979 83.280412
-19.290611 -252.379803 84.126688
-19.349223 -252.605287 83.498213
-20.430756 -252.400756 84.418936
-21.006056 -252.393834 84.573996
-21.573760 -252.412170 84.716067
-21.124689 -252.977387 84.064725
-17.122654 -252.583643 82.992167
-17.913050 -252.865160 83.076435
-12.126477 -257.099150 75.259732
-12.585062 -257.662674 75.202238
-13.439030 -257.406065 75.088414
-15.115366 -254.223417 74.997252
-15.138878 -254.868191 73.587791
-13.420431 -257.128441 73.679769
-13.903494 -257.717176 73.656889
-14.338531 -258.256403 73.566082
-4.711474 -258.861594 62.723087
-6.223247 -259.296584 64.939033
-6.046763 -258.571396 64.026643
-6.313581 -259.213714 64.378890
-5.408423 -258.882510 62.356929
-6.384940 -258.131753 63.859191
-6.723587 -258.571568 63.632019
-6.238057 -258.161353 62.238888
-6.966704 -259.165482 63.952378
-7.027732 -258.096847 63.416432
-7.382025 -258.552768 63.211382
-6.956849 -258.204785 61.903626
-7.335134 -257.806546 61.792930
-7.941675 -259.108781 63.304535
-8.013143 -258.066331 62.782298
-8.067579 -258.633000 62.824215
-7.704772 -258.278277 61.609583
-8.491030 -259.188042 63.415155
-8.587188 -259.085821 62.864977
-8.104426 -258.781018 61.468719
-3.755006 -259.633027 61.249186
-4.277013 -259.382966 61.341793
-6.110034 -259.438256 61.260914
-28.088400 -252.863156 90.359833
-28.573491 -252.718902 90.678867
-29.055935 -252.574684 90.999653
-29.507463 -252.971374 91.504725
-28.963123 -252.377666 90.095492
-24.742705 -252.441725 88.021622
-25.003374 -253.197637 88.399726
-25.324332 -252.413813 88.187542
-25.533053 -253.051272 88.688730
-26.048890 -252.905518 88.987042
-25.901535 -252.400608 88.345881
-26.581416 -252.759050 89.274142
-26.476972 -252.393275 88.501198
-27.108477 -252.612787 89.564900
-26.020261 -252.440537 87.119442
-26.541253 -252.396896 87.896401
-27.603146 -253.007488 90.040928
-27.049805 -252.394566 88.652042
-27.800757 -252.430505 89.765166
-27.112543 -252.403305 88.044604
-26.472306 -252.920896 87.006413
-27.621338 -252.400178 88.800671
-26.898982 -252.779277 87.364747
-28.380851 -252.407708 89.928463
-27.657448 -252.500491 88.145306
-28.189469 -252.417078 88.943457
-23.428470 -252.765988 87.600791
-24.040011 -252.615832 87.834686
-22.758091 -252.536249 84.901873
-23.809560 -252.384681 85.939256
-23.686197 -252.580245 85.327187
-24.366934 -252.437304 86.063618
-24.410141 -252.964314 85.648873
-24.949254 -252.486871 86.172579
-25.467825 -252.371513 87.003541
-25.695435 -252.869929 86.479304
-21.703818 -252.828741 84.320444
-22.145487 -252.417136 84.865019
-18.956364 -254.514401 75.082992
-19.448076 -254.233084 75.132734
-18.996318 -256.313478 75.018712
-19.667262 -255.203384 75.121404
-20.019129 -256.670482 75.113552
-16.493811 -254.158780 74.949337
-16.134415 -257.213358 74.905571
-16.548570 -255.973142 74.906006
-16.589454 -256.894271 74.903457
-17.046890 -256.577648 74.904729
-17.489851 -255.367115 74.945906
-17.550421 -257.187469 74.910800
-17.982479 -255.965743 74.936571
-17.615218 -258.133262 74.942076
-18.067347 -257.811151 74.935834
-18.528446 -257.498309 74.942292
-18.050199 -258.413971 73.468846
-19.152962 -258.167997 74.993755
-19.398165 -254.802140 73.619406
-12.712863 -259.144391 62.689554
-8.760718 -258.746061 62.446087
-9.137365 -259.162346 62.977004
-8.629962 -259.389262 61.458856
-9.240032 -259.038522 62.437997
-9.259382 -259.279171 61.712483
-9.886131 -259.027319 61.998509
-10.349090 -259.162664 62.676957
-10.422847 -259.134841 62.088407
-10.141993 -259.486702 61.646998
-10.987383 -259.163674 62.225034
-10.990594 -259.800018 61.758850
-12.442515 -259.489146 62.072611
-12.207947 -260.228421 61.878489
-33.913254 -252.714736 96.371511
-34.399505 -252.466630 96.765394
-33.981136 -252.386570 95.449324
-34.484485 -252.401508 96.196055
-34.991001 -252.405947 96.948231
-35.503313 -252.391141 97.710320
-34.544946 -252.417843 95.584731
-35.053844 -252.414361 96.340965
-35.562971 -252.410117 97.097603
-34.787215 -252.796140 95.137641
-35.081584 -252.660704 95.585061
-35.565261 -252.725217 96.309527
-36.086266 -252.575874 97.163551
-31.179257 -252.946016 93.125040
-31.582979 -252.805498 93.498835
-31.955951 -252.666364 93.893321
-32.416688 -252.523194 94.228736
-31.634868 -252.371850 92.664843
-32.700216 -252.927637 94.846889
-33.012879 -252.791296 95.281969
-32.140719 -252.378487 93.415884
-32.903631 -252.374707 94.549484
-33.402732 -252.403774 95.288934
-32.210136 -252.365058 92.819878
-32.714479 -252.376711 93.568318
-33.471296 -252.393186 94.691483
-32.834036 -252.489450 93.038140
-33.262738 -252.459614 93.677062
-34.038835 -252.412062 94.833270
-33.907171 -252.541148 94.275479
-34.164875 -253.068694 94.265475
-34.486319 -252.931955 94.694651
-29.891291 -252.831760 91.891906
-29.715755 -252.408021 91.211490
-30.374604 -252.687515 92.212117
-29.539757 -252.366336 90.252860
-30.788251 -253.085977 92.742688
-30.289554 -252.406104 91.363990
-31.042265 -252.436203 92.480130
-29.655185 -252.545599 89.711963
-30.092384 -252.434719 90.369070
-30.863085 -252.405084 91.516036
-30.162210 -252.854154 90.013920
-30.899857 -252.576341 90.808493
-31.427689 -252.433698 91.652788
-31.077882 -253.107506 90.852106
-31.473867 -252.967343 91.231109
-31.859049 -252.827645 91.617378
-32.210779 -252.689527 92.026172
-27.959581 -253.025949 88.105382
-28.769256 -252.420316 89.104515
-28.392258 -252.884052 88.459678
-19.885749 -258.012234 75.146038
-20.401274 -255.917622 75.195262
-22.561869 -258.608249 73.857520
-20.417917 -256.034932 73.649521
-14.926687 -259.189870 63.875080
-14.063840 -259.709844 62.435787
-14.734763 -259.556936 62.629711
-16.156179 -259.131207 63.605479
-15.889491 -259.590450 62.902474
-16.728154 -259.135345 63.754853
-16.096120 -260.120327 62.926838
-16.485917 -259.441005 63.146549
-17.127911 -260.537721 63.396955
-17.319034 -259.820034 63.394750
-12.775881 -260.396886 62.127939
-12.938378 -260.398120 62.172858
-25.227425 -258.733758 74.308554
-25.779201 -258.539836 74.492531
-26.346299 -258.750356 74.569487
-26.925845 -258.573711 74.770730
-21.815332 -259.156794 65.710399
-22.324720 -259.151691 66.467465
-22.896688 -259.155887 66.616852
-22.359403 -259.690826 65.493199
-22.903874 -259.543790 65.772250
-18.369038 -259.179890 64.789364
-17.988357 -259.667208 63.589754
-18.944463 -259.172565 64.944654
-19.009007 -259.175320 64.340305
-18.760907 -260.049024 63.878722
-18.974088 -260.431288 64.006066
-19.363023 -259.899314 64.118967
-19.928247 -259.751320 64.384048
-20.594442 -259.267981 64.822205
-21.241693 -259.158204 65.558171
-21.811264 -259.838058 65.216626
-34.805103 -254.519336 79.950934
-35.274474 -253.836315 80.117073
-35.413529 -255.239393 80.109331
-36.067234 -253.774626 80.416595
-32.279178 -258.430053 76.658516
-29.086579 -258.647585 75.416359
-30.030240 -259.127608 71.615808
-25.700525 -259.145621 67.982672
-26.364946 -259.400733 67.883737
-27.353330 -259.150584 69.037603
-28.122325 -259.126581 70.181640
-28.267353 -259.695351 69.107765
-28.756575 -259.246293 69.715559
-28.992222 -259.748744 69.669886
-23.365816 -259.400561 66.106852
-24.043458 -259.154820 66.920446
-24.216052 -260.454017 66.407983
-25.523653 -259.352736 67.399992
-38.588278 -257.160821 80.918147
-36.022099 -255.089369 80.345227
-36.199069 -255.617325 80.391970
-35.912608 -256.834591 80.263742
-36.638703 -254.942305 80.573313
-36.087882 -257.365910 80.309211
-36.808949 -255.470540 80.624575
-37.038615 -255.144964 80.699585
-36.971442 -254.923590 80.351736
-37.204988 -255.368315 80.736609
-37.191583 -255.126301 80.605069
-36.710133 -257.215268 80.535901
-37.180847 -255.639166 80.734264
-36.691430 -257.790469 79.016323
-38.108150 -256.698075 80.481435
-38.337769 -256.899558 80.728969
-38.132848 -257.027591 80.223765
-38.586262 -257.471982 80.820186
-38.561314 -257.425328 80.744351
-31.689888 -259.109855 72.682476
-32.250063 -259.165676 72.810774
-32.777239 -259.089022 73.599190
-33.299128 -259.042389 74.377685
-34.109040 -259.099617 74.876887
-33.621853 -259.272955 73.981488
-29.853955 -259.465159 70.380926
-30.938515 -259.380046 71.346472
-31.643394 -259.434378 71.922051
25.373903 -252.623802 98.262534
25.271359 -252.500379 97.723311
24.771294 -252.526238 98.464412
25.713422 -252.499010 96.366653
25.206721 -252.502811 97.119123
24.735346 -252.623919 97.811055
25.170066 -252.598177 96.466984
25.007269 -253.007258 96.053681
26.197562 -253.184185 96.209368
26.049741 -252.637906 95.946403
26.286067 -252.770703 95.459931
26.478135 -252.901456 94.943666
26.557590 -253.026976 94.351589
26.732601 -253.156931 93.823843
26.294742 -252.521962 94.101406
25.830626 -252.479183 94.793824
26.795339 -253.281717 93.220526
26.731850 -252.739335 93.014329
25.361389 -252.607391 95.482097
26.266245 -252.456403 93.448205
26.859717 -252.867124 92.454850
25.144705 -253.135459 95.500635
26.215674 -252.505555 92.819911
25.621747 -252.653072 93.962691
25.217075 -253.260698 94.903803
25.332895 -253.387914 94.336210
26.155075 -252.521397 92.208805
25.585881 -252.773251 93.292987
25.416306 -253.513649 93.746807
25.611385 -252.896316 92.664605
25.625662 -253.018815 92.028655
26.981190 -252.994614 91.891065
26.715488 -252.478866 92.079240
26.910859 -252.597594 91.080813
27.207298 -252.831228 89.943147
26.869008 -252.579626 90.444181
26.336661 -252.498276 91.240600
27.243044 -252.954746 89.321655
26.276795 -252.516566 90.628240
25.822232 -252.693483 91.291360
26.971017 -252.509334 88.897382
26.459121 -252.495870 89.658753
26.891094 -252.461008 88.319386
26.394387 -252.498005 89.054743
25.744416 -253.059262 90.412980
27.243957 -252.659095 87.867705
25.908210 -252.569977 89.772037
26.334558 -252.516436 88.442323
25.697828 -253.178987 89.736069
25.865848 -252.646379 89.129685
25.811677 -252.683591 88.507576
25.949578 -252.515407 87.614222
25.596391 -253.000457 87.567666
27.280043 -252.782619 87.246439
27.381263 -252.909175 86.669023
27.014496 -252.461763 86.735943
27.307343 -253.027627 85.973711
26.968672 -252.526669 86.099516
27.151784 -252.633860 85.120080
26.874357 -252.430572 85.546191
25.904773 -252.583702 86.976048
27.141122 -252.735395 84.428905
25.830492 -252.554118 86.388394
25.772603 -252.578971 85.772640
25.443040 -252.761945 84.849573
15.810737 -252.600835 99.870079
15.987578 -252.561960 98.910006
14.077257 -252.555012 100.348314
14.264024 -252.549089 99.371226
14.208835 -252.582887 98.750845
13.770676 -253.026035 99.231471
13.933671 -253.155467 98.695644
16.859707 -253.238811 97.919608
16.439028 -252.618413 98.235465
16.949315 -252.825414 97.170922
17.136027 -252.955909 96.651051
17.243646 -253.082734 96.077936
16.885736 -252.605801 96.172641
17.078853 -252.620967 95.184674
15.224245 -252.581925 97.242455
14.716810 -252.583305 97.996190
15.155030 -252.569176 96.646114
14.642043 -252.552130 97.409371
15.341708 -252.562961 95.669187
14.531881 -252.800498 96.593697
14.781074 -252.604741 95.799121
14.560607 -253.254327 95.726425
17.292029 -252.789287 94.655943
17.418574 -252.916987 94.095567
17.495070 -253.042372 93.501501
17.543963 -253.166520 92.888864
17.350252 -252.661294 92.678608
17.544269 -253.288413 92.243518
17.417383 -252.743107 91.994648
17.391588 -252.799703 91.207602
17.317403 -252.773421 90.231731
26.174165 -258.683779 77.756206
26.073480 -258.452580 77.249539
25.971615 -258.634260 76.660426
14.732839 -252.844742 95.033357
14.742896 -252.967060 94.394568
15.151345 -252.582075 93.850546
15.093226 -252.606140 93.235183
14.758295 -253.089668 93.759387
15.523777 -252.566555 91.898259
14.931949 -252.801969 92.421708
14.874269 -252.921182 91.737330
15.135417 -252.554313 91.075951
15.092336 -252.628336 90.434829
14.827035 -253.040856 91.059980
15.024643 -252.620635 89.835880
14.827746 -253.162768 90.414906
16.855229 -252.554777 90.621148
17.337246 -252.896186 89.599528
17.331264 -253.435353 89.758961
16.796546 -252.576995 90.006763
17.251257 -253.014068 88.896088
17.061858 -252.713483 88.203164
16.665073 -252.574575 88.802157
16.958452 -252.910647 87.643186
16.527071 -252.550486 87.608740
16.799148 -253.165487 87.162293
14.974173 -252.670113 89.207413
14.902095 -252.647848 88.615977
14.847822 -252.684704 87.994034
14.770784 -252.645994 87.411107
16.182637 -253.243337 85.190034
25.826194 -258.874758 76.159886
25.380837 -255.614273 75.645459
25.470407 -256.346484 75.462093
25.481061 -257.214405 75.386611
25.095618 -255.983032 74.987707
24.075101 -256.080608 75.896087
23.884193 -259.055915 76.932281
23.823340 -259.070953 76.321623
23.965693 -258.685734 75.589645
23.932994 -256.317765 74.509318
23.850490 -258.802243 74.866535
23.474000 -259.188247 75.432442
23.401755 -259.165438 74.841296
25.298879 -256.613904 74.998485
25.125188 -256.883560 74.537940
25.168360 -257.717972 74.416465
25.217502 -258.546258 74.286558
24.956864 -257.147712 74.069813
25.000185 -257.981990 73.948134
24.620762 -256.710343 73.899131
24.774628 -257.426172 73.621353
24.817707 -258.260703 73.500018
23.911342 -258.056872 74.339543
23.964212 -256.597545 73.479767
23.855203 -256.641431 73.327693
23.823365 -257.635228 73.471309
23.829709 -256.966234 73.060493
23.842137 -257.062334 73.012854
23.737437 -258.704770 73.730007
23.819751 -257.965712 73.227827
23.811063 -258.295957 72.980930
24.141671 -259.383345 72.465814
14.259333 -253.328214 85.995493
14.107198 -253.443018 85.247523
23.251605 -259.101009 73.668698
23.387855 -258.927371 72.778193
23.819237 -259.652606 72.087504
23.815381 -260.076925 72.212152
23.773550 -260.046938 72.128279
23.640166 -260.035764 71.843716
22.876081 -259.131408 72.824407
23.585860 -259.983829 71.711398
23.572899 -260.059651 71.725451
23.499515 -260.091669 71.687083
23.098982 -259.258117 71.784527
22.497136 -259.150394 71.985955
22.891501 -260.476628 71.379359
21.852346 -259.129845 71.545170
22.260070 -259.955456 70.882746
21.831384 -259.169665 70.873529
21.631501 -259.905808 70.419839
7.951420 -252.625888 89.842642
7.698616 -253.362036 90.167611
7.328433 -252.460657 90.079442
7.276240 -253.009248 90.119281
7.346274 -253.815952 89.959805
7.295735 -252.569148 89.420520
6.990739 -253.394250 89.816925
6.791039 -252.796688 89.454606
8.737261 -253.141780 89.465299
8.720491 -253.680451 89.617470
8.397235 -253.004201 89.881973
8.644520 -254.216355 89.729784
8.339889 -253.540964 90.006821
8.841057 -253.268446 88.889616
8.821472 -254.346369 89.203335
8.745151 -252.722159 88.656888
8.552997 -254.751538 89.831627
8.434023 -252.542058 89.131463
8.222242 -254.074962 90.091086
8.760908 -255.422452 89.489483
8.390216 -255.283411 89.885501
8.616460 -255.955195 89.555703
8.016490 -254.604861 90.116038
8.594939 -252.967616 88.163133
8.244147 -255.816106 89.950637
7.868791 -252.568584 89.269283
7.682589 -255.136452 90.069490
7.356996 -255.562806 89.823850
7.223365 -252.545938 88.829597
6.683680 -252.657263 88.923624
7.854467 -253.214487 86.446030
13.013623 -258.880336 78.392438
12.812810 -259.178005 77.970276
21.051301 -259.366866 69.918724
20.506977 -259.120533 70.044230
20.414006 -259.326290 69.468187
20.132136 -260.406910 69.112613
20.013745 -260.481951 69.082135
19.950659 -260.542523 68.909248
19.651334 -260.574994 68.584437
19.148965 -259.235185 68.553565
18.581541 -259.088525 68.706556
17.944962 -259.095232 68.251697
18.231045 -259.574559 67.793762
6.001630 -253.109115 87.805691
5.771785 -253.436697 87.424592
12.658952 -259.427218 77.481678
12.338736 -258.969014 77.288804
12.129217 -259.275674 76.878964
11.221450 -259.332963 78.223572
11.826855 -258.799081 76.660840
10.504547 -259.464975 77.179376
10.307263 -258.880027 76.812609
9.999922 -259.719888 77.211481
10.062209 -259.223309 76.453028
9.834049 -258.670218 76.129947
9.592658 -259.644881 76.421574
9.571476 -259.031545 75.795139
11.602784 -259.120718 76.271575
11.440550 -259.378548 75.794817
11.125892 -258.914658 75.594098
10.903997 -259.234062 75.201757
10.604381 -258.754660 74.979759
10.756603 -259.476615 74.704017
10.357481 -259.099829 74.622785
10.766217 -259.542969 73.985136
17.380009 -259.122692 68.389045
17.503959 -259.187097 67.500443
17.218135 -259.572392 67.198529
16.670564 -259.104507 67.344094
16.544900 -259.568879 66.798833
15.464563 -259.123825 67.034236
15.878407 -259.558375 66.389586
15.127567 -259.195388 66.129862
9.197843 -259.611192 75.610326
9.080508 -258.840007 75.137578
8.783144 -259.237250 74.852004
8.553838 -258.685306 74.530528
8.298780 -258.159971 74.245502
8.243269 -259.622199 74.927517
10.184274 -259.369005 74.161561
9.858816 -258.916247 73.976118
9.624455 -259.248485 73.601405
9.340690 -258.752743 73.356984
9.100315 -259.091208 72.990788
8.286036 -259.052053 74.203133
8.019755 -258.538260 73.933970
8.944218 -259.342698 72.505345
7.832192 -259.534537 74.144147
8.551489 -258.959348 72.415080
7.748180 -258.908902 73.611912
7.466603 -258.410901 73.364396
8.367291 -259.239865 71.969409
7.396773 -259.366049 73.402490
8.011723 -258.818154 71.826559
7.192175 -258.784440 73.046356
6.875828 -259.539625 73.464415
7.781480 -259.146152 71.446023
14.518979 -259.564664 65.608509
13.866422 -259.118354 65.908550
13.760539 -259.209541 65.359546
12.354316 -259.703569 64.614474
2.967877 -259.095442 80.000496
-0.243051 -259.434475 80.547000
-0.857829 -259.370634 80.064592
2.661126 -259.502366 79.728202
2.064696 -259.419600 79.219838
1.760422 -258.944993 79.004424
1.785027 -259.798559 78.909219
1.439555 -259.366457 78.752093
0.474336 -259.315130 78.089399
6.771174 -259.409205 72.928811
6.595787 -259.043947 72.514426
6.241304 -259.553148 73.006031
7.193817 -259.054354 70.925258
6.149801 -259.466415 72.447898
6.621840 -258.946374 70.382300
5.607132 -259.567855 72.547052
5.748065 -258.529159 71.709030
5.515577 -259.480918 71.988990
6.040607 -258.847935 69.852437
4.966657 -259.561622 72.098867
4.880772 -259.493530 71.531103
4.821640 -258.877261 70.961244
5.440774 -258.768729 69.348904
4.434793 -259.289942 70.807524
5.255156 -259.050666 68.905227
10.581026 -260.202280 63.907512
10.490808 -260.160997 63.851207
10.141433 -259.892217 63.688659
-5.739244 -254.855685 85.220128
-5.599303 -254.984012 84.668771
-5.864966 -255.389291 85.298953
-5.666498 -255.520343 84.786996
-5.671342 -256.059529 84.947186
-5.678591 -256.598623 85.105761
-5.995846 -255.922651 85.374302
-5.635776 -257.472758 85.061029
-5.778993 -255.230422 84.159606
-6.209891 -256.452211 85.393680
-5.666235 -257.782307 84.888728
-5.685293 -257.843440 84.868630
-5.806583 -256.137780 84.138226
-5.825063 -256.600489 84.351311
-5.882766 -256.609943 84.218959
-5.986183 -256.629165 84.103789
-6.139063 -256.571232 83.902330
-6.133411 -256.669893 83.887155
-1.493471 -259.328324 79.611707
-1.819870 -259.755507 79.367207
-2.147003 -259.304479 79.184133
-2.494223 -259.698644 78.972831
-3.825966 -259.291374 78.179037
-3.969075 -259.885457 78.350815
-0.154804 -259.266112 77.627313
0.321740 -259.966222 76.871270
-0.484054 -259.696219 77.386844
-1.174165 -259.270609 77.041208
-0.900553 -259.931460 76.589336
-1.501221 -259.698458 76.797635
-1.548217 -259.901332 76.153461
-2.243913 -259.327084 76.526390
-2.529966 -259.712636 76.224806
3.914129 -258.766421 70.216913
3.808003 -259.329163 70.335892
4.644882 -258.982224 68.416463
3.277284 -259.470291 70.414572
2.833689 -259.274657 69.686928
2.189041 -259.254550 69.245885
1.540255 -259.220733 68.811949
0.896010 -259.201988 68.370226
3.728352 -259.306891 66.955550
-17.266418 -252.787281 93.145871
-17.964930 -252.531268 93.860771
-17.562909 -253.310684 93.121853
-4.969133 -259.745474 77.745970
-5.574353 -259.349888 77.272159
-5.806562 -259.928390 77.577369
-5.944529 -258.943254 77.149980
-6.364625 -259.978739 77.702914
-6.280080 -259.379862 76.918423
-5.588002 -259.196066 75.202880
-6.805159 -259.793271 76.970023
-5.872206 -259.579733 74.898685
-7.445208 -259.095242 76.568738
-7.679692 -259.852998 76.865015
-3.305037 -258.935161 76.029558
-3.200420 -259.706211 75.821160
-3.658951 -259.390718 75.823984
-3.741573 -259.822847 75.216983
-4.776528 -259.496520 75.376825
-5.282344 -259.790794 74.707937
-5.942460 -259.719373 74.293421
-1.467967 -259.400104 67.668222
-27.405063 -252.754138 108.180488
-27.758118 -252.613223 108.590358
-28.919866 -252.562438 108.919625
-28.968001 -252.619669 108.287153
-29.044487 -252.582768 107.703267
-29.078317 -252.687477 107.046286
-27.191166 -252.885885 107.678910
-27.007610 -253.016234 107.156915
-26.828777 -253.146350 106.631734
-26.496038 -252.866066 105.401161
-26.489522 -253.405787 105.568999
-26.262922 -252.998702 104.912524
-26.859572 -252.658362 105.852327
-27.390135 -252.582927 106.645683
-26.699480 -252.563863 104.920957
-27.460241 -252.567219 106.050876
-28.029127 -252.581627 106.194966
-28.596784 -252.600112 106.336944
-28.415674 -252.575406 105.369553
-25.720556 -253.058752 103.582003
-26.222516 -252.623057 104.208319
-24.706124 -253.053699 101.519184
-25.106663 -253.122075 102.299625
-25.466013 -252.660848 102.381843
-25.985202 -252.623217 103.155727
-25.051731 -252.567255 101.072801
-27.209231 -252.582686 102.876774
-22.634864 -253.132465 98.472149
-23.328558 -252.856652 99.296304
-23.354923 -253.394860 99.442009
-23.823235 -252.920689 100.013377
-24.230900 -252.988738 100.789016
-23.025704 -252.549398 98.064240
-24.039845 -252.554578 99.570455
-24.547841 -252.554088 100.325144
-23.748449 -252.487082 97.042085
-19.984156 -253.029254 95.410665
-20.371825 -252.889483 95.795267
-20.094539 -252.573443 95.108228
-20.791410 -252.748201 96.158379
-21.192887 -253.147177 96.697131
-20.684840 -252.516755 95.289026
-21.549150 -253.008836 97.102871
-21.926666 -252.869510 97.494305
-21.430052 -252.571738 96.392298
-22.301580 -253.269711 98.050936
-22.334138 -252.728786 97.865566
-21.891717 -252.533157 94.980659
-22.474732 -252.500633 95.148952
-21.925008 -252.939490 94.104193
-22.979652 -252.510377 95.898376
-22.450942 -253.332725 94.559172
-22.983716 -252.855567 95.087140
-23.818404 -252.471851 96.447004
-18.529431 -252.922696 94.289784
-18.023842 -253.729240 93.502464
-17.850395 -253.859135 92.973664
-17.932154 -254.394768 93.082079
-19.123271 -252.773358 94.535597
-18.009118 -254.930620 93.193723
-17.922481 -254.080087 92.478015
-18.095403 -255.466059 93.299097
-19.580729 -253.169786 95.036674
-18.046821 -255.087256 92.593514
-19.611289 -252.491745 94.395937
-18.153214 -256.087212 92.705496
-18.112463 -256.415772 92.751180
-18.736997 -253.592421 92.173677
-18.687671 -254.168051 92.201974
-18.734475 -254.787054 92.228979
-19.372923 -253.997485 92.353286
-19.166362 -255.266715 92.287950
-19.382913 -255.815609 92.343390
-20.283092 -253.172243 92.868271
-19.501490 -256.358311 92.443989
-19.808918 -256.985055 92.650602
-18.180415 -254.439666 92.142503
-11.943782 -259.430690 82.528561
-13.545667 -259.436333 82.486419
-6.743947 -259.341474 74.810013
-7.856596 -259.482668 76.453213
-7.568022 -259.493494 74.623696
-8.586040 -259.181034 76.157494
-9.067079 -259.487126 76.151045
-9.458112 -259.874979 76.705288
-8.042757 -259.732803 73.912427
-8.371549 -259.624333 74.408314
-8.778458 -259.255594 74.338108
-9.915333 -259.634101 76.000993
-10.475424 -257.671029 75.567850
-9.567864 -259.371866 74.102747
-9.278809 -259.652337 73.654056
-10.623610 -259.402735 75.668993
-10.026038 -259.055976 74.105053
-10.347130 -259.477699 73.853050
-11.398644 -258.804270 75.461405
-6.509294 -259.740568 74.433977
-7.479920 -259.698316 73.778699
-27.707785 -252.613529 103.615274
-28.203204 -252.654817 104.348415
-29.092188 -253.128608 106.158203
-28.721159 -252.850055 104.953388
-28.983954 -253.255460 105.585502
-28.305180 -252.904247 103.537787
-27.289920 -252.531833 102.300094
-27.781216 -252.586790 103.026162
-26.319815 -252.597479 100.154377
-26.817312 -252.631876 100.891089
-27.312490 -252.673957 101.623818
-28.161025 -253.032755 102.989266
-27.814872 -252.961854 102.172217
-26.772476 -252.958095 100.128226
-24.307620 -252.533725 97.169517
-24.814106 -252.538245 97.921622
-25.313118 -252.567601 98.660920
-24.763005 -253.034017 97.039603
-25.339449 -252.763636 97.942682
-25.835556 -252.827579 98.658786
-25.184023 -253.432093 97.565199
-26.330230 -252.891617 99.375856
-23.596779 -252.914126 95.724520
-24.201025 -252.973102 96.367837
-23.935330 -253.646687 96.064588
-15.757352 -259.693366 82.575489
-16.314045 -259.479135 82.717187
-16.230167 -259.986849 81.857649
-17.148912 -259.321634 82.806585
-16.810659 -259.962693 82.021615
-17.898439 -259.165112 82.947604
-17.386226 -259.954928 82.177156
-18.188533 -259.691117 82.915782
-17.963831 -259.940386 82.336192
-18.545113 -259.913628 82.501512
-18.960205 -259.584606 83.140772
-19.493125 -259.387074 83.328721
-11.754133 -257.943049 75.348658
-12.227121 -258.521359 75.311514
-12.371102 -259.527445 75.456287
-13.138025 -259.101364 75.224800
-13.468031 -259.691853 75.674465
-13.975192 -258.928511 75.080260
-14.396984 -258.575095 75.031095
-14.795457 -258.197669 74.948956
-14.931977 -259.697819 75.748723
-15.156633 -258.840313 75.101647
-10.851925 -259.209891 73.921309
-11.286342 -258.869528 73.890015
-11.712815 -259.399900 73.787084
-12.162804 -258.636103 73.808009
-12.643932 -259.222858 73.782401
-13.087079 -258.891481 73.763452
-12.859324 -259.535525 73.380850
-12.927279 -259.609158 72.776708
-13.439535 -259.345541 73.555813
-13.900092 -258.592647 73.591692
-13.514706 -259.561996 72.952565
-14.332199 -259.128855 73.496740
-24.397328 -259.264174 85.518829
-21.162469 -259.274890 83.900618
-21.463314 -259.740681 83.348367
-22.113206 -259.317824 84.310695
-22.686263 -259.169468 84.570502
-23.267967 -259.020683 84.824481
-23.544441 -259.547348 84.801838
-20.182572 -259.233313 83.510175
-19.715859 -259.832959 82.846201
-20.318448 -259.735437 83.048037
-15.628013 -259.507116 75.395743
-15.270758 -258.519989 73.532774
-16.174788 -259.594924 75.501947
-16.466046 -258.833784 74.980898
-15.736665 -259.091047 73.485634
-17.151871 -258.439412 74.932751
-17.370396 -259.598198 75.372372
-16.670651 -258.916953 73.485007
-17.876595 -259.654262 75.925902
-17.682007 -258.923891 74.986961
-17.007037 -259.354441 73.254637
-18.300581 -259.491266 75.271488
-18.448232 -258.861908 74.986046
-17.572490 -259.149216 73.408719
-17.685926 -259.469339 72.855177
-19.252297 -258.702842 75.090345
-19.276554 -259.246645 75.233473
-18.557692 -259.027925 73.480540
-14.831100 -258.854961 73.556657
-14.753849 -259.471283 72.699508
-15.219905 -259.346497 73.400442
-15.900099 -259.471947 73.002209
-39.752253 -252.565943 109.610690
-40.741661 -252.870316 110.359571
-41.311004 -252.883183 110.504431
-41.378572 -252.875880 109.905271
-39.320492 -252.776482 109.205713
-39.086413 -252.909149 108.717722
-38.907483 -253.039299 108.192614
-38.752592 -253.168318 107.651323
-39.149421 -252.565478 108.015132
-39.577361 -252.520581 108.653955
-38.643485 -252.755803 106.915756
-38.433385 -252.887382 106.411626
-39.133828 -252.524083 107.294770
-38.495674 -252.511780 105.647571
-38.954611 -252.493130 106.330634
-40.731059 -252.713587 108.254463
-39.591523 -252.498691 105.876342
-40.085642 -252.544273 106.607257
-40.780606 -252.766127 107.624420
-39.688931 -252.392324 105.328305
-40.171596 -252.475936 106.039595
-41.139074 -253.231764 108.144989
-40.647571 -252.750040 106.616784
-40.206496 -252.577140 105.384453
-40.511727 -253.208821 105.821618
-38.273961 -253.016623 105.873391
-38.091985 -253.146887 105.350326
-37.900250 -252.738211 104.670388
-37.684986 -252.870007 104.169732
-37.713941 -253.408109 104.313695
-37.478487 -253.001432 103.663180
-37.341284 -252.590237 102.946537
-37.083061 -252.724011 102.474789
-37.854278 -252.365134 103.304725
-39.099943 -252.444675 105.149780
-38.924652 -252.400647 104.192356
-39.487957 -252.433586 104.326880
-38.540046 -252.425542 102.219201
-39.044999 -252.435177 102.968680
-40.067729 -252.933631 104.665918
-39.548054 -252.661972 103.561167
-39.872331 -253.064546 104.151898
-38.590235 -252.654315 101.460251
-39.207527 -252.921481 102.499292
-36.841534 -252.857072 101.991829
-36.622701 -252.989031 101.493572
-36.269722 -252.918470 100.681127
-35.485891 -252.780876 99.108635
-35.787997 -252.645058 99.550831
-36.075637 -253.049294 100.166210
-36.377714 -252.426178 100.406971
-36.884867 -252.428500 101.160214
-35.696343 -252.376265 98.698133
-36.469288 -252.339171 99.848941
-36.971159 -252.359041 100.593149
-36.260488 -252.406397 98.834091
-37.536498 -252.385206 100.731151
-38.043274 -252.388788 101.483747
-36.827401 -252.427366 98.974795
-37.586247 -252.437095 100.101455
-38.159241 -252.587335 100.700310
-36.826387 -252.718901 98.206291
-37.522499 -252.651726 99.433312
-37.302637 -252.783757 98.935758
-37.935358 -253.050201 99.964412
-37.673822 -253.184169 99.494907
-33.559293 -252.852958 95.964221
-34.521963 -252.982258 97.416324
-34.802725 -252.847431 97.872892
-35.114785 -252.711120 98.308378
-36.066045 -252.425990 97.843858
-36.562452 -252.852932 97.738394
-25.692951 -259.169270 86.342296
-20.021594 -258.545416 75.218059
-20.158125 -259.078503 75.289600
-21.520001 -259.410816 75.754816
-22.669871 -259.399473 76.063722
-22.934938 -258.793272 75.761579
-23.250975 -259.373295 76.228738
-23.700877 -258.635972 75.891544
-24.158346 -259.323998 76.180018
-22.926969 -259.075328 73.667762
-19.060436 -258.758052 73.545917
-18.831030 -259.400391 73.160976
-19.466885 -259.267743 73.414645
-20.073646 -259.371570 72.908820
-20.440131 -259.134179 73.469570
-21.248965 -259.275723 73.261342
-21.870169 -259.122766 73.494646
-29.500453 -259.342124 78.514482
-25.195200 -258.862557 76.340213
-27.180834 -258.944544 77.103716
-27.849796 -258.791719 77.298956
-28.112124 -259.302141 77.854856
-29.079495 -259.053602 77.908941
-27.914749 -258.945521 74.914064
-24.063887 -259.110554 73.954229
-24.175247 -259.293026 73.407088
-24.669103 -258.946362 74.164573
-25.923971 -259.193730 73.911630
-27.071216 -259.193909 74.215838
-34.387323 -258.349569 79.680720
-29.813644 -258.874740 78.077126
-30.682599 -259.223573 78.878698
-31.741919 -258.959383 78.879239
-32.316344 -259.291837 79.900972
-32.400071 -258.807079 79.081762
-32.827360 -258.897486 76.486974
-28.445954 -258.799117 75.202047
-29.364111 -259.193902 74.821928
-29.941834 -259.178969 74.981150
-30.282015 -259.048483 75.495480
-30.952428 -258.951499 75.798043
-31.728663 -258.577384 76.383540
-32.103110 -259.000923 76.103984
-27.664096 -259.128645 74.401048
-41.473985 -259.070792 88.620125
-42.499105 -259.039517 90.145173
-42.114488 -259.064480 88.171998
-42.763832 -259.387758 89.147464
-42.617881 -259.516362 88.600152
-40.588691 -259.071938 85.904828
-41.102719 -259.051411 86.669840
-41.619503 -259.021750 87.439601
-40.664290 -259.037995 85.319415
-41.175258 -259.027626 86.079204
-41.666607 -259.082434 86.805369
-41.211153 -259.233764 85.346844
-41.801195 -259.502165 86.404222
-41.027710 -259.364113 84.824770
-41.604228 -259.633140 85.891253
-39.137213 -259.049708 83.050050
-39.648812 -259.037249 83.810916
-40.155073 -259.042526 84.562630
-38.705912 -259.012582 81.711831
-39.204906 -259.041978 82.451094
-39.738835 -259.172467 82.535275
-40.450173 -259.425768 83.517922
-40.228403 -259.557893 83.021652
-39.556420 -259.623930 81.778380
-35.222288 -259.159590 80.726821
-35.130323 -258.732738 79.989574
-35.626211 -258.048538 80.137878
-35.787196 -259.187228 80.864085
-35.773185 -258.581160 80.202396
-36.248718 -257.897870 80.364393
-36.887283 -257.746484 80.580105
-36.951871 -259.126711 81.198371
-37.030585 -258.279273 80.647094
-37.109484 -258.820412 80.753505
-37.548853 -259.047821 81.390609
-36.370936 -258.466595 78.749964
-37.705393 -258.734530 80.951641
-36.849505 -258.322610 79.073377
-37.343831 -258.177865 79.386176
-38.262024 -258.813456 81.066093
-38.071561 -258.231130 79.946371
-38.443162 -258.637315 80.500971
-38.225752 -258.763417 80.006029
-38.745448 -259.098365 81.064618
-39.075626 -259.559206 81.051953
-33.600523 -258.664620 77.223621
-33.367875 -259.006063 76.582446
-34.133439 -258.518101 77.510445
-34.626722 -258.373454 77.823957
-35.081232 -258.918792 77.733663
-35.926319 -258.609033 78.403704
-34.631086 -259.052506 75.655662
-35.142940 -259.039212 76.416975
-34.872103 -259.388963 75.240009
-35.413817 -259.450839 75.925420
-36.003621 -259.510483 76.578459
-34.188408 -259.664324 74.409125
-31.378783 -260.107873 71.618065
-31.799366 -259.966567 71.980509
33.736929 -253.065805 108.305556
33.898289 -253.195135 107.768621
33.787616 -253.125604 107.578128
33.733868 -253.184212 107.660347
33.664755 -253.056665 107.704490
33.357466 -253.048565 108.049877
30.837311 -252.231603 111.874484
30.246543 -252.173339 112.056064
31.394801 -252.345553 111.069760
30.738987 -252.155082 111.325776
19.565307 -252.823655 110.155612
19.151752 -252.682642 110.522783
21.763532 -252.908287 107.194041
21.292338 -252.973443 107.926930
20.723490 -252.494607 108.430614
21.491443 -252.354362 106.848856
20.981431 -252.347197 107.607006
20.212239 -252.557876 109.136529
21.409280 -252.298608 106.274699
19.724727 -252.390078 109.470970
23.287182 -252.300476 104.260498
22.610926 -252.773664 105.664346
23.005141 -252.705000 104.879653
22.199323 -252.841552 106.437340
23.540207 -252.973462 103.948718
22.985425 -253.243504 105.029833
21.998760 -252.352587 106.095320
23.460468 -252.614040 103.205851
22.697334 -252.359807 104.357012
22.174206 -252.309063 105.137635
23.755750 -253.105278 103.448250
23.994481 -253.238197 102.963398
24.152976 -252.827949 102.261075
24.401200 -252.961296 101.782612
24.637151 -253.094068 101.295883
24.723561 -252.680534 100.545050
24.233415 -252.618454 101.357243
24.947563 -252.812737 100.050275
23.461009 -252.583159 102.507133
25.205998 -252.946575 99.578688
25.387424 -253.076797 99.055250
33.596012 -259.401364 86.282393
33.581888 -259.410150 86.234516
33.588664 -259.415572 86.145593
16.808655 -252.416176 112.401112
16.215548 -252.350128 112.586703
15.562101 -252.620578 113.597784
14.904720 -252.430399 113.828470
14.307019 -252.349129 114.021937
13.737751 -252.362246 114.166673
15.193484 -252.354144 111.304610
14.682819 -252.344787 112.063873
14.101726 -252.318672 112.228884
14.589293 -252.610524 111.247328
18.738846 -252.541679 110.890392
19.125412 -252.303442 109.667193
17.910846 -252.799087 111.787592
18.130136 -252.371272 111.141087
17.508120 -252.658620 112.162061
17.552207 -252.355651 111.300674
18.165753 -252.297601 108.993120
17.611303 -252.359953 109.112476
17.674388 -253.066838 108.641700
17.279660 -252.926723 109.021547
16.806898 -252.452339 109.589916
16.263619 -252.317808 110.417387
15.752811 -252.308008 111.176907
16.333996 -253.178681 109.839546
15.765916 -252.699893 110.343748
15.401253 -252.561152 110.743832
15.184770 -253.090570 110.761562
20.841390 -252.316304 106.417071
20.273887 -252.335320 106.558802
19.693368 -252.376177 106.718359
19.170914 -252.262608 107.502293
18.666971 -252.275594 108.250047
19.446111 -252.888019 106.684143
19.044168 -252.747597 107.059142
18.642606 -252.607143 107.434385
22.696642 -252.574545 103.643236
22.160778 -252.481544 104.445689
22.146769 -252.652078 103.754744
21.627421 -252.613910 104.528893
20.793675 -252.374936 105.783886
22.249545 -252.913763 103.079918
21.015462 -252.578007 105.235924
21.831365 -253.312001 103.607435
20.405221 -252.967339 105.634154
24.140227 -252.526103 100.801994
23.638516 -252.546484 101.545916
22.893522 -252.602216 102.648824
24.333216 -252.540837 99.814243
23.584217 -252.583267 100.924016
23.074267 -252.778061 101.534949
22.479177 -253.046246 102.588935
23.632045 -252.838808 100.214799
22.692592 -253.177961 102.087036
22.950671 -253.311797 101.615213
23.326817 -253.242257 100.818349
23.839228 -252.970272 99.708714
23.531117 -253.373568 100.310317
23.759196 -253.505986 99.818291
25.728876 -252.796897 97.830533
24.843543 -252.549048 99.055552
