 76.863410 302.672600 55.288540	117.746200 320.730700 91.496010
 194.540600 204.158400 62.098000 238.137900 242.027000 109.856600
 103.592600 300.452500 48.798300 152.023400 320.541200 100.957900
 135.446500 297.209200 41.236030 190.304000 315.426900 92.102730
 176.541600 231.301500 50.914960 227.956600 302.427000 97.500810
 183.976000 226.054400 77.325030 223.626200 271.395200 126.785800
 151.977000 257.668100 98.429980 197.973800 292.659700 137.285100
 126.315500 265.322100 90.954370 172.359500 302.965500 140.120000
 208.262500 163.521900 60.989690 239.023800 207.228300 89.324160
 72.100270 313.566000 18.241190 148.535300 323.463600 56.105050
 48.741280 283.029400 47.416620 86.463720 312.818500 88.380410
 125.000100 3.265105 38.816620 186.238900 44.206490 83.979670
 26.858790 111.390200 10.244610 60.033400 154.092900 55.869220
 16.815690 93.411260 17.043530 61.187930 182.503100 68.660910
 93.453800 47.548900 89.864260 151.886900 81.018280 139.402700
 58.248110 38.650610 17.456430 88.392130 95.477090 88.799440
 64.857560 51.275600 86.014940 98.378110 77.275600 120.690800
 49.618180 70.550000 61.667050 77.293880 120.202700 140.914400
 10.911200 146.083800 4.529801 30.472810 175.403700 45.899590
 68.436780 0.828512 34.963510 129.799100 17.774010 82.471750
 61.044410 1.012691 18.193260 112.050800 50.781000 48.900380
 63.695430 6.196701 42.231860 106.073600 51.008800 89.396020
 148.987100 98.734010 108.117200 183.301200 171.851600 141.153500
 102.976300 15.371090 66.180080 173.742200 54.020310 91.950950
 169.919600 78.946700 51.317570 200.599800 125.103300 107.918300
 139.786600 53.708690 83.280080 174.732000 101.316300 136.347300
 178.885300 116.801200 57.101450 226.438500 182.115200 119.090600
 149.186600 46.471100 51.156660 186.042500 82.658270 86.713830
 97.361130 133.711100 147.958200 139.341200 171.687100 177.417400
 76.359400 132.498300 137.193700 100.333700 184.619400 162.931800
 104.273800 58.686400 82.554480 153.544800 115.449400 156.910100
 34.242600 135.753200 66.217000 88.357620 205.734800 136.943000
 74.953750 98.136460 140.972400 129.929100 134.982700 161.486700
 74.043960 65.339700 138.051500 110.034100 101.887000 156.768700
 51.017000 119.945100 112.895400 87.205700 174.010500 144.291800
 64.086400 56.393900 116.124900 120.670700 96.564510 146.572500
 42.872890 104.779800 60.126420 54.642830 174.129900 113.661300
 109.239900 166.500100 135.699700 153.472000 207.726500 174.762200
 101.617700 147.706700 145.861300 141.827900 175.393000 184.428900
 108.253800 115.668600 141.230400 153.419300 161.629700 165.335500
 6.059098 205.246900 1.006751 22.425880 249.203300 68.192130
 56.140430 163.069200 120.320000 110.651400 209.138800 158.291700
 15.485700 241.705300 4.618790 35.655520 272.399500 52.158400
 35.113430 268.992500 8.312809 72.629180 316.818900 55.294660
 17.358700 174.062600 55.876620 50.432100 229.139300 101.966200
 17.827700 248.084100 43.750030 52.443520 286.827000 90.938860
 22.013970 210.057200 66.901980 49.356590 262.671600 101.469000
 41.666680 207.923700 97.406380 68.077410 263.945800 126.739300
 3.740701 163.064400 0.517361 16.309200 205.927600 43.654790
 4.874001 181.594000 23.368410 24.927280 226.012100 63.690020
 46.274550 259.246300 88.389220 102.804400 305.393800 124.360600
 154.856400 164.045600 103.714800 197.051800 203.403000 141.579600
 63.634220 201.895500 125.470900 116.313300 240.804100 154.147000
 104.682900 195.468400 142.730500 165.567500 238.619000 159.533300
 76.317430 269.814000 102.406000 128.370200 302.724500 140.395900
 67.952060 239.101900 124.027900 129.967800 275.859000 149.819700
 162.078100 198.889400 108.946200 201.121700 254.523600 144.516500
 121.967800 226.169600 130.921900 176.871000 270.646900 152.959600
 190.192300 163.768300 73.469210 221.017300 207.494900 106.652100
 132.912200 163.666500 135.294000 161.850500 200.817700 158.538100
