0.5487586 0.7826892 0.2937032
0.5488388 -0.8127062 -0.1956644
0.5489211 0.0502367 -0.8343632
0.5491195 0.0110060 0.8356714
0.5492147 -0.5138800 0.6590072
0.5492577 0.5182697 -0.6555246
0.5493365 0.5154401 -0.6576860
0.5494030 -0.0099946 0.8354977
0.5494757 -0.5049135 0.6656867
0.5496250 -0.6925628 -0.4671928
0.5496565 0.0873713 0.8308092
0.5497382 -0.2371158 -0.8009769
0.5498001 -0.7836547 -0.2891458
0.5498643 0.8007878 0.2374621
0.5499646 0.2950245 0.7813447
0.5501552 0.8174328 -0.1706837
0.5502014 -0.0913022 0.8300255
0.5502420 0.0876522 -0.8303920
0.5504369 0.8321650 0.0672366
0.5505852 -0.7885525 0.2739358
0.5507152 0.2502862 0.7962849
0.5507912 0.0841613 -0.8303890
0.5508303 0.7587065 0.3477793
0.5509257 -0.4084199 0.7277871
0.5510143 0.8056108 0.2176568
0.5510476 0.3405419 -0.7618252
0.5511285 -0.2089300 -0.8078401
0.5512591 0.0447820 -0.8331314
0.5514449 -0.3269216 0.7674834
0.5515705 -0.0256556 -0.8337337
0.5517587 0.8107706 -0.1954823
0.5518415 0.4934279 0.6723095
0.5519083 -0.3415800 -0.7607368
0.5520083 0.8286922 0.0924998
0.5520795 0.6437105 -0.5299481
0.5521674 0.5134438 -0.6568765
0.5524278 0.8288852 0.0881641
0.5525330 0.3102886 -0.7735814
0.5525716 -0.4162451 -0.7220836
0.5526087 0.5142504 -0.6558737
0.5526618 0.2717668 -0.7878501
0.5526962 -0.4742811 -0.6852623
0.5527060 -0.5841602 0.5943678
0.5528152 0.0396412 -0.8323605
0.5529033 0.4141449 -0.7230366
0.5529904 0.6825493 -0.4778369
0.5531134 0.3882482 -0.7371085
0.5531913 0.7048310 -0.4440637
0.5532788 0.8078386 0.2031732
0.5534015 -0.3844027 -0.7389056
0.5534338 0.5799329 -0.5978201
0.5534776 0.0934046 0.8276099
0.5535630 -0.7493880 0.3632982
0.5536533 0.5318964 0.6407450
0.5537057 -0.7702575 -0.3164070
0.5538395 0.8188160 -0.1510041
0.5538691 -0.1482592 -0.8192974
0.5539813 -0.2412359 0.7968124
0.5540390 -0.3354067 -0.7619338
0.5542110 0.7756078 -0.3021303
0.5542894 0.1366726 -0.8210261
0.5543274 -0.4134362 0.7223515
0.5544112 -0.2620717 0.7899029
0.5545595 0.5665058 0.6095367
0.5545784 -0.6605438 -0.5060876
0.5546724 -0.5608524 -0.6146407
0.5547435 -0.6377305 -0.5343776
0.5548196 0.4633930 0.6909719
0.5549232 -0.4486097 0.7005780
0.5550723 0.2934728 -0.7783113
0.5551694 -0.3500113 0.7545059
0.5553334 -0.6191898 -0.5551656
0.5554585 0.1999086 0.8071570
0.5555239 0.2849798 -0.7811399
0.5556438 0.1015703 0.8251930
0.5557530 -0.4257520 0.7140545
0.5558736 0.3595318 0.7494941
0.5559577 0.5499328 -0.6232857
0.5560127 -0.1256349 -0.8216238
0.5561096 -0.7827097 -0.2794772
0.5561899 0.8211773 -0.1277520
0.5562428 0.8204397 0.1321843
0.5564076 0.0928867 -0.8257013
0.5565457 0.7974512 -0.2330844
0.5565957 -0.0610741 -0.8285355
0.5567007 -0.2031081 0.8055007
0.5568240 0.7876250 0.2638066
0.5568962 -0.6344332 -0.5360608
0.5569838 0.8207049 -0.1273282
0.5570918 -0.2723092 -0.7845358
0.5572278 -0.1761653 -0.8114573
0.5573168 0.4591456 0.6917971
0.5573505 0.5497656 -0.6221883
0.5574796 0.4963194 -0.6654950
0.5576128 -0.1663147 -0.8132696
0.5577145 -0.3229808 -0.7646162
0.5578328 -0.5712588 0.6020680
0.5579571 -0.4246946 -0.7129645
0.5580029 0.4663498 -0.6864042
0.5580158 0.7382999 -0.3788556
0.5581884 -0.4910267 0.6688187
0.5582795 0.0647911 -0.8271192
0.5583548 0.8067510 0.1933718
0.5584545 0.8086742 -0.1848637
0.5586314 0.6235987 0.5468598
0.5587413 -0.2878630 0.7777808
0.5587994 -0.5679906 -0.6042598
0.5589214 0.4155300 -0.7175944
0.5589582 0.1249522 0.8197272
0.5590362 -0.8226821 0.1033092
0.5591196 -0.0659582 -0.8264592
0.5591805 -0.2903794 0.7765288
0.5592549 0.6690873 0.4894447
0.5593649 -0.5697579 -0.6020688
0.5595734 0.2450059 -0.7917385
0.5596565 -0.8164115 0.1423262
0.5597083 0.2564489 0.7880105
0.5598661 0.7732274 -0.2977738
0.5599022 0.5660184 -0.6050890
0.5599304 0.2318680 -0.7954339
0.5600036 0.2599481 0.7866530
0.5600846 -0.0960805 -0.8228449
0.5602250 0.2796620 -0.7797032
0.5603789 0.0233848 -0.8279061
0.5605251 -0.4636472 -0.6861799
0.5605675 0.5523462 -0.6169909
0.5607669 -0.4785878 0.6756436
0.5609851 0.0505275 -0.8262824
0.5611494 -0.2576148 0.7866041
0.5612189 -0.0173972 0.8274845
0.5613560 -0.0444289 0.8263810
0.5614834 0.6869602 0.4613265
0.5615705 -0.1900814 -0.8052997
0.5616323 -0.4494748 -0.6946521
0.5617258 -0.0510117 -0.8257494
0.5618272 0.4072020 -0.7200950
0.5619325 -0.7072176 0.4290399
0.5619518 -0.2902798 0.7745630
0.5620481 0.3945511 0.7269328
0.5621694 -0.5680290 -0.6010896
0.5622716 0.1311476 -0.8164870
0.5623443 0.2566465 0.7860671
0.5624273 0.6002864 -0.5686227
0.5625660 0.6000276 -0.5687586
0.5626914 0.6200189 0.5467678
0.5628195 -0.8263006 -0.0214840
0.5629513 -0.8144764 -0.1404072
0.5630623 0.2843946 -0.7759385
0.5631864 0.7407289 0.3662536
0.5633218 0.0831747 -0.8220405
0.5635018 -0.6462011 0.5146746
0.5635208 -0.2061720 -0.7999609
0.5635734 0.1705496 0.8082685
0.5636814 -0.1439911 0.8133448
0.5638750 -0.1442863 -0.8131583
0.5639668 -0.8115849 0.1525494
0.5640138 -0.4522025 -0.6909424
0.5640624 0.7600242 0.3227951
0.5641075 0.2259832 0.7941753
0.5641673 -0.1941098 -0.8025190
0.5643765 -0.5779757 -0.5894262
0.5645054 0.8226421 0.0677760
0.5645676 0.1042732 -0.8187738
0.5646019 -0.0658840 0.8227297
0.5646647 -0.0663511 0.8226489
0.5647537 0.1432039 0.8127398
0.5648835 0.4349056 -0.7012587
0.5650130 -0.0552906 0.8232273
0.5650616 -0.8080769 -0.1664844
0.5652034 -0.3223793 -0.7593528
0.5653225 -0.6023729 -0.5635223
0.5653828 -0.3480469 -0.7478005
0.5654676 0.0944783 -0.8193413
0.5656821 0.2689210 0.7795417
0.5659155 0.4053594 -0.7179300
0.5659984 0.6072568 0.5575707
0.5661909 0.8061606 0.1718517
0.5663039 0.8210050 0.0724616
0.5663610 -0.6950962 -0.4428053
0.5664222 -0.3206461 -0.7591785
0.5665628 -0.8004041 -0.1958568
0.5665714 0.0857550 0.8195383
0.5666179 0.0283591 -0.8234925
0.5667110 0.0315080 0.8233140
0.5668443 -0.5872530 -0.5777729
0.5669647 0.2097117 -0.7966003
0.5670444 -0.7137969 0.4110409
0.5671274 0.2640857 0.7801444
0.5671883 -0.5722030 0.5923521
0.5672553 -0.7795432 0.2655820
0.5673393 0.7198896 -0.3998563
0.5673846 0.8224671 0.0402805
0.5674307 -0.7975589 -0.2047491
0.5675167 0.0590542 0.8212414
0.5677128 0.5277549 0.6318045
0.5677695 -0.4871803 0.6635459
0.5679542 -0.6982284 -0.4357811
0.5680064 -0.3408912 0.7491074
0.5681742 -0.7334296 0.3731744
0.5682014 0.8146756 -0.1159778
0.5683816 -0.6386719 -0.5186913
0.5684366 0.7868379 0.2403455
0.5686028 0.6156600 -0.5455764
0.5687440 -0.0225159 -0.8222063
0.5688695 -0.2134408 0.7942484
0.5689820 -0.7906828 0.2260090
0.5691273 0.0030583 0.8222437
0.5691596 0.6607445 0.4893609
0.5693184 0.8142896 0.1131774
0.5693614 -0.3761887 -0.7309649
0.5694425 -0.4505932 0.6875326
0.5695742 0.1067377 0.8149799
0.5697131 -0.7797658 -0.2596002
0.5697567 0.4269833 0.7021842
0.5698105 0.5696985 -0.5922496
0.5698792 0.4662045 0.6766765
0.5701184 -0.6169962 0.5424765
0.5703178 -0.3477737 0.7441714
0.5703663 0.5906261 -0.5708266
0.5705137 -0.7414304 0.3532635
0.5706131 -0.0332730 0.8205447
0.5707556 0.0104611 -0.8210534
0.5709098 -0.3821290 -0.7266633
0.5710108 0.3114028 0.7595887
0.5710890 -0.1988655 -0.7964358
0.5711046 -0.7407983 -0.3536345
0.5711479 0.3788016 -0.7282166
0.5712335 0.0081492 -0.8207472
0.5713706 0.1703801 0.8028115
0.5714357 -0.2278178 0.7883909
0.5714935 0.1695741 -0.8028947
0.5715557 -0.0229160 0.8202433
0.5716278 0.0009617 0.8205125
0.5717299 -0.1525643 -0.8061322
0.5717319 0.1788566 -0.8007078
0.5718936 0.2699684 0.7746320
0.5719743 -0.6656408 0.4793409
0.5720757 -0.0211095 -0.8199291
0.5722048 -0.7070652 0.4155002
0.5723347 0.2952291 -0.7650311
0.5723860 0.0720947 0.8168088
0.5724425 0.2659606 -0.7756124
0.5726127 0.0772250 -0.8161807
0.5727858 0.1263764 -0.8099047
0.5728864 -0.3368160 0.7472323
0.5729352 0.4649556 -0.6749530
0.5729834 -0.6137815 -0.5431044
0.5730595 -0.6530719 0.4950757
0.5731046 0.7442042 0.3430906
0.5732212 0.0089010 -0.8193523
0.5734233 0.1702892 0.8013659
0.5734650 -0.0136575 0.8191162
0.5736694 -0.0252100 0.8186989
0.5737665 0.8176589 0.0471798
0.5738800 0.8140870 -0.0890182
0.5739539 0.7675345 0.2854252
0.5741917 -0.6845190 0.4491521
0.5742385 0.4546111 -0.6808662
0.5742702 -0.8010813 0.1687677
0.5744275 -0.5319879 0.6221108
0.5745048 0.7970083 0.1863386
0.5745368 0.4001214 -0.7140100
0.5745852 0.8095037 -0.1206467
0.5746491 -0.1991313 0.7938042
0.5746719 0.4484577 -0.6845713
0.5748002 0.7078262 0.4105931
0.5749229 -0.0358889 0.8174201
0.5749291 0.6703716 0.4691039
0.5751405 0.3466772 0.7409645
0.5753242 0.7374597 -0.3537728
0.5754337 0.3837515 -0.7222263
0.5754831 -0.5648638 -0.5913950
0.5755563 0.5761108 0.5803717
0.5756596 -0.2621296 -0.7745348
0.5757219 0.5968130 -0.5588905
0.5757772 0.1842970 -0.7965647
0.5758504 -0.2683596 -0.7722561
0.5759205 -0.3291366 -0.7483212
0.5759737 0.1273319 -0.8074905
0.5761304 0.8079591 0.1235955
0.5763005 0.3361987 0.7448813
0.5763971 -0.0264309 0.8167422
0.5764879 0.2373925 0.7818610
0.5765771 -0.4463594 0.6843407
0.5766416 -0.8152948 -0.0527149
0.5768069 0.1238987 -0.8074298
0.5768679 0.3221686 0.7506203
0.5769426 0.2703303 0.7707521
0.5770642 0.5436199 0.6094869
0.5771697 -0.7116696 -0.4005015
0.5772843 -0.7196958 0.3857212
0.5773263 0.1569635 0.8012844
0.5773710 0.4477029 -0.6827919
0.5774265 0.8163666 0.0111514
0.5776210 0.1512714 0.8021665
0.5777245 0.1819251 0.7956995
0.5777527 -0.5537747 -0.5996128
0.5778216 -0.7845504 0.2249509
0.5779648 -0.3974791 -0.7127180
0.5780840 0.6824124 0.4473614
0.5782482 -0.2192976 -0.7858356
0.5782857 -0.4507529 -0.6800055
0.5784336 0.8129666 0.0670810
0.5785349 -0.0746410 0.8122352
0.5785673 -0.7976187 0.1704826
0.5786062 0.2510195 0.7760181
0.5786364 0.7622329 -0.2901395
0.5787361 0.4131635 0.7031077
0.5788598 0.0589426 0.8132940
0.5789548 0.8147089 0.0325666
0.5789982 0.3067539 0.7554225
0.5790821 -0.0825600 -0.8110782
0.5792458 0.3765380 -0.7229754
0.5793348 0.0461138 -0.8137842
0.5793842 0.4630363 -0.6707544
0.5793987 0.7566274 -0.3030051
0.5794508 0.8150056 -0.0016489
0.5795837 0.1090797 -0.8075793
0.5796329 0.2380115 0.7793434
0.5797417 -0.1234143 -0.8053996
0.5798201 -0.8147259 0.0055083
0.5799552 0.2928968 0.7601733
0.5801197 0.5723728 0.5795261
0.5802597 -0.2425463 0.7774766
0.5802786 -0.3837768 0.7183258
0.5803481 -0.0008603 -0.8143681
0.5804218 -0.5617118 0.5895679
0.5805337 -0.5621045 -0.5890833
0.5806349 0.5145571 0.6309471
0.5807493 -0.7273993 0.3655416
0.5808064 -0.6591472 -0.4776913
0.5809804 0.3294693 -0.7442525
0.5810398 0.2593795 0.7714370
0.5811114 0.2365113 -0.7786989
0.5811704 0.1753269 -0.7946707
0.5812287 -0.7821466 -0.2245441
0.5815474 -0.3075828 -0.7531238
0.5816589 0.7730562 0.2530950
0.5817583 -0.2730761 -0.7661506
0.5819291 0.4067190 -0.7042288
0.5821472 0.4107401 0.7017102
0.5822231 0.5404716 0.6073769
0.5824857 0.4703312 -0.6629472
0.5825334 -0.0460252 0.8115026
0.5826220 0.2452816 0.7748475
0.5826999 -0.3913325 0.7122638
0.5828935 0.2817342 0.7621424
0.5829621 -0.1718856 -0.7941099
0.5831931 0.8096438 0.0660515
0.5832453 -0.2654420 -0.7677014
0.5833639 0.8102431 0.0565023
0.5835463 -0.8120191 0.0099386
0.5835889 -0.0814555 0.8079536
0.5837026 -0.6856356 0.4349656
0.5838575 0.4334490 -0.6864637
0.5839749 -0.1549741 -0.7968415
0.5840508 -0.7424225 0.3281669
0.5841375 0.8055559 0.0993137
0.5842120 -0.7422497 0.3282711
0.5843081 0.6098644 -0.5353966
0.5843341 -0.7422723 0.3280021
0.5843518 -0.7418861 0.3288436
0.5844090 -0.7321138 0.3499651
0.5845469 0.0860442 0.8067845
0.5846006 0.7678960 0.2618739
0.5846736 -0.1933553 -0.7878899
0.5847710 0.2225954 0.7800604
0.5847919 0.6224614 0.5201540
0.5848576 -0.1312301 0.8004500
0.5849964 0.6809652 0.4405288
0.5851089 -0.0475837 -0.8095576
0.5851411 0.4677933 -0.6624042
0.5852946 -0.8086084 0.0598550
0.5853521 0.7894312 -0.1848278
0.5854042 0.8039302 0.1048723
0.5856042 -0.0008177 0.8105967
0.5856536 0.7099015 -0.3912156
0.5857478 0.5300909 0.6131094
0.5857705 0.4889684 -0.6463611
0.5858482 -0.4868850 0.6478619
0.5859815 -0.4890426 0.6461138
0.5860419 -0.8102701 0.0041534
0.5861892 -0.7069389 0.3957521
0.5862705 -0.7068431 0.3958027
0.5863546 -0.8000247 -0.1270778
0.5864820 -0.5455249 0.5986997
0.5865507 0.0636957 0.8074039
0.5866296 0.5188385 -0.6218298
0.5867628 0.1648721 0.7927967
0.5869183 -0.0853529 -0.8051347
0.5870458 0.6758441 0.4456590
0.5871927 -0.0066522 0.8094198
0.5873426 -0.0807940 0.8052956
0.5875650 0.3192835 0.7435224
0.5876842 0.7515142 0.2997560
0.5877739 -0.2966216 -0.7526868
0.5878991 -0.7433777 -0.3190049
0.5880062 0.6947938 -0.4141380
0.5881081 -0.2944571 -0.7532754
0.5881586 -0.2854467 -0.7566965
0.5882798 0.3723267 0.7178438
0.5884092 0.6423521 -0.4910788
0.5884581 0.7885491 0.1786266
0.5884852 0.3629575 -0.7224589
0.5885109 -0.7619778 -0.2702680
0.5887080 0.4619557 -0.6633399
0.5888050 0.8082619 0.0046207
0.5889063 -0.3216373 0.7414437
0.5889666 -0.5746952 -0.5681933
0.5890786 -0.7154747 0.3756095
0.5892976 0.7861542 -0.1862522
0.5893450 -0.4547831 -0.6677161
0.5894267 0.3374171 0.7339795
0.5896001 0.6093470 -0.5301584
0.5896508 -0.2645730 0.7630944
0.5898259 0.7121048 -0.3808046
0.5898750 0.5748278 0.5671159
0.5899511 -0.0539679 -0.8056334
0.5900069 0.3579678 0.7237064
0.5901079 -0.3634757 -0.7208732
0.5902652 0.7875107 0.1772398
0.5903595 0.5082475 0.6270247
0.5903764 0.0263035 0.8066993
0.5904853 0.8070467 -0.0016729
0.5906004 0.7768763 -0.2182989
0.5908032 -0.7763943 0.2194619
0.5908599 -0.0922687 -0.8014805
0.5910453 0.5825401 -0.5579539
0.5911232 -0.7904462 0.1605248
0.5912143 -0.5721565 0.5684212
0.5913069 -0.7084620 0.3852763
0.5913810 -0.4556414 0.6653265
0.5914743 -0.7436478 -0.3116826
0.5916523 0.2453595 0.7679494
0.5917318 0.0959282 -0.8004069
0.5917897 -0.7377349 0.3248571
0.5918776 0.7916423 -0.1516020
0.5919091 -0.0925848 -0.8006695
0.5919597 0.6665123 -0.4531501
0.5920075 -0.3992273 -0.7001034
0.5920259 -0.1592717 -0.7900239
0.5921094 -0.5838340 -0.5554677
0.5921962 -0.4395193 -0.6753713
0.5923639 0.4535739 -0.6658646
0.5924187 -0.5306242 0.6061997
0.5925553 -0.5037676 -0.6285670
0.5926313 -0.7771762 0.2116252
0.5927279 -0.1299963 -0.7948425
0.5927703 0.5178364 -0.6168215
0.5928817 -0.2332106 -0.7707815
0.5929449 -0.2597729 0.7621905
0.5930142 -0.2989839 0.7476247
0.5930933 0.0346264 -0.8043888
0.5932004 0.7852915 0.1772865
0.5932223 -0.1160326 0.7966328
0.5933940 0.0136429 -0.8047965
0.5934503 -0.0843682 0.8004366
0.5935185 0.1337544 -0.7936280
0.5935487 0.4102102 -0.6924071
0.5937168 0.4625380 0.6584519
0.5937910 -0.5423357 0.5943772
0.5938282 -0.0878426 0.7997823
0.5939526 0.4823912 -0.6438315
0.5941151 0.7735136 -0.2206897
0.5941950 -0.3031202 -0.7450170
0.5942825 -0.8042483 -0.0035999
0.5946228 0.2350204 0.7688882
0.5947027 0.0978301 -0.7979712
0.5947445 0.4499695 0.6661880
0.5948371 -0.5849045 -0.5514123
0.5949992 -0.4453074 -0.6690869
0.5950421 -0.7351403 0.3247978
0.5951608 0.5573756 -0.5788921
0.5952262 -0.4180472 -0.6862524
0.5952692 0.0959027 0.7977827
0.5954037 -0.3577098 -0.7194012
0.5954272 -0.6765533 -0.4332921
0.5955363 0.0895860 0.7983175
0.5956164 -0.2250063 -0.7711118
0.5956887 -0.3342410 -0.7303683
0.5957510 0.2282134 0.7700645
0.5958409 -0.0954135 -0.7974145
0.5959462 0.5979870 -0.5359660
0.5960639 -0.4467094 0.6672021
0.5961838 -0.6763277 -0.4326034
0.5963157 -0.3683585 -0.7132459
0.5965402 -0.5812549 0.5534280
0.5966296 0.7730574 0.2154424
0.5967364 0.1482748 -0.7886192
0.5968790 0.4571846 -0.6593313
0.5968894 0.6970084 0.3973693
0.5969650 -0.1621450 0.7857110
0.5971353 0.7909271 -0.1336547
0.5972218 0.1158437 0.7936664
0.5972665 0.3710568 -0.7110481
0.5972988 -0.0544439 0.8001687
0.5973792 0.7843701 0.1670378
0.5974724 -0.1688478 0.7839114
0.5974943 -0.5741972 -0.5597303
0.5975441 -0.0866937 0.7971357
0.5976213 0.4982901 -0.6281367
0.5976686 0.0744080 0.7982830
0.5977639 0.3813281 -0.7051718
0.5978444 -0.0740920 -0.7981807
0.5978902 0.6752607 0.4319147
0.5980146 -0.4353407 -0.6729465
0.5981549 0.1096153 0.7938484
0.5982157 0.5032399 0.6236085
0.5982972 0.7949885 -0.1001689
0.5983253 0.7401655 0.3068580
0.5984359 -0.0040629 0.8011604
0.5985178 0.6974249 0.3941763
0.5987946 -0.6452742 0.4744115
0.5988208 0.7965610 0.0830925
0.5990086 0.1388631 0.7886100
0.5991308 -0.0795904 -0.7966854
0.5991830 0.4379804 -0.6701887
0.5992474 0.5839312 0.5476557
0.5993625 0.1421363 -0.7877575
0.5994765 -0.2313888 0.7662161
0.5995890 0.1103419 0.7926649
0.5996526 -0.2968586 -0.7431633
0.5997361 -0.1811719 0.7794186
0.5998167 -0.2384455 0.7637824
0.5998178 -0.3979087 0.6941810
0.5999494 -0.3385645 0.7248688
0.6001074 -0.0997006 -0.7936819
0.6003001 0.6933490 0.3986313
0.6003106 -0.7997561 0.0041435
0.6004602 -0.3726480 -0.7075175
0.6006068 0.7776727 0.1857326
0.6006840 -0.0424909 0.7983566
0.6009059 -0.4496665 -0.6608420
0.6009893 -0.1296735 -0.7886676
0.6010692 0.3909472 -0.6970481
0.6011036 0.1775678 0.7791945
0.6011972 -0.7649732 0.2310366
0.6012365 -0.0362659 0.7982477
0.6012887 0.7847365 -0.1504680
0.6013216 0.1499775 0.7848051
0.6013830 0.7738860 0.1985927
0.6015489 0.0922246 -0.7934945
0.6016609 -0.5431601 0.5856460
0.6017488 0.3471910 0.7192752
0.6018064 -0.3369430 0.7240846
0.6019250 0.7985501 0.0019928
0.6020191 -0.7412522 0.2968471
0.6021030 0.6030899 0.5232156
0.6022319 0.6500778 0.4633741
0.6023914 0.3607243 0.7120411
0.6024978 -0.7882204 -0.1253198
0.6026443 0.5786283 -0.5495537
0.6026995 -0.4639701 -0.6492189
0.6027377 0.7879957 -0.1255790
0.6028588 -0.4947202 -0.6259498
0.6029630 0.1464589 -0.7842101
0.6030479 -0.4631831 0.6494572
0.6032058 0.0979123 -0.7915529
0.6033021 -0.7153970 -0.3524679
0.6033843 0.5332108 0.5929702
0.6034301 -0.7752856 -0.1865592
0.6034424 -0.6713034 -0.4303592
0.6036035 0.1428906 -0.7843756
0.6037155 0.1723629 -0.7783435
0.6039509 -0.5765404 -0.5503131
0.6040353 0.6983508 0.3839889
0.6041222 0.7434756 0.2868455
0.6042041 0.7589008 -0.2429136
0.6042797 -0.6089110 -0.5138807
0.6044021 -0.7907118 0.0973291
0.6045584 0.7962169 0.0234033
0.6045923 0.6979567 -0.3838290
0.6047471 -0.4831532 0.6331223
0.6047996 -0.3442023 -0.7181519
0.6048729 -0.2322653 -0.7616965
0.6049504 -0.7751232 0.1822608
0.6050502 0.3638878 0.7081666
0.6052112 0.2467948 -0.7568432
0.6052401 0.7953214 -0.0338863
0.6053574 -0.7756706 0.1785430
0.6054937 -0.6743893 0.4225831
0.6055147 -0.7817678 0.1489666
0.6055440 -0.7880830 -0.1106423
0.6058817 0.0683320 0.7926147
0.6059728 0.1899999 -0.7724616
0.6060374 -0.2934309 0.7393355
0.6061324 -0.0233096 -0.7950221
0.6062134 -0.1519246 -0.7806563
0.6062501 -0.7001250 0.3772081
0.6063040 -0.3116725 0.7316117
0.6064118 0.0943837 0.7895292
0.6065157 -0.6720639 0.4248162
0.6066774 -0.0934922 -0.7894313
0.6070515 0.0373682 -0.7937833
0.6072816 -0.1715245 -0.7757502
0.6073851 0.7688255 0.1999770
0.6075148 -0.7685457 0.2006571
0.6076361 0.1805902 0.7734117
0.6077641 0.5499918 0.5728279
0.6079266 0.3430489 0.7160606
0.6079882 -0.6298723 -0.4833334
0.6080045 -0.7938936 -0.0079749
0.6080796 0.2792688 0.7431339
0.6081910 -0.1513403 0.7792303
0.6082481 -0.1520558 0.7790463
0.6083058 0.7825455 -0.1326142
0.6083720 -0.7526187 -0.2518900
0.6085329 -0.1020758 0.7869360
0.6086305 0.1347132 -0.7819343
0.6089943 -0.7924993 0.0327214
0.6090853 -0.4640603 -0.6431665
0.6091147 -0.5260621 0.5934964
0.6091872 -0.1090548 -0.7854922
0.6093217 -0.0076055 -0.7928866
0.6094432 0.1542595 -0.7776780
0.6095552 0.6821547 -0.4038654
0.6096273 0.1155535 0.7842206
0.6097289 0.1893716 0.7696552
0.6097661 0.0266064 -0.7921347
0.6099112 0.7862161 0.0993607
0.6100315 -0.1072915 -0.7850796
0.6104182 0.7875622 -0.0844711
0.6105615 0.4588768 0.6454818
0.6106399 0.3849376 -0.6920563
0.6107595 -0.0496428 0.7902585
0.6108948 -0.7916500 -0.0098918
0.6110521 0.7678005 -0.1926074
0.6111393 0.0451799 -0.7902326
0.6112037 -0.7711123 -0.1783700
0.6112484 0.1172492 -0.7827056
0.6112765 0.3001519 0.7322908
0.6113206 -0.4055507 0.6795703
0.6113518 0.7148574 -0.3394524
0.6114712 -0.1268397 -0.7810344
0.6115381 -0.5765673 -0.5418407
0.6116572 0.7285620 0.3083389
0.6117652 -0.6426396 0.4612566
0.6118801 0.6936985 -0.3799804
0.6119704 -0.0926080 -0.7854400
0.6120864 0.4688564 0.6368076
0.6121708 -0.6838036 -0.3970637
0.6122419 0.3295517 -0.7187180
0.6122923 -0.6005756 0.5142053
0.6123962 -0.6976255 -0.3718729
0.6124654 -0.7894940 0.0398166
0.6125676 -0.2046839 0.7634562
0.6126610 0.4373956 0.6582793
0.6127082 -0.0371713 -0.7894346
0.6128533 0.0805415 0.7860813
0.6129480 0.3010681 -0.7305154
0.6130228 -0.4414842 0.6552059
0.6131845 -0.0903103 -0.7847604
0.6132511 0.0766890 0.7861564
0.6133503 -0.6936233 0.3777409
0.6134643 -0.5969791 -0.5169889
0.6135152 0.1625586 0.7727702
0.6136079 0.4140794 0.6723270
0.6136709 -0.4481516 0.6500524
0.6138201 0.2195779 0.7582944
0.6138650 -0.1348870 -0.7778015
0.6139123 -0.3220577 0.7206876
0.6140114 0.7147922 0.3347570
0.6141567 0.4409603 0.6544964
0.6142471 -0.3394811 0.7123575
0.6143678 0.5987565 0.5138509
0.6144785 -0.0913948 -0.7836218
0.6146767 0.3695062 -0.6968771
0.6147829 -0.3555133 -0.7040257
0.6149567 0.2662796 0.7422421
0.6150852 0.1997434 -0.7627403
0.6151742 -0.0714535 0.7851466
0.6152879 0.5719488 -0.5424900
0.6153800 -0.7871032 0.0421431
0.6154785 -0.7870268 0.0421310
0.6155721 -0.7829826 0.0894940
0.6156421 -0.7869061 0.0419944
0.6156828 -0.7868489 0.0424677
0.6157141 -0.0575963 -0.7858619
0.6158271 -0.7867508 0.0421928
0.6158962 0.5716310 -0.5421345
0.6160219 0.7214150 -0.3163502
0.6160722 0.3326571 0.7139988
0.6161387 -0.6901004 0.3796505
0.6163739 -0.4448465 0.6497652
0.6164762 -0.0313357 -0.7867497
0.6165674 -0.7507027 -0.2372553
0.6167042 0.4168472 0.6677682
0.6167801 -0.1472659 0.7732367
0.6168603 -0.0063457 -0.7870471
0.6170527 -0.7851214 -0.0532007
0.6171751 -0.2425802 0.7484984
0.6173222 -0.7805235 -0.0984698
0.6174317 0.7114161 0.3356564
0.6175305 0.5817213 -0.5293926
0.6175601 -0.5485828 -0.5636280
0.6176594 -0.5323540 -0.5788748
0.6178459 0.7634078 -0.1883484
0.6179435 -0.4819912 -0.6211524
0.6179778 -0.0147813 0.7860566
0.6179804 0.3943726 0.6801254
0.6180672 0.5338302 -0.5770773
0.6181651 -0.7799860 0.0974367
0.6182213 -0.0852831 0.7813637
0.6183073 0.7806380 0.0911061
0.6183552 0.0294450 -0.7853470
0.6184792 -0.4348342 -0.6545249
0.6185385 0.7670946 0.1702233
0.6186087 0.4667215 0.6320556
0.6186576 0.4841137 -0.6187864
0.6187677 -0.1025225 -0.7788554
0.6188150 0.2864718 -0.7314383
0.6190322 0.3535615 -0.7012798
0.6190754 0.5363485 0.5736515
0.6191664 -0.0757970 0.7815931
0.6192040 0.7447340 -0.2489130
0.6192575 0.4848939 -0.6175743
0.6193673 0.0873787 0.7802238
0.6195292 0.2917172 0.7287555
0.6196302 0.5767842 -0.5323330
0.6198802 0.0741849 -0.7811819
0.6199428 0.7697573 -0.1521338
0.6201024 0.0623925 -0.7820359
0.6201499 0.4100000 -0.6688154
0.6202374 0.4305589 0.6556864
0.6203178 0.6784004 -0.3936734
0.6203701 -0.6568950 -0.4285205
0.6204078 -0.1157924 -0.7756844
0.6205402 -0.2117953 -0.7550315
0.6206813 0.0834666 0.7796076
0.6207994 -0.7835556 -0.0254695
0.6208327 -0.4010826 -0.6735722
0.6209102 0.1263576 -0.7736306
0.6210056 -0.2070619 0.7559612
0.6211023 -0.6126024 0.4888253
0.6211664 0.3203231 -0.7152241
0.6212364 0.0987244 -0.7773795
0.6213163 -0.6942402 -0.3633134
0.6213889 0.2309559 -0.7486890
0.6214213 -0.0723121 -0.7801324
0.6215208 0.4047574 0.6707334
0.6216159 -0.7622165 0.1806094
0.6216643 0.5988252 0.5049177
0.6218015 0.2427514 0.7446036
0.6219335 0.4202344 0.6607585
0.6220261 -0.0442067 -0.7817476
0.6221594 0.5982450 0.5049956
0.6222001 -0.5152901 -0.5893583
0.6222711 -0.0038890 -0.7827922
0.6224908 0.0082531 0.7825837
0.6225590 -0.5964131 0.5066672
0.6225942 -0.7825288 0.0050161
0.6227172 0.3889374 -0.6789337
0.6227940 -0.2853689 -0.7284862
0.6229396 -0.2537524 0.7399703
0.6230525 0.2913910 -0.7258766
0.6231408 -0.3556153 0.6965869
0.6233078 0.7399970 -0.2527685
0.6233854 0.1316249 0.7707565
0.6234512 0.0659081 -0.7790794
0.6236160 0.0402555 0.7806936
0.6237045 0.4916980 -0.6076396
0.6237588 -0.1619588 0.7646530
0.6238120 0.7739219 0.1091029
0.6239053 -0.7794302 0.0568388
0.6240297 0.2667847 0.7344474
0.6241447 0.7741688 0.1053856
0.6242916 0.2354751 0.7448567
0.6244374 0.0730992 -0.7776468
0.6244638 0.4441056 0.6425069
0.6245887 0.1160706 -0.7722802
0.6246827 0.3394489 0.7032396
0.6247795 -0.4295685 0.6520134
0.6249467 -0.1454150 0.7670046
0.6249945 -0.7796466 -0.0391541
0.6250404 0.0123355 -0.7804949
0.6251409 -0.7696111 0.1299905
0.6251828 0.6584890 0.4189735
0.6252264 0.4839780 -0.6122559
0.6252939 -0.4811093 0.6144439
0.6253600 -0.1838408 0.7583715
0.6255819 0.1561173 0.7643787
0.6256448 0.2576497 0.7363323
0.6257102 -0.0680275 -0.7770837
0.6258030 0.6468181 -0.4358864
0.6258712 0.0686505 -0.7768992
0.6259301 0.7299716 0.2745047
0.6260240 -0.4062055 -0.6656509
0.6261670 -0.6253940 -0.4656148
0.6263840 0.2028525 -0.7526579
0.6264827 -0.7312694 -0.2697490
0.6265272 0.6054201 0.4908463
0.6267041 -0.7341749 0.2612072
0.6267884 -0.1915784 -0.7552708
0.6268378 -0.1400362 -0.7664621
0.6269603 -0.0152768 0.7789014
0.6271553 -0.6726472 -0.3927111
0.6272475 0.6354473 0.4502969
0.6273193 -0.0214638 -0.7784663
0.6274302 -0.7623966 -0.1583754
0.6275002 0.6674611 -0.4009229
0.6275765 0.7052277 -0.3298507
0.6276340 0.6834061 0.3728694
0.6276868 0.1472932 -0.7644044
0.6277567 0.6716923 -0.3933841
0.6278256 0.6432699 0.4382223
0.6278497 -0.7172880 0.3021633
0.6279185 -0.7740317 -0.0811988
0.6280648 0.1044051 0.7711253
0.6281758 0.0742043 0.7745249
0.6282146 0.0409619 0.7769611
0.6283442 -0.0986554 0.7716545
0.6284883 0.7452121 0.2228485
0.6286886 0.1496179 0.7631285
0.6287103 -0.1878664 0.7546056
0.6289454 -0.4270693 0.6496457
0.6289864 -0.1595151 -0.7608752
0.6290646 -0.3078612 0.7137922
0.6291806 0.7505472 -0.2020164
0.6292391 -0.3883143 0.6732534
0.6293626 0.0838270 0.7725774
0.6293987 0.4946833 -0.5992876
0.6294805 0.0961441 0.7710452
0.6295061 -0.0766911 -0.7732015
0.6296457 -0.0872679 -0.7719654
0.6296865 -0.5835326 -0.5128204
0.6297873 0.7466610 0.2141618
0.6299017 -0.7755834 -0.0411618
0.6299514 -0.2079412 0.7482792
0.6300271 -0.0313214 0.7759412
0.6301292 -0.6704319 0.3917376
0.6302391 -0.3049332 0.7140129
0.6302912 0.4178472 0.6543216
0.6303094 -0.4470535 -0.6347072
0.6303269 -0.1468190 -0.7623203
0.6303455 -0.4289851 0.6470211
0.6303480 0.4014962 -0.6644262
0.6303800 0.5918557 -0.5023226
0.6303823 0.0867486 0.7714226
0.6304209 -0.6812175 0.3721724
0.6304309 0.7517716 0.1933812
0.6304688 -0.3070678 -0.7128944
0.6304829 -0.7719115 -0.0815109
0.6304855 0.3263338 -0.7042686
0.6305344 0.5523585 -0.5452766
0.6305424 0.1805162 -0.7548709
0.6306049 0.0103554 -0.7760350
0.6306488 -0.1507780 0.7612805
0.6306682 0.2199891 -0.7442193
0.6306956 0.1347728 0.7642378
0.6307130 0.3916760 0.6699187
0.6307598 0.7356770 -0.2468226
0.6307929 -0.0763644 0.7721845
0.6307964 0.4377343 -0.6406907
0.6308922 0.1999644 0.7496595
0.6309104 -0.5692035 0.5272187
0.6309328 0.7749944 0.0361585
0.6309646 -0.2664372 0.7286253
0.6310766 0.3948392 0.6677158
0.6311244 -0.6322758 0.4493432
0.6311768 0.2597685 -0.7308463
0.6312382 -0.5698699 -0.5261052
0.6312657 0.6293000 -0.4533048
0.6313498 0.7009427 -0.3317782
0.6314821 0.5153853 -0.5793171
0.6315109 0.7675094 -0.1101059
0.6315301 0.3020796 0.7140853
0.6316077 -0.5313814 0.5645402
0.6316542 -0.3455721 -0.6939690
0.6316979 0.6719976 -0.3864930
0.6317494 0.3401685 -0.6965473
0.6317997 0.7696628 -0.0919143
0.6318248 0.5001936 0.5921180
0.6318546 -0.6737409 -0.3831878
0.6319156 0.3773898 -0.6769488
0.6319436 -0.0970692 -0.7689114
0.6321226 -0.4944646 0.5965952
0.6321365 -0.4007990 0.6631468
0.6322621 -0.7181294 0.2907485
0.6322844 0.7232160 0.2778038
0.6323014 0.6403122 0.4361138
0.6323279 0.5647745 0.5302746
0.6323872 0.4791759 0.6086681
0.6324349 -0.7603407 0.1480144
0.6324776 -0.1847129 0.7522322
0.6325447 0.1747921 -0.7545428
0.6326225 -0.0842786 -0.7698609
0.6327059 -0.7123864 -0.3036263
0.6327284 -0.7426139 -0.2194981
0.6327466 -0.5835940 0.5089694
0.6328621 0.6815607 -0.3673699
0.6329531 -0.2430561 -0.7350470
0.6329641 -0.1001408 0.7676771
0.6329867 -0.7739290 0.0190215
0.6330134 -0.7519802 -0.1839017
0.6330519 -0.7694800 0.0845329
0.6331565 -0.5626571 -0.5315353
0.6332558 0.2905275 -0.7173428
0.6333591 -0.2402086 -0.7356331
0.6334909 -0.3149909 -0.7067319
0.6335917 0.3001444 -0.7130743
0.6336797 0.5333292 0.5603659
0.6337596 -0.3180857 0.7051030
0.6338213 0.0978953 0.7672594
0.6339143 -0.0716689 0.7700755
0.6340509 0.5936629 0.4955237
0.6340874 -0.4933426 -0.5954378
0.6340948 -0.4933469 -0.5954264
0.6341777 -0.4933109 -0.5953680
0.6342261 -0.3363560 -0.6961479
0.6342579 0.7523691 0.1779262
0.6343212 0.6258659 -0.4537934
0.6344477 0.4319568 0.6410066
0.6345279 -0.4213118 0.6479744
0.6345978 -0.0616996 0.7703757
0.6346370 -0.3407519 -0.6936311
0.6348278 0.0072903 0.7726192
0.6348910 0.3423665 -0.6926028
0.6349320 0.7051978 0.3155271
0.6349771 -0.6820119 0.3628552
0.6350633 -0.6096050 0.4744220
0.6350644 -0.6260393 -0.4525130
0.6352944 -0.0934117 -0.7665998
0.6353857 -0.1187210 -0.7630140
0.6354415 -0.6502999 0.4163222
0.6355087 0.7712111 0.0369068
0.6355709 0.2279312 0.7376294
0.6356728 -0.7107719 -0.3012033
0.6357639 0.5704325 -0.5200107
0.6358331 0.6934279 -0.3389307
0.6359239 -0.4803637 -0.6040294
0.6361408 0.5091485 0.5797349
0.6362043 -0.7191199 -0.2794830
0.6363302 -0.0887733 -0.7662919
0.6363457 0.4901164 -0.5956930
0.6363977 -0.5714505 0.5181142
0.6366143 -0.5899001 -0.4967294
0.6366209 -0.0518939 0.7694289
0.6366624 0.6975314 0.3288022
0.6367164 0.1177026 0.7620619
0.6367720 0.5944988 0.4910119
0.6368286 -0.0761595 0.7672347
0.6369224 0.3251724 -0.6989941
0.6369742 0.3622285 -0.6804810
0.6370223 -0.4323806 -0.6381611
0.6371272 -0.6676822 -0.3850577
0.6371970 0.0313946 0.7700613
0.6372085 0.7640470 0.1009829
0.6372691 0.7681869 0.0614565
0.6373807 -0.2923120 -0.7129512
0.6375965 0.0414766 0.7692531
0.6376727 0.3790400 -0.6705984
0.6377835 -0.5321536 0.5568167
0.6378203 -0.6010908 0.4815340
0.6378837 0.3603222 0.6806412
0.6379264 0.7548766 -0.1523520
0.6379713 0.3715690 0.6744842
0.6380226 -0.4526009 -0.6229604
0.6381596 0.3391464 -0.6911816
0.6382784 -0.0356834 0.7689781
0.6383063 0.7411740 0.2079089
0.6383404 0.6924734 -0.3361578
0.6384127 -0.1255140 -0.7593915
0.6384492 0.7544047 -0.1524998
0.6385768 -0.2169446 0.7383459
0.6386461 -0.4336272 -0.6356876
0.6388040 0.7693361 0.0071709
0.6389088 0.4791489 -0.6018404
0.6390405 0.6294428 -0.4420734
0.6391054 0.0742064 0.7655310
0.6391844 0.7080222 0.3002464
0.6392593 0.1585846 0.7524616
0.6392688 0.5939814 -0.4883866
0.6393456 0.1915685 0.7446735
0.6395491 0.0236221 -0.7683872
0.6396375 -0.7460479 -0.1851391
0.6397134 -0.7338028 -0.2286927
0.6398266 0.6784176 -0.3610699
0.6399412 -0.2955972 -0.7092936
0.6400126 -0.7530338 -0.1527218
0.6400565 0.4632162 0.6129914
0.6401110 0.7572053 -0.1299924
0.6402203 -0.1859704 0.7453409
0.6402691 -0.2770739 0.7164394
0.6403259 0.3483769 -0.6845556
0.6404297 -0.1046194 -0.7608578
0.6405141 0.4646165 -0.6114517
0.6405880 -0.2562232 0.7238762
0.6407885 -0.3331766 -0.6916526
0.6408332 0.1181197 0.7585384
0.6409018 0.0124061 -0.7675226
0.6410079 -0.6832076 0.3497658
0.6411106 -0.7451274 0.1837455
0.6411502 -0.5399859 0.5452905
0.6412072 0.6652098 -0.3825562
0.6412581 -0.2578213 -0.7227145
0.6413739 -0.7668654 -0.0236020
0.6414170 0.0967469 0.7610678
0.6416106 0.1056953 0.7597133
0.6416606 0.0672230 0.7640372
0.6417702 0.2295175 0.7317464
0.6418846 -0.5843230 -0.4965388
0.6420080 -0.7631381 0.0737973
0.6421678 0.1797610 0.7451889
0.6422405 0.7462449 0.1750590
0.6423125 0.7585763 -0.1095287
0.6423658 -0.4246612 -0.6379883
0.6424335 0.0223568 -0.7660152
0.6425114 0.2083509 0.7374070
0.6426128 0.3401891 0.6865277
0.6427179 -0.2862616 -0.7106109
0.6427903 -0.6266828 -0.4405557
0.6429356 0.4897872 0.5888482
0.6430278 0.0896607 -0.7605762
0.6430886 0.6219309 0.4468099
0.6431480 0.1339083 0.7539424
0.6431732 0.5020526 0.5781621
0.6432986 0.1292668 -0.7546238
0.6433991 0.2086847 -0.7365381
0.6434610 -0.0126095 0.7653752
0.6435895 -0.2496004 0.7235276
0.6437413 0.0921551 0.7596739
0.6438019 0.4211630 0.6388590
0.6438832 0.7384858 -0.2001329
0.6439973 0.7246451 -0.2452691
0.6441790 0.4622584 -0.6093854
0.6443360 0.2835903 0.7102166
0.6444407 0.3701618 0.6690863
0.6445121 0.0167116 -0.7644115
0.6446341 -0.7641382 -0.0232316
0.6447632 0.6862934 -0.3365736
0.6448876 -0.6100223 -0.4604265
0.6449740 0.7528635 -0.1311680
0.6450518 0.4484423 -0.6187144
0.6451504 0.3413050 0.6835875
0.6451792 -0.7402098 0.1892966
0.6452862 -0.6319269 -0.4292717
0.6454035 0.1098014 0.7559087
0.6456284 -0.4269359 0.6331584
0.6457118 0.0609114 -0.7611479
0.6458423 -0.4166464 0.6397605
0.6459343 0.2557449 -0.7192798
0.6460209 0.4230256 0.6353789
0.6460985 -0.7442641 -0.1691971
0.6463272 -0.6198614 0.4450090
0.6463843 -0.0560747 0.7609488
0.6464341 0.7627868 0.0167144
0.6465435 -0.4808211 -0.5922775
0.6466075 0.7552585 0.1071599
0.6466692 0.0698859 0.7595622
0.6467105 -0.0118021 -0.7626442
0.6467535 0.1044111 0.7555185
0.6468011 0.4640023 0.6052687
0.6468697 0.1584992 0.7459475
0.6469601 0.2952389 0.7030481
0.6470477 -0.0808651 0.7581491
0.6470708 -0.2762894 0.7106080
0.6472005 0.3689671 0.6670794
0.6472596 0.5403691 0.5376395
0.6473124 0.7574495 -0.0851875
0.6474813 -0.4671006 0.6021503
0.6476052 -0.7270041 -0.2281941
0.6477272 -0.5966803 -0.4737320
0.6477766 -0.4781530 -0.5930895
0.6478197 -0.7460247 0.1541977
0.6479657 -0.6263347 -0.4334112
0.6480808 -0.5147657 0.5612553
0.6481573 -0.7611614 -0.0229234
0.6482412 -0.1764746 -0.7407024
0.6482683 0.5844536 0.4880185
0.6483013 0.0089810 -0.7613309
0.6484787 0.3973903 0.6492736
0.6485479 -0.3142921 -0.6932576
0.6487400 -0.2334363 0.7243231
0.6489110 -0.1544409 -0.7450252
0.6489440 0.0517778 0.7590723
0.6490863 -0.3246905 -0.6879413
0.6491625 -0.0579646 -0.7584380
0.6492179 -0.2443774 0.7202748
0.6493019 -0.7422592 0.1657056
0.6493840 0.3846234 -0.6560223
0.6495485 0.4916125 0.5800033
0.6496140 0.5588575 0.5154415
0.6496782 -0.7601969 0.0043566
0.6497037 0.1576629 0.7436582
0.6498425 0.4282853 0.6279143
0.6498976 0.2904006 0.7023537
0.6500458 0.6572755 0.3813520
0.6501967 -0.5977933 -0.4689215
0.6503220 -0.0554696 0.7576307
0.6503747 0.3445485 0.6769778
0.6504820 0.2875887 -0.7029694
0.6505940 -0.6426889 0.4045721
0.6506999 0.1064784 0.7518324
0.6507380 0.3026003 -0.6964001
0.6508839 0.4752976 0.5919817
0.6509352 0.7511769 -0.1096207
0.6509763 0.3063774 -0.6945234
0.6509991 0.7333136 -0.1960901
0.6512586 -0.6863824 0.3236378
0.6512753 0.5080969 -0.5636293
0.6513406 -0.3801750 -0.6566752
0.6514078 0.7391150 -0.1713968
0.6515834 0.7474272 0.1295822
0.6516900 0.3752977 0.6591296
0.6518075 0.4339762 -0.6219418
0.6519401 -0.5821192 -0.4859130
0.6520651 0.3749187 0.6589742
0.6523140 0.0988215 0.7514790
0.6524150 -0.6454305 0.3972078
0.6525558 -0.5408230 -0.5307368
0.6525925 -0.7399015 0.1633057
0.6526681 -0.7467474 -0.1280337
0.6527755 0.7541411 -0.0718010
0.6528556 -0.4808078 -0.5853233
0.6528804 0.7425637 0.1494868
0.6529838 0.1139587 0.7487492
0.6530480 -0.7128541 0.2556704
0.6531406 0.0798593 0.7530138
0.6531671 0.3887254 0.6498195
0.6533186 0.4157188 -0.6327344
0.6534783 -0.0122400 0.7568463
0.6536185 0.0777502 0.7528199
0.6537406 0.7319810 0.1919038
0.6539245 0.5668623 0.5010488
0.6540327 -0.7562064 0.0198267
0.6540916 0.7348398 -0.1793733
0.6541888 0.5081660 0.5601824
0.6542339 -0.2823521 0.7016091
0.6543200 0.6855511 -0.3191943
0.6543747 0.0965015 0.7499875
0.6545182 0.7186056 0.2349721
0.6545644 -0.6954832 -0.2963926
0.6546435 0.7039849 -0.2754036
0.6546632 -0.0387916 -0.7549247
0.6547714 0.4094186 -0.6353352
0.6549529 0.5020901 -0.5647497
0.6550378 0.6984192 -0.2883334
0.6551175 -0.2483200 -0.7135532
0.6552032 0.3693062 -0.6590309
0.6552919 0.2857963 0.6992231
0.6553161 0.3823724 0.6514232
0.6553559 -0.7325957 0.1838807
0.6553754 0.3821660 0.6514846
0.6555450 0.7340278 0.1773808
0.6557216 0.4385220 0.6145955
0.6559155 0.4241665 0.6243858
0.6559531 -0.7529859 0.0523230
0.6560985 0.0129383 0.7545644
0.6562173 -0.1854568 0.7314264
0.6563459 0.4840365 0.5787217
0.6564660 -0.6902627 0.3042857
0.6565735 0.1953608 0.7285227
0.6567593 0.5459212 -0.5202282
0.6568377 0.5657781 0.4984569
0.6569965 -0.0525575 0.7520594
0.6570912 0.5452991 0.5204614
0.6572401 0.7531068 -0.0294221
0.6572552 0.2897071 -0.6957625
0.6573540 0.6941033 0.2934389
0.6574443 0.7505641 -0.0664872
0.6576066 0.7220410 -0.2149659
0.6576909 0.4883496 0.5735480
0.6579015 0.7508227 -0.0585746
0.6580258 0.5001203 -0.5629223
0.6580653 0.2818140 0.6982342
0.6580885 -0.4178058 -0.6263847
0.6581945 0.5707352 0.4909595
0.6584259 -0.7499860 -0.0632164
0.6585590 0.7523150 -0.0179484
0.6586529 0.7224362 -0.2103862
0.6587201 -0.7065936 0.2584828
0.6587563 0.7521122 0.0191636
0.6589403 -0.1518602 0.7367062
0.6590507 -0.1989294 -0.7253133
0.6592714 -0.4187093 0.6245348
0.6593256 -0.6743197 0.3325398
0.6594298 -0.5402752 -0.5227380
0.6595250 -0.1506737 -0.7364266
0.6596274 -0.0859663 0.7466602
0.6597582 -0.0936603 -0.7456185
0.6598310 -0.0939494 -0.7455177
0.6598381 -0.2966845 -0.6903564
0.6598796 0.0259901 -0.7509217
0.6599106 -0.0408616 -0.7502322
0.6600188 -0.6835835 0.3115906
0.6601289 0.7141025 0.2329970
0.6601757 0.3832972 -0.6459500
0.6602418 -0.6381151 0.3960932
0.6603096 0.5913236 0.4629554
0.6603831 -0.7172964 -0.2222163
0.6604922 0.7068760 -0.2531331
0.6605985 0.0478571 -0.7492125
0.6607137 0.3400520 0.6691950
0.6607728 0.3334006 -0.6724754
0.6607978 0.4334613 0.6127458
0.6609358 0.7254485 0.1920635
0.6609804 0.7504026 -0.0009593
0.6611033 -0.6668617 -0.3438574
0.6611940 -0.0388617 0.7492078
0.6613727 -0.0258168 -0.7496130
0.6614045 0.7492841 -0.0334294
0.6614500 0.7450054 0.0863187
0.6615005 -0.3880752 -0.6417279
0.6615600 0.1067733 0.7422518
0.6616859 0.3719814 0.6510004
0.6618014 0.3354977 0.6704179
0.6618429 0.0656707 0.7467606
0.6619196 -0.7151339 0.2246020
0.6620159 0.1123822 0.7410164
0.6621619 0.6927378 -0.2857550
0.6622283 -0.1587533 0.7322917
0.6623059 0.3627530 0.6555617
0.6623839 -0.6888310 0.2945495
0.6624177 -0.4728360 0.5810584
0.6624486 0.7074254 -0.2463964
0.6625996 0.4512624 -0.5977658
0.6627009 -0.0322855 -0.7481879
0.6627671 0.7194058 0.2078341
0.6628268 -0.1416404 0.7352541
0.6628764 0.4600863 -0.5906908
0.6629592 0.0058468 -0.7486327
0.6630892 0.4476751 0.5999164
0.6631943 -0.7423116 0.0956387
0.6632927 0.0505396 -0.7466516
0.6633636 0.0784739 -0.7441710
0.6634458 -0.2740367 0.6962353
0.6634523 -0.5002626 -0.5563886
0.6635927 0.7462373 -0.0526760
0.6637293 -0.1341245 0.7358492
0.6638227 -0.2867265 -0.6907440
0.6638751 -0.3726516 0.6483829
0.6640406 -0.3605096 -0.6550442
0.6641262 0.1024808 0.7405634
0.6642176 0.3458321 -0.6627331
0.6643392 -0.2388077 -0.7082545
0.6644029 -0.2272758 0.7119793
0.6645420 0.1034553 0.7400546
0.6645837 -0.7407887 0.0977785
0.6647252 -0.0833969 -0.7424186
0.6648208 0.2335731 0.7095469
0.6649231 -0.6390529 -0.3866376
0.6650855 0.1850186 0.7234842
0.6652338 -0.0727506 0.7430823
0.6653395 0.1543150 0.7304179
0.6654708 0.3232246 -0.6728108
0.6656193 -0.6613160 -0.3458498
0.6657089 -0.0051739 -0.7461936
0.6657674 0.2764718 0.6930491
0.6657949 -0.7324609 0.1421905
0.6658870 -0.2920454 -0.6865158
0.6659591 0.5826916 -0.4657993
0.6660091 -0.3290938 0.6694245
0.6660622 -0.7457360 0.0154608
0.6660785 0.0193091 -0.7456317
0.6661217 -0.3822536 0.6404405
0.6662621 0.0822664 0.7411661
0.6663738 0.6747121 0.3173478
0.6664962 0.5344109 0.5197959
0.6665790 0.7280482 0.1600570
0.6666190 -0.4379250 -0.6031921
0.6667142 0.1454738 -0.7309786
0.6667454 0.7452770 0.0035817
0.6668615 0.2958973 0.6839156
0.6669277 0.1032360 -0.7379362
0.6670457 -0.5163890 -0.5370219
0.6670853 0.2370540 0.7062596
0.6671956 -0.1212568 -0.7349468
0.6672234 -0.3218426 0.6717368
0.6673989 0.0706426 -0.7413423
0.6674255 0.0681783 0.7415490
0.6675555 -0.6463196 -0.3696492
0.6676086 -0.4619574 0.5838614
0.6677205 0.4570424 -0.5875897
0.6678723 0.0678269 0.7411788
0.6680436 -0.5837671 0.4614475
0.6681655 -0.7208684 0.1841292
0.6683061 -0.6157776 0.4173547
0.6683922 0.7408171 -0.0666465
0.6684851 0.4105631 -0.6201336
0.6685582 0.4494203 -0.5924958
0.6686118 -0.6774482 0.3066302
0.6686469 -0.0296634 -0.7429882
0.6687323 -0.6051041 0.4320256
0.6688333 -0.5189591 -0.5323002
0.6688808 0.3998219 -0.6266905
0.6689457 -0.4192586 -0.6137865
0.6690278 0.3562248 -0.6523079
0.6691844 -0.0056036 0.7430753
0.6693209 0.7007368 -0.2469362
0.6694300 -0.7390784 0.0750101
0.6695096 0.6633069 0.3343365
0.6695864 0.1945203 0.7168095
0.6697247 -0.4824017 -0.5645861
0.6697893 -0.5654504 0.4812984
0.6698675 -0.1108499 -0.7341593
0.6699585 0.4560532 -0.5858080
0.6700546 -0.6201638 0.4079507
0.6701523 0.1848202 -0.7188445
0.6703082 0.7386674 -0.0711146
0.6703823 0.6551782 -0.3483232
0.6704013 -0.0028169 -0.7419933
0.6704897 -0.2062557 0.7126726
0.6705843 -0.1919586 0.7165673
0.6706343 0.1754735 0.7207348
0.6707560 -0.3769814 0.6387263
0.6708155 -0.7403124 0.0440917
0.6708878 0.6545262 -0.3485757
0.6709360 0.2304015 0.7048121
0.6711460 -0.1116561 -0.7328684
0.6712175 -0.1627233 0.7231792
0.6712693 0.3288889 -0.6642512
0.6713282 -0.7180329 0.1837041
0.6714731 0.6906361 0.2685996
0.6715487 -0.2859026 0.6835803
0.6715508 0.2555198 -0.6955064
0.6717642 0.5653530 0.4786532
0.6718918 -0.5318591 -0.5154486
0.6719315 0.7364770 -0.0781647
0.6719717 -0.4406679 -0.5952024
0.6720073 0.2583197 0.6940297
0.6722035 0.1483572 -0.7253499
0.6723124 0.0224980 -0.7399256
0.6724025 0.4181329 0.6107698
0.6724529 0.7366650 0.0716360
0.6729048 0.6556939 -0.3424393
0.6730056 0.7332622 0.0969018
0.6730690 -0.0469110 -0.7380904
0.6731192 -0.2789868 0.6848919
0.6732940 0.7236000 -0.1519154
0.6734793 0.6964580 -0.2477336
0.6737693 -0.5405393 -0.5038375
0.6738308 0.0555525 -0.7367944
0.6739116 -0.2542958 0.6936691
0.6739467 -0.7107579 -0.2015418
0.6740331 -0.3159577 0.6677202
0.6740430 -0.4712721 -0.5688310
0.6741245 -0.4562859 0.5808265
0.6741798 0.4278045 -0.6020507
0.6742668 0.2551514 0.6930094
0.6743868 0.4085639 0.6150430
0.6745397 0.7151224 -0.1832924
0.6746168 0.0342348 -0.7373738
0.6746770 -0.0533344 0.7361837
0.6747807 0.4518376 -0.5835356
0.6748066 0.5111486 0.5323187
0.6748886 -0.6508287 0.3477749
0.6749714 0.7229411 0.1475460
0.6752313 -0.6584100 0.3325040
0.6752763 0.0291390 0.7369890
0.6753191 -0.2587141 -0.6906599
0.6753629 -0.7071916 0.2092005
0.6754476 -0.7027576 0.2233883
0.6755542 0.0144595 0.7371685
0.6757347 -0.6868264 -0.2676794
0.6758347 -0.4213907 0.6047126
0.6759326 -0.2824331 0.6806957
0.6760124 -0.0386284 0.7358771
0.6760810 -0.5178308 -0.5241809
0.6761693 0.2089778 -0.7064867
0.6762823 -0.1300008 -0.7250807
0.6763329 0.7233640 -0.1389906
0.6764985 -0.3875645 0.6262137
0.6766125 0.2676286 -0.6859814
0.6766614 -0.0213070 -0.7359860
0.6767716 -0.7025189 -0.2201078
0.6768502 0.7064096 0.2070247
0.6769628 -0.2293864 -0.6993591
0.6770123 0.5045462 -0.5358054
0.6770735 -0.2388151 0.6960882
0.6770924 -0.0713421 0.7324317
0.6772100 0.7228621 -0.1373207
0.6773526 0.1393809 -0.7223340
0.6774957 -0.0887764 -0.7301496
0.6775533 -0.1290642 0.7240608
0.6776419 -0.0053007 -0.7353729
0.6777328 0.2400482 -0.6950217
0.6777828 0.0436281 -0.7339666
0.6778981 -0.0223281 -0.7348168
0.6779596 -0.1182122 -0.7255320
0.6781218 -0.1612988 0.7170311
0.6782148 0.5938698 -0.4328318
0.6782851 0.2723411 -0.6824658
0.6783134 -0.2047718 -0.7056624
0.6783672 0.5404585 -0.4977174
0.6784262 -0.7230520 -0.1301293
0.6786060 0.7045195 0.2077165
0.6788263 0.7055905 0.2033147
0.6789310 0.0125528 0.7340948
0.6790669 -0.6684444 0.3033977
0.6792475 0.5792042 0.4507164
0.6793598 0.5938013 0.4311267
0.6796095 0.0713174 -0.7300992
0.6798289 -0.0746991 0.7295565
0.6799569 -0.2503498 0.6891906
0.6800026 0.6512696 -0.3368152
0.6800368 -0.7331704 0.0033136
0.6801047 -0.7201786 -0.1371142
0.6802162 0.7171617 0.1516075
0.6802451 -0.3755813 0.6294484
0.6803389 0.0289303 -0.7323265
0.6803968 0.7318302 -0.0385331
0.6804759 0.1622236 0.7145880
0.6807394 0.7258228 -0.0988697
0.6808584 0.3965182 0.6157963
0.6809711 0.3350540 -0.6511660
0.6811431 -0.1502601 0.7165654
0.6812224 -0.1751392 -0.7108181
0.6812967 0.1848802 -0.7082754
0.6813849 -0.6901778 -0.2436579
0.6814231 0.1103510 -0.7235228
0.6816023 0.7161969 0.1499341
0.6816357 -0.0936661 0.7256718
0.6817138 -0.5816319 0.4438137
0.6819826 -0.3894492 0.6190549
0.6820335 -0.0668021 0.7282635
0.6822590 0.4527714 -0.5740391
0.6823272 0.3049974 0.6643840
0.6824357 0.6996797 0.2114942
0.6825150 -0.3645841 0.6334443
0.6825407 0.6240736 -0.3803555
0.6825660 0.6521352 -0.3298838
0.6826395 -0.0516729 0.7289260
0.6828571 -0.7296139 0.0370102
0.6829168 0.7223563 0.1087482
0.6831556 0.0591139 -0.7278764
0.6832186 0.5069134 0.5255960
0.6833106 0.6580654 -0.3162855
0.6833812 -0.4461020 0.5779128
0.6834576 -0.6090252 -0.4024600
0.6835405 0.5050820 0.5269389
0.6836100 -0.5765370 0.4475291
0.6836279 0.4917646 0.5392777
0.6836419 -0.2327099 0.6917224
0.6837464 0.1152588 0.7205597
0.6837835 0.6938470 0.2258683
0.6838876 0.3795131 -0.6231112
0.6839599 -0.1375292 -0.7164388
0.6841156 0.7022123 -0.1971895
0.6843401 -0.5801621 -0.4416906
0.6843755 0.7118333 -0.1578718
0.6845498 0.2388096 0.6887391
0.6847235 -0.4526867 0.5711641
0.6848473 -0.6669432 0.2935489
0.6850453 0.7251555 0.0697315
0.6852180 0.0959150 -0.7219949
0.6853056 -0.7080361 0.1704144
0.6853312 -0.5683034 0.4553597
0.6854563 0.3961449 -0.6109164
0.6855249 -0.4204104 -0.5943995
0.6857019 0.0239437 0.7274886
0.6857368 -0.0798548 -0.7234558
0.6858736 0.7216820 -0.0935547
0.6859479 0.3325902 0.6471933
0.6860236 0.0903965 -0.7219419
0.6861422 -0.3107628 0.6577501
0.6862514 0.1173881 0.7178293
0.6863437 0.5222997 0.5060981
0.6863825 -0.1064522 -0.7194074
0.6865553 0.3514229 0.6365090
0.6866187 -0.0983513 0.7203345
0.6866817 -0.0091146 0.7269011
0.6867152 -0.2518914 -0.6818893
0.6868338 -0.7109447 0.1510532
0.6869275 -0.4387757 0.5793156
0.6871258 0.6846749 -0.2430604
0.6871775 -0.7174563 -0.1142084
0.6872356 -0.4981327 0.5287448
0.6872722 0.6627694 -0.2973108
0.6873791 0.3582600 0.6317909
0.6874924 0.4569943 -0.5643672
0.6875244 -0.6864385 0.2368806
0.6875927 -0.4542081 0.5664903
0.6877264 0.3866848 0.6144163
0.6877889 -0.0464934 0.7244202
0.6878266 -0.3128154 0.6550123
0.6879888 -0.0514100 -0.7238981
0.6880969 0.4540806 -0.5659802
0.6881789 0.5952687 0.4148072
0.6882557 -0.3796781 -0.6181817
0.6884396 -0.4650674 -0.5565637
0.6884884 0.4669336 -0.5549385
0.6885164 -0.0720257 -0.7216352
0.6885678 0.1162851 0.7157878
0.6887248 0.0586240 0.7226488
0.6887942 -0.4330135 0.5814309
0.6888923 0.3705019 -0.6230215
0.6889532 0.3364796 0.6419696
0.6890551 0.5506717 -0.4711302
0.6891250 0.3538725 0.6323614
0.6892876 -0.3684379 -0.6238078
0.6894195 0.5446476 -0.4775560
0.6894626 -0.7068346 -0.1581965
0.6895639 -0.1230403 0.7136965
0.6896485 0.2455685 -0.6812349
0.6898789 -0.1361799 -0.7110008
0.6900176 0.0692421 0.7204730
0.6903714 -0.2360970 0.6838461
0.6904965 -0.6357685 -0.3449825
0.6906079 -0.4546571 0.5624479
0.6906692 -0.0202356 0.7228877
0.6907795 -0.6930834 -0.2060560
0.6909090 0.2071805 0.6926190
0.6910826 0.6188604 -0.3733853
0.6912155 -0.3513591 -0.6314807
0.6913434 -0.6449387 -0.3257277
0.6914493 0.2483453 0.6783970
0.6915519 0.6405261 -0.3338895
0.6916170 -0.4540537 0.5616948
0.6916916 -0.4517433 -0.5634631
0.6917286 0.3625001 -0.6245842
0.6917954 0.1751885 -0.7005200
0.6918464 0.4938772 0.5267200
0.6919508 0.7207682 0.0411972
0.6919820 -0.1153475 -0.7126401
0.6921220 0.7197153 -0.0545633
0.6922659 -0.1251677 0.7107046
0.6922921 -0.2043505 0.6920784
0.6923786 0.0601009 -0.7190270
0.6924862 -0.7192048 -0.0566338
0.6925435 0.5141660 -0.5059812
0.6925838 0.6237161 0.3623615
0.6927411 -0.1796962 0.6984404
0.6928598 -0.0887156 0.7155940
0.6929651 -0.6470553 -0.3179917
0.6930236 -0.2054322 -0.6910253
0.6930875 -0.5327794 -0.4855674
0.6931237 0.3218371 0.6449810
0.6932488 -0.1984968 0.6928241
0.6935073 -0.3642495 0.6215866
0.6935725 -0.4492596 0.5631368
0.6936176 -0.1502807 0.7044929
0.6936429 -0.6150282 -0.3749666
0.6936531 -0.6994295 -0.1721736
0.6937133 0.2710580 -0.6673002
0.6938158 0.0988305 0.7133387
0.6939996 0.0309078 -0.7193116
0.6940723 -0.6016822 0.3952748
0.6941968 -0.1126417 -0.7109168
0.6942832 -0.4001529 0.5982044
0.6943215 -0.3171888 0.6459945
0.6943785 0.6638695 -0.2776974
0.6943982 -0.3004872 0.6538490
0.6946325 0.1404216 -0.7055264
0.6946387 -0.1788970 -0.6967589
0.6947641 -0.2647911 0.6687216
0.6947871 -0.5521604 0.4608575
0.6949148 0.1604824 0.7009557
0.6950235 0.6546781 0.2972185
0.6951268 -0.0581805 0.7165290
0.6952893 0.0142097 0.7185895
