# .PCD v0.7 - Point Cloud Data file format
VERSION 0.7
FIELDS x y z
SIZE 4 4 4
TYPE F F F
COUNT 1 1 1
WIDTH 1534
HEIGHT 1
VIEWPOINT 0 0 0 1 0 0 0
POINTS 1534
DATA ascii
43.91386 -40.68523 -32.117413
51.807537 -42.811939 -31.408274
107.77238 -36.243065 -55.627941
58.995941 -42.595421 -31.033421
116.37003 -36.276703 -55.383263
58.44709 -42.193829 -39.57901
-131.97716 -59.839066 -94.68425
123.88205 -37.111195 -55.612366
-123.6411 -60.253349 -94.593781
131.46411 -37.091057 -55.406872
-116.0681 -60.691284 -94.349785
139.14993 -37.532001 -55.376163
-107.97607 -59.905994 -94.736343
-100.04892 -59.985397 -94.396416
147.83195 -37.940426 -55.293125
-92.231346 -60.974644 -94.21682
155.60736 -37.80867 -55.052143
161.90683 -38.184811 -54.869576
-84.240822 -61.449165 -94.288322
-76.199898 -61.292873 -94.444778
-20.245451 -47.789047 -120.79514
-67.774101 -60.774387 -94.933754
-11.805024 -49.061661 -118.58564
-60.019821 -61.056168 -94.603851
-5.2623591 -47.914768 -120.66858
-3.6022053 -48.633816 -119.20431
4.2166309 -48.517445 -119.0601
-52.117592 -61.63089 -94.248093
93.510475 -30.653885 -31.723272
99.836731 -27.675932 -31.137333
-147.49927 -32.67532 -62.774441
105.56236 -24.770704 -30.216818
108.73005 -23.945082 -19.75956
104.18427 -23.99345 -35.639977
-20.233452 -61.564655 -94.226868
-131.52151 -33.267067 -62.45953
-123.48547 -33.161793 -62.155964
-12.045317 -61.392548 -94.578796
-115.85995 -33.542946 -62.015007
52.756561 -46.440086 -118.14623
-116.4925 -37.78664 -64.277893
60.957146 -46.580093 -117.92085
-107.75314 -34.042732 -61.970776
-99.913857 -34.147102 -61.748062
68.152481 -46.87468 -117.65258
-91.925377 -34.835911 -61.839977
-90.868736 -25.11936 -48.217747
-91.612358 -28.292213 -58.41275
-84.023804 -34.788898 -61.520119
-28.064905 -51.638611 -68.277031
69.002251 -38.725067 -22.464972
139.81332 -33.554287 -53.30444
147.63228 -34.125328 -53.341591
88.97271 -32.623322 -15.831396
155.68564 -33.712906 -52.89423
161.80205 -34.325081 -52.796196
-78.074661 -55.704239 -72.127594
-19.777166 -67.945229 -77.014648
-11.680741 -68.028542 -76.981773
12.250386 -68.318214 -76.543716
109.48515 -23.931845 -12.445928
52.072056 -66.049545 -84.593559
59.983376 -66.048981 -84.258774
84.266495 -25.203943 11.121991
84.127121 -28.334641 4.6491652
4.2940474 -61.388279 -94.26046
12.090997 -61.219906 -94.343758
91.168907 -24.547482 10.594067
91.787201 -26.797932 4.8970942
19.950516 -60.93092 -94.582146
75.413849 -46.718899 -117.6702
28.104265 -60.461849 -95.045006
83.926956 -47.005669 -117.94916
28.393082 -63.600677 -89.673767
35.847015 -60.56765 -94.511665
-74.369759 -32.869072 -49.351238
35.964931 -63.606544 -89.359886
-67.998695 -35.371101 -49.496254
43.611698 -60.329842 -94.588013
44.403797 -63.54686 -89.128662
-60.259533 -38.154682 -49.688171
-57.134319 -40.296291 -46.761574
-50.15712 -40.576935 -56.158039
-51.891651 -41.518028 -49.535648
-44.590374 -42.611465 -50.251945
-44.069748 -41.89616 -58.106293
-35.387135 -41.624432 -49.94738
-36.051502 -53.073956 -112.59342
-27.821241 -52.924206 -112.62516
-20.011312 -52.822071 -112.53642
-4.2348843 -52.412598 -113.10146
-62.302464 -39.090199 -30.648962
-61.699127 -38.285637 -40.74551
-53.387241 -41.829826 -31.50264
-51.948044 -42.369476 -41.017021
-139.82556 -36.938732 -64.70723
52.764763 -31.463711 8.0965652
60.917244 -30.67522 5.7776694
-131.48462 -37.280655 -64.568825
-75.841568 -51.912495 -70.102089
-67.803719 -51.694157 -69.693436
-123.85065 -37.006172 -64.154724
-60.037121 -52.250496 -69.706123
79.366013 -31.410015 -0.97766197
-51.98909 -52.012947 -69.298035
4.1695824 -52.304615 -112.93532
85.066933 -31.160831 -3.5671849
92.474472 -30.984705 -13.350588
-43.711422 -52.101727 -69.048759
92.094048 -29.638037 -4.7227082
-36.1297 -52.080448 -68.783722
100.1287 -27.105249 -4.792171
99.446701 -28.321804 -13.38902
108.10042 -23.951393 -2.120589
105.94566 -25.095665 -5.1303892
106.49451 -25.411978 -12.974475
-68.15712 -36.024464 -22.280544
-67.838699 -36.230404 -31.390381
-60.761257 -38.417629 -22.075825
-56.992439 -40.521599 -26.239426
-51.611778 -40.347809 -23.457264
51.976719 -28.636654 13.410884
60.061745 -27.066864 13.312647
43.68227 -66.140892 -84.808884
79.82383 -23.868349 14.054873
-64.215767 -32.370419 -7.5165248
-67.99955 -33.912624 -13.620311
-58.833542 -33.061516 -7.1354418
-59.931179 -35.503891 -13.252314
161.84209 -11.714787 -41.06448
51.856369 -24.864349 19.530867
58.508904 -24.500965 19.077541
-20.030045 -51.701111 -68.038895
-12.099749 -52.191807 -67.99839
43.758808 -68.321617 -75.806259
-11.933809 -46.359688 -64.682053
155.93788 -67.161476 -70.311462
99.683777 -43.779812 -59.776691
107.96912 -43.535774 -59.403873
161.87106 -66.571861 -69.691589
-48.140976 -32.199734 0.438714
116.03029 -44.055649 -59.454567
116.1713 -53.680866 -64.445862
-43.628983 -32.628429 0.90673226
124.32005 -53.731438 -64.214401
124.10638 -44.131672 -59.250664
123.94717 -49.94458 -62.258972
132.03555 -43.923107 -58.892479
131.66982 -54.173584 -64.225151
131.62053 -49.989578 -62.085667
139.92494 -54.184193 -63.998615
139.64529 -49.96703 -61.813587
148.36661 -54.362068 -63.811195
147.64351 -50.159187 -61.684822
46.074986 -39.956753 -26.878378
47.467133 -39.889061 -28.401245
48.230598 -39.97551 -26.121912
161.63245 -54.44796 -63.384949
67.761086 -65.889015 -84.197929
-84.312164 -28.305243 -49.54723
-84.199913 -28.023371 -57.067627
-78.205795 -31.182838 -50.024643
-76.350037 -30.775528 -57.463276
-12.068582 -46.356579 -49.643677
99.753746 -65.222549 -83.558144
-11.974808 -46.584614 -58.383423
-3.957166 -46.870102 -49.099373
-4.1234293 -47.037029 -57.793465
-76.015694 -53.468376 -112.48853
-67.913406 -53.577641 -112.09116
-59.879398 -53.380939 -112.45674
-51.923466 -53.222061 -112.88329
140.02095 -43.874001 -58.662338
147.94139 -43.86961 -58.420547
-44.125984 -53.41481 -112.08273
102.34698 -23.188984 -47.672623
156.3895 -44.081959 -58.306587
103.14004 -23.688557 -41.346046
53.558681 -39.042049 -10.649294
108.67343 -20.795439 -47.190868
107.92445 -20.874092 -40.190884
-76.06488 -66.514053 -85.195007
60.222462 -38.418785 -11.949073
114.5946 -17.027662 -40.127102
115.84243 -20.375435 -47.082005
67.746376 -37.616142 -13.349421
123.80093 -16.221039 -44.697643
76.027618 -36.045692 -13.735084
75.884232 -33.506927 -4.9835515
76.567436 -36.540058 -22.503796
84.160446 -33.890949 -13.473572
82.771721 -32.708836 -7.0596857
-99.830299 -43.700195 -66.705582
156.18152 -28.107546 -49.943737
-91.841705 -44.074852 -66.618034
162.12514 -27.71175 -49.466564
-83.872856 -43.825657 -66.206879
-75.957016 -43.847515 -65.920235
-68.28537 -44.075455 -65.77877
-3.9356024 -67.995461 -76.817039
-60.08437 -44.321674 -65.615601
4.2704949 -67.846336 -76.346764
19.731915 -68.121498 -76.121513
-36.075535 -45.043362 -65.0896
28.125078 -68.376289 -76.048645
-28.280432 -45.177826 -64.732506
35.86002 -68.283432 -75.829086
-20.600517 -45.745415 -64.573044
35.597504 -66.493057 -84.548828
126.04727 -14.911123 -4.0069327
124.8199 -14.638229 -13.1907
127.40825 -11.018984 -20.068975
100.18894 -54.26244 -104.67895
100.13232 -50.680561 -111.76958
128.87718 -9.0590191 -23.129503
52.128769 -68.481857 -76.033272
-57.658363 -40.795994 -39.864628
-58.298664 -40.747952 -31.791784
59.940598 -68.806816 -75.889786
-106.41602 -17.711607 -39.711086
-108.26975 -18.511423 -31.214359
-96.053497 -24.248835 -39.821037
-100.02682 -21.624199 -40.584591
-94.958908 -23.875187 -43.247726
-91.302544 -26.624937 -40.642914
-35.843719 -42.131149 -31.134109
-84.150612 -30.06365 -41.118416
-27.967417 -44.022083 -40.559864
-27.929655 -44.792534 -31.577299
-20.000973 -45.05756 -40.493576
-19.864288 -45.81715 -49.325623
-11.961808 -45.662514 -40.499527
-4.0420513 -46.427559 -40.475132
68.434921 -29.898287 5.2561126
134.20828 -17.187914 -44.815178
76.510002 -29.463196 4.5014029
140.23111 -16.555916 -44.347973
-163.50847 -15.341551 -54.221207
148.32697 -17.015869 -44.324738
-157.76508 -15.254674 -54.04517
99.262115 -25.482553 3.362062
155.77827 -17.290384 -44.295856
104.52553 -24.599403 0.72549498
162.16318 -17.06551 -43.67474
-75.285324 -34.708336 -60.38168
-76.017517 -38.810112 -63.329235
-67.926224 -35.046467 -59.356899
-68.421783 -39.413498 -63.352402
-60.161037 -39.59375 -63.193939
-60.011166 -37.199512 -58.575127
-52.097759 -44.059109 -65.207916
60.332779 -54.019753 -105.94009
-52.390079 -39.236351 -59.513073
-44.022293 -44.053497 -64.900352
67.950974 -54.190613 -105.17757
-47.69598 -39.753784 -61.796841
75.789055 -54.043179 -105.39568
84.101357 -54.00367 -105.42853
92.753357 -54.10339 -105.1627
-101.33759 -22.617064 -31.986889
-19.715555 -45.569347 -31.458113
-12.049056 -46.098072 -31.333752
84.216606 -22.403814 15.931334
92.188042 -22.304667 14.447856
100.0633 -21.271629 13.796807
108.03855 -19.602932 13.46302
115.53745 -17.518883 12.762322
121.23887 -16.162313 10.312996
108.11644 -65.237167 -82.945526
84.923561 -15.330007 26.077791
-107.46401 -17.252733 -51.896496
92.783295 -14.958026 25.916519
-100.32526 -18.997066 -49.652988
100.29855 -14.672423 25.224991
-94.14164 -22.617769 -50.341084
108.28466 -14.065632 24.217232
115.84911 -13.331021 22.497942
35.61911 -47.028137 -63.704586
123.41685 -10.796122 22.677301
44.190838 -46.894085 -63.347301
99.732002 -68.801514 -76.205338
107.82367 -68.628113 -76.188728
11.922069 -18.252169 29.682968
20.080837 -18.205482 29.856865
-116.14498 -21.106199 -55.518536
28.687321 -10.767043 38.996227
27.734207 -18.014374 30.069944
-107.94079 -21.09915 -55.23756
36.611931 -11.033227 38.618362
35.89666 -17.975288 30.066746
-99.790115 -21.910583 -55.40276
44.047348 -18.184841 29.589729
44.125187 -10.780854 38.773266
-92.29303 -23.093493 -55.160744
51.741302 -17.916052 29.48855
51.640121 -10.364023 38.976334
110.54414 -23.104942 -4.0800633
-27.928951 -44.983063 -58.312309
-20.219114 -43.399323 -22.449099
-79.675499 -31.866493 -22.472347
115.85262 -9.2989502 29.431431
44.222988 -43.728764 -58.906841
-115.78738 -17.185837 -53.495567
-28.006958 -41.103706 -15.053967
-75.8395 -28.670731 -4.7925677
-76.983879 -31.203459 -12.422926
-70.854698 -31.960081 -9.8582401
-68.22065 -29.951559 -4.2238483
77.024117 -15.493265 26.140984
-163.92494 4.9853864 -43.541683
84.288979 -11.609868 30.883423
-84.520164 -21.684656 5.5620852
-83.674576 -17.781208 11.979484
-76.262665 -22.394651 6.8680434
-75.239677 -25.397879 2.1928647
-75.741982 -18.530954 12.611095
91.89473 -36.018574 -56.030602
99.994545 -36.262749 -55.876068
-67.851852 -25.879675 3.3194664
-113.80318 -16.779922 -12.396678
86.166771 -31.155201 -50.541862
91.973068 -29.139427 -50.145729
36.116508 -38.184593 -3.4844308
94.809456 -32.081974 -53.845695
100.48031 -32.153187 -53.732876
99.297577 -27.288177 -50.400669
44.180855 -37.959721 -4.2269483
110.22408 -32.953594 -53.814823
-57.942253 -24.961403 9.7064466
-140.03122 -49.76606 -71.367844
115.94868 -32.841892 -53.580593
-131.60449 -49.653141 -70.998512
123.91084 -32.948025 -53.439007
-123.55202 -50.183403 -70.950081
131.73451 -33.155617 -53.320591
-116.17326 -50.373451 -70.764465
-28.176071 -24.250267 18.101864
-108.23083 -50.642292 -70.61879
-21.027145 -24.611845 18.59124
-100.08643 -50.893486 -70.438828
100.41226 -52.84486 -64.443977
-113.2724 -16.442282 -5.744947
108.59694 -53.140198 -64.348625
-107.866 -18.664196 -4.4871969
-108.10382 -19.84086 -13.333246
52.012009 -37.215 -4.5129838
51.85099 -33.826134 3.4601152
59.933907 -35.434284 -4.1538043
59.381371 -33.072414 1.9834322
67.735344 -34.559975 -4.4750814
68.435333 -32.202679 0.79544061
-4.0982747 -61.415154 -94.425148
-36.458797 -16.403873 27.722347
-163.56848 -20.065203 -56.719578
-28.33139 -17.047626 28.060163
-156.17856 -19.843975 -56.365944
-19.243361 -17.437681 28.67695
-92.033958 -51.050117 -70.225967
-148.29875 -19.399647 -55.862404
-147.91393 -27.797018 -60.225174
-139.97559 -27.960033 -60.017994
-84.135612 -51.425209 -70.135002
-131.43474 -28.000109 -59.740479
117.88948 -13.975803 -41.967987
-123.57529 -27.970352 -59.418648
-115.9832 -27.949509 -59.098629
-107.93359 -27.89332 -58.790604
-99.765251 -28.102682 -58.601952
101.36694 -23.695946 7.2718263
108.53257 -22.276241 4.7965121
116.02779 -19.613848 4.0064759
121.5853 -17.109491 3.7853532
147.83643 3.5398285 -33.495644
155.89494 4.1351066 -32.941555
-80.542068 -32.092567 -21.308878
161.90591 3.1413834 -33.096081
-75.903656 -33.377605 -22.454781
-122.32225 -9.1320744 -21.567921
-116.67883 -13.321197 -22.276596
-115.90956 -12.634997 -31.656643
-52.063396 -39.39735 -20.747274
-49.591255 -39.515968 -30.266064
139.42609 -4.830605 -3.6885469
-45.22747 -39.592117 -25.889032
-44.50967 -39.250359 -31.893948
-39.749405 -39.973225 -31.274948
84.529961 -48.431999 -62.676552
84.229561 -52.39373 -64.737534
91.741974 -48.824661 -62.67482
91.880539 -52.692001 -64.638298
92.055099 -43.983772 -60.140331
99.606277 -48.660492 -62.303684
-120.78687 -8.7204342 10.148458
-115.59828 -9.7246819 12.683417
107.8839 -48.942295 -62.200867
-116.22449 -12.713232 4.259872
-108.92742 -15.052833 5.9780359
-107.99693 -11.512385 13.929545
-106.39848 -17.325432 2.4430356
22.591763 -63.979328 -89.220795
-140.38251 -20.287046 -56.039444
-138.22 -16.413742 -53.866188
-134.40764 -16.05517 -53.482918
-123.61398 -16.731424 -53.512844
67.940575 -22.810427 16.428036
128.99928 -7.9452024 -25.508209
75.966957 -22.712696 16.179317
135.21736 -6.582438 -17.275738
-163.80576 -4.147048 -48.356766
-164.38054 1.1255826 -45.612209
137.17538 -4.4271288 -15.459146
-156.09013 -3.8408973 -47.979885
-155.60588 1.191448 -45.290939
-156.06166 4.6378684 -43.461567
-147.85703 0.726116 -45.204105
-148.1624 4.2064843 -43.410717
-148.17029 -3.9295979 -47.701393
-140.04373 3.7961051 -43.319118
-140.17639 -4.0236435 -47.467503
-27.857819 -44.443901 -49.131218
-131.49451 -3.7593086 -46.992962
118.715 -15.303236 16.093998
-131.95636 3.3734927 -43.156471
-124.25808 -4.507637 -47.121246
-126.60061 0.76217657 -41.258217
124.39758 -13.628536 13.584541
129.54846 -8.9905777 20.8522
131.06816 -10.108447 13.509456
-118.04937 -6.1878691 -47.341286
3.9832387 -46.597813 -40.384502
116.5794 -65.206596 -82.462585
4.1389837 -47.071117 -49.513111
124.1156 -65.06813 -82.818848
11.832092 -46.427464 -40.014256
-97.584167 -24.692333 -13.850284
-91.991913 -26.68305 -13.214527
131.6418 -65.028427 -82.770836
-91.572914 -24.89472 -5.7740669
139.55493 -65.089317 -82.577454
-83.962112 -26.615107 -4.5935082
-84.083466 -29.27825 -13.170966
-74.339462 -32.936123 -15.839625
-131.539 -3.9413691 -4.6573896
-130.8884 -3.7290099 -13.304109
-127.08694 -7.7756901 -2.8348539
-123.32455 -10.402738 -13.391415
-127.2307 -7.2587352 -14.324615
51.935345 -42.961784 -49.680714
52.112171 -42.895973 -59.174858
58.683521 -41.07439 -50.364632
-123.61596 -52.83952 -112.61864
67.670662 -43.457256 -60.71722
-116.3068 -52.805851 -113.02016
76.037064 -44.433712 -60.921909
-108.2852 -52.605606 -112.12064
84.331192 -44.074039 -60.447334
-99.948792 -52.342007 -112.76787
-91.885139 -53.134422 -112.57726
-83.819786 -53.379124 -112.55085
56.761024 -47.974056 -63.445858
116.11469 -68.634193 -75.794144
-110.48894 -13.927464 -41.424862
-27.920868 6.6132836 54.904934
124.00905 -68.559608 -76.199059
-42.958309 -39.596107 -40.024906
-19.736473 6.0961542 55.240223
64.434608 -47.925224 -63.190311
132.05968 -66.310608 -70.462708
-39.056969 -39.897533 -41.288109
132.04825 -68.505089 -76.209229
-12.217627 5.7012548 55.50565
140.06702 -68.114449 -77.143326
139.83698 -47.777054 -116.67121
140.20825 -67.142784 -70.666763
-3.824146 5.4972453 55.926872
4.4035287 4.9933596 55.854
28.627537 -6.8243651 43.548206
36.221481 -6.5175047 43.845074
35.550442 -8.0427513 42.120457
-97.3442 -24.831678 -22.112333
36.240135 1.1985178 52.252682
43.917332 -6.7544646 43.452511
44.261433 1.6317168 52.550808
44.026993 -2.7226021 47.933758
52.194954 1.5727818 52.211903
51.608418 -6.4569426 43.468082
52.09132 -2.3280404 48.0392
-92.014442 -14.194295 15.217759
-84.06057 -14.595371 16.432327
-27.841858 -33.403145 2.9545274
-91.650223 -6.6943035 25.420095
-91.609581 -10.053368 21.063351
-84.100075 -10.73085 21.629442
-163.97095 -36.148422 -65.142593
-91.856522 -2.7524459 30.215345
-60.09436 -55.207775 -106.14202
-84.157829 -3.5131276 30.601042
-163.81361 -28.244675 -60.972118
-156.01022 -36.462399 -65.040535
-154.95093 -32.492226 -62.890209
-156.04773 -27.820173 -60.565163
45.52026 -31.806019 8.7538452
-65.871811 -8.8040247 28.925093
43.412251 -34.201763 4.2731829
109.32194 -22.133675 -31.41371
114.49748 -19.032181 -29.973591
-42.296242 -8.8771362 36.237633
-52.176159 -25.290308 11.491302
-44.307167 -26.197145 12.080844
3.6947064 -66.560349 -85.263206
11.73784 -66.50309 -85.204323
19.85804 -66.385727 -85.23896
43.851612 -29.035238 13.701184
110.60742 -22.833418 -23.033144
27.547844 -66.537872 -84.759544
63.284992 -23.0994 17.973684
115.31732 -20.180979 -21.61146
59.574993 -21.557102 23.244558
68.152908 -26.121601 11.567154
68.065819 -18.736641 22.013859
-42.532444 -0.557693 45.708935
-35.202724 -8.9907703 37.104553
-36.034668 -1.2567798 45.773975
75.365654 -25.580301 11.82395
76.034523 -18.95435 21.521702
83.841965 -18.329182 22.001385
-27.394461 -9.2035713 37.809227
-163.70074 -11.358797 -52.165501
-28.589161 -1.4339755 46.44849
-155.78882 -11.678453 -52.080372
-20.101719 -2.0591984 46.673588
91.543472 -18.442738 20.994087
-19.659805 -9.9019756 37.867725
-148.21124 -11.718563 -51.836918
99.785805 -17.466429 20.902536
75.631943 -47.734089 -116.08781
-80.567764 -32.113297 -38.97438
-139.83665 -12.030613 -51.656071
-76.15918 -33.602684 -40.308311
-131.44711 -11.833779 -51.25116
-68.263756 -36.256886 -40.417534
69.916962 -15.269995 26.192835
-114.57275 -10.860906 -40.157272
-163.82043 12.283452 -39.652092
-163.13213 7.6184559 -42.159153
-155.82254 12.015895 -39.561844
-156.76143 7.7579961 -41.832279
-148.64345 7.8433523 -41.479721
-8.4016924 -40.014961 -8.301281
-1.4210525 -40.198753 -8.0031967
-4.1578326 -42.132034 -13.652617
62.273777 -39.331329 -43.769604
62.901726 -39.190979 -47.454422
68.458878 -38.535057 -40.933449
68.222748 -37.908356 -49.445271
76.310104 -36.032688 -41.105499
76.097076 -35.363873 -49.637661
83.54081 -33.527481 -40.00602
82.954849 -32.809727 -48.975697
33.833183 -40.335171 -8.6152372
-128.84851 -0.91536051 19.31934
-147.25739 -49.283283 -71.399429
-123.5565 -2.1201377 21.569611
-123.93811 4.4325442 31.206745
-116.04348 -4.0895452 22.453505
-113.7387 -0.72199571 28.061026
-116.31319 3.1430194 32.183025
-108.35809 -5.3577499 23.368484
-108.53468 2.2809837 33.154102
-51.802948 -18.335892 22.124392
-100.24242 1.5884881 33.929024
-99.975945 -6.2195525 24.337994
-44.003799 -19.428493 22.23028
-91.835365 -27.46582 -32.226303
107.04604 -17.056759 19.536732
-84.363068 -30.625679 -31.165197
-128.13696 -1.8745947 -30.847305
-79.926285 -31.360262 -43.636711
-124.4811 -4.4177356 -32.139458
-122.52805 -3.2548277 -40.813366
50.792267 -47.574108 -63.404675
-163.44394 21.119823 -34.907711
83.205162 -7.5328617 35.886971
-155.82202 20.611975 -34.983803
92.355164 -7.4746304 35.547878
-147.52773 12.046938 -39.223087
-147.78329 20.705849 -34.649921
100.56594 -7.5697489 34.851295
-140.1127 12.209065 -38.86805
-141.90341 19.184151 -35.308655
108.31336 -6.7207384 34.849884
-139.08743 7.9157219 -41.11705
108.21104 0.80794746 43.975399
116.48956 -6.187078 33.786064
148.07852 -66.777267 -70.279762
116.09274 1.3666664 43.5942
-135.44449 7.7953281 -41.063545
-134.52344 9.6271343 -39.529167
124.37238 -5.2180467 32.319939
-122.95208 -9.4586163 3.6991401
126.33626 -7.9920936 26.51231
124.1376 1.6726167 42.158882
132.11191 -3.1117504 31.176147
132.55801 -6.3813982 23.627846
134.46355 0.098369002 34.952496
131.86545 2.8629951 40.700607
139.69308 2.2379854 33.679729
138.12506 -0.89450759 29.275995
137.8992 -3.2640462 23.186607
138.91705 5.5896554 40.093071
-99.977516 -21.692236 -4.2940903
-99.696281 -18.58305 4.4477544
-103.93021 -15.509087 8.5928011
-100.21313 -13.438423 13.918439
-91.84552 -20.428799 4.9052548
-92.923805 -23.133909 -1.8848387
-34.941612 -33.103619 2.1565585
-144.62668 10.434044 13.679127
-139.3616 3.7552981 4.5788279
-143.07933 8.0419426 7.7123318
-137.53419 2.2253702 -4.6405025
-143.08452 8.9059277 14.660633
-19.896633 -33.789318 3.42414
-135.96176 0.157244 -1.3504502
-135.67635 0.16772851 6.2964983
-12.069713 -33.991848 4.065989
-68.175224 -22.981289 7.7345099
-4.2738824 -34.412487 4.0591006
-4.6172919 -38.514259 -4.4128737
3.401861 -38.299171 -3.3050022
3.6358631 -34.475315 4.4855499
11.731439 -34.675434 4.5292053
12.119869 -38.555882 -3.4206309
20.576616 -38.571144 -3.4042633
20.052177 -34.738766 4.5682011
28.291584 -34.776768 4.2984715
28.066015 -38.353195 -3.1924753
-131.26743 6.0791531 29.587357
35.62336 -34.522846 4.4096546
-120.93633 7.8362188 36.60471
3.9873855 -46.601364 -31.167753
-28.134089 19.25193 66.943573
-20.123146 19.585474 68.056099
-11.814321 19.359869 68.590912
-4.070365 19.307043 69.093918
116.39453 -49.528881 -62.265099
27.672125 14.014168 65.144585
11.992733 -46.729778 -31.459831
-97.065102 -16.54427 10.106539
35.586769 13.653572 64.73613
20.058983 -46.541462 -31.126236
43.813877 14.334533 65.243507
-90.850029 -17.228104 10.966421
-35.700615 -40.799995 -16.598013
-137.0706 2.9245479 -11.97636
-28.074446 -36.856609 -4.1754403
-91.693825 4.8921895 39.007385
-100.36156 13.976657 47.379253
-99.117546 5.5987444 38.675514
-91.53109 13.383363 47.913864
51.825523 -47.701157 -116.28076
59.599773 -47.442181 -116.39764
59.831528 -50.497101 -112.09235
68.067207 -50.485348 -111.78797
14.234345 -63.747429 -89.86898
76.428917 -50.660866 -111.44785
-66.947968 5.6491485 46.963829
52.012829 -21.847788 24.024597
84.127983 -50.427135 -111.93313
91.753906 -50.574657 -111.79289
-41.807655 7.71876 54.392258
-44.354988 -12.394404 31.560411
4.1600957 -52.161911 -67.421257
65.724258 -47.664265 -116.09426
11.957532 -51.790276 -66.962143
-67.579445 13.917482 55.742718
19.768866 -51.78603 -66.692108
-81.013031 -32.18803 -33.391014
-59.926708 13.374653 57.232712
-76.114937 -33.718441 -31.505306
60.379185 -13.88601 33.675323
-120.98006 -8.7900229 -28.872976
68.650925 -11.798955 31.398687
73.864899 -7.4241343 35.795013
-35.512482 7.3732843 54.793907
76.351418 -11.492874 31.116405
-27.440346 15.25307 63.317131
83.260765 -8.195466 34.966484
-26.770117 7.5215411 56.045399
-19.522408 7.4841018 56.670414
91.625328 -10.840493 31.428738
-19.296278 15.035634 63.956726
92.200615 -3.5850279 40.085701
99.905342 -10.941148 30.507124
-35.986191 -41.696129 -22.498457
-28.29632 -42.757381 -22.184092
108.18735 -10.006834 30.3724
-134.93848 2.9497709 -22.084862
-130.4471 0.86482704 -31.678801
121.23712 -8.600915 28.488342
-12.025598 -44.157429 -22.177261
-4.1098957 -46.405628 -31.38006
-4.2019572 -44.483219 -22.401047
-163.89291 28.506622 -31.012798
62.171543 -39.042084 -56.125927
-163.43661 23.641981 -33.606941
-155.51166 23.482861 -33.433693
67.968277 -37.737305 -56.685055
76.017136 -36.307533 -56.419201
-147.5114 23.606319 -33.114204
99.128815 0.85370266 44.745678
-76.552177 -15.274991 16.971819
-69.173096 -15.597145 17.751415
-11.832465 -28.467733 13.712468
-4.2221699 -29.187622 13.256335
-3.4844289 -31.900726 8.8121004
4.1334968 -29.19352 13.775299
11.856424 -29.190372 14.128323
19.627155 -29.550318 13.660653
-137.41098 14.635687 37.782372
27.86101 -29.650084 13.429717
-131.51585 13.084439 39.171623
35.794201 -29.128281 14.004022
-123.86476 12.08986 40.799713
-124.12879 20.157587 49.546963
-114.94858 6.9863396 37.197937
-60.050831 -3.3667912 39.332008
-116.27996 10.961393 41.424019
-116.16584 19.529125 50.576092
-108.26607 18.940689 51.287468
-108.10117 10.392475 42.426388
-52.241726 -3.83038 40.469578
-51.735626 -11.369056 31.488464
-44.250294 -4.552156 40.979404
-100.58381 9.5236187 42.68655
100.03136 -3.2755773 40.01429
107.83521 -3.0424814 39.540333
115.72143 -2.2355165 39.231606
123.2263 -1.6053195 38.165524
-148.07002 -65.541985 -79.907104
129.58893 -0.9520421 36.476166
-140.45854 -65.791214 -79.950661
-163.51091 37.108498 -26.39753
-131.8443 -65.748802 -79.561638
-123.94553 -65.781548 -79.417862
-155.97188 37.410805 -26.048042
-115.72603 -65.769585 -78.895569
-150.71519 36.621719 -26.338123
83.875053 -35.996849 -56.289234
-138.96599 4.4652319 13.328794
-138.05969 6.2727871 22.038158
-134.59061 0.87894928 14.05282
-130.93124 -2.056963 12.828671
-131.87253 2.4943104 22.722261
-124.48449 -5.3205409 14.08295
-124.66516 0.47032514 25.252268
-67.733337 -19.11376 13.282943
-117.82497 -7.1317034 16.428448
-59.999447 -17.568726 20.337902
141.6463 16.823935 53.123512
141.76511 9.0608873 42.674538
-52.193939 -22.273045 16.176765
146.94017 18.81765 51.173962
-44.576397 -23.371311 16.372976
146.17812 12.604736 43.036816
-36.066517 -20.365612 22.356375
-35.596138 -26.500347 13.36131
-28.128685 -20.982744 22.744787
-27.578217 -27.529627 13.140724
84.418312 -33.891457 -22.645653
89.11412 -32.328568 -24.026184
-20.115 -21.514832 23.060381
-19.709661 -28.016027 13.496335
-36.087788 -66.972359 -85.386734
-11.797251 -21.53261 23.94005
-3.9209881 -22.24675 23.627159
-28.197744 -66.89019 -85.437035
-19.935038 -66.8283 -85.386261
-11.79635 -66.64225 -85.568855
-4.0278521 -66.479553 -85.660194
-138.81137 22.461456 46.846798
-131.39302 20.979713 48.399483
-28.024298 33.909492 79.424675
28.245296 22.716087 73.104233
28.126062 27.949902 77.507545
139.6044 12.713141 49.316532
36.12254 22.811455 73.117104
35.91338 28.027946 77.523705
-20.096798 33.503536 79.833908
145.16168 14.671432 47.378326
-99.520332 22.089411 55.542007
122.20311 -16.526138 -12.281943
-92.080261 21.624813 55.982761
-99.327652 31.134171 63.949051
-91.480522 30.541189 64.271049
-4.2840109 -46.676311 -64.654793
-112.83139 -16.530693 -18.556227
3.6431863 -46.779823 -64.472374
-108.23254 -18.972931 -22.652449
-83.933472 30.04809 64.524017
-97.26503 -24.829773 -31.265213
148.54662 16.468359 -27.416788
-67.566696 22.852102 64.510391
-91.787041 -27.298618 -22.87677
-59.533569 21.618071 65.059486
-84.593323 -30.245237 -22.727612
-51.896126 21.221458 65.853836
-129.37212 -3.3220956 -22.445412
-43.627583 20.289858 66.086342
-125.55492 -6.4538188 -23.030506
76.52523 -3.8790507 39.771011
75.975319 0.52177298 44.425243
84.33065 -3.5787189 40.299065
-100.54598 18.500372 51.932415
-44.029549 3.9078627 50.213013
-101.53195 -22.607603 -22.770796
-67.490028 31.836462 72.584862
-61.041695 30.877354 72.952209
-52.058567 30.213245 73.689583
-19.86389 -41.396156 -14.043141
-44.137741 29.530575 74.097939
-11.913452 -41.563961 -13.053999
-36.210873 29.193727 74.722763
77.590477 8.8888206 52.81918
59.304905 -43.004326 -59.982704
-27.94372 28.315857 74.866264
83.829277 8.9812288 53.154278
93.587669 0.34383851 44.350288
-20.097008 28.24478 75.567772
91.946083 9.0309038 53.265125
91.962112 4.3342242 48.581776
100.84176 8.9541063 52.984089
-10.330301 23.673267 72.519768
100.16967 4.7829309 48.812576
108.04784 4.7757711 48.317554
108.12714 9.271204 52.965515
-3.4873867 23.26302 72.607231
115.78067 5.413816 48.214142
-22.553951 -39.873642 -10.076142
123.30341 5.7589765 47.286087
130.82222 6.7488842 46.233879
-106.21028 -8.6188889 19.390697
-98.921143 -9.4730997 20.244146
-145.48088 13.321571 22.168411
-142.02577 10.269835 23.573038
-75.879089 -11.438539 22.103254
-67.897606 -12.191752 22.694277
-60.359264 -14.45837 24.843571
-52.517162 -15.409996 26.09935
123.6431 -20.665604 -47.035042
132.00305 -20.656702 -46.765572
140.17616 -20.84226 -46.604103
148.13213 -20.817316 -46.370834
155.78352 -21.256609 -46.380486
162.01099 -21.435013 -46.086617
115.76008 -20.46241 -13.807622
35.801971 -51.308361 -112.60139
43.647091 -51.238075 -112.10054
-152.95912 39.926807 54.310593
-147.22539 37.228947 57.672264
51.787647 -50.973724 -111.87332
-147.07736 29.13269 48.481358
-139.51498 30.618652 55.45158
-140.51215 35.385864 59.745754
-140.44499 26.80081 50.922806
-131.63728 29.150251 56.744469
-132.31554 33.878784 61.063473
-133.37076 25.349264 52.418743
-124.20313 24.326275 53.780865
-123.55458 28.073038 57.612164
-125.2588 32.791595 61.720715
-117.7271 32.381363 62.723267
-115.99749 27.818827 58.730244
-59.458138 4.7946038 48.564457
-51.674206 12.494206 57.766499
-51.689728 4.2915101 49.472008
-108.22372 27.549242 59.64072
-43.80423 12.134955 58.469734
-123.97871 -12.048473 -51.067371
107.87733 13.215929 56.819641
116.61686 9.7820625 52.746075
115.82595 13.502546 56.490036
124.28627 13.894768 55.833294
124.4674 10.177829 51.9576
131.83121 14.829591 55.159866
132.16995 10.841599 50.605526
-107.47955 -1.7422405 28.435999
-99.915489 -2.14487 29.511642
-67.991806 -55.158287 -106.25346
-147.37325 19.291204 32.300262
-145.03653 15.38966 29.160368
-143.46416 17.272285 35.70982
-140.08221 12.393177 31.431606
-75.910248 -3.9440258 31.24411
-132.94872 9.4547071 33.512363
-126.22528 8.6248589 35.874271
-68.643707 -4.8325624 32.186501
-60.823559 -7.0243697 34.696987
-59.813396 -10.590058 30.421391
-55.257771 -7.7656422 35.206448
142.7708 25.214317 61.59428
123.84846 -12.057374 -42.117767
147.03893 26.817738 60.401043
131.86412 -12.054221 -42.2626
-36.348373 -12.715257 32.450233
140.02795 -11.954759 -41.93903
-27.791077 -13.504269 32.620667
148.33107 -12.147479 -41.774433
-19.673052 -13.936681 33.032909
156.24382 -11.624157 -41.282726
-11.996371 -14.178233 33.470936
162.64975 -8.1787605 -38.704037
110.75417 -23.085339 -14.280777
-4.0340848 -51.796192 -67.518707
-138.89461 38.928474 63.771797
27.98889 35.947563 83.87561
27.763906 41.775364 88.234825
-99.907234 35.914452 68.03997
68.638786 -4.7433763 41.020412
-92.012054 35.626629 68.572708
-91.930084 39.86412 72.089844
-99.566841 44.410133 74.918411
-91.727539 44.129658 75.398201
76.177223 4.5524201 48.565842
-84.568619 39.470879 72.385437
-52.222069 -37.135086 -13.441915
84.28299 4.1088672 48.311134
-74.808243 37.911385 74.812553
-74.257889 46.011871 82.077049
-44.501976 -38.492657 -13.051404
-36.064819 -39.157852 -11.714503
-67.610847 45.44453 83.394096
-68.066292 36.164219 76.035561
-28.131351 -39.545639 -10.471494
-60.323063 44.340103 83.714211
162.36639 28.275969 -19.782946
-50.05209 39.895233 81.682854
-43.409714 39.085705 81.855614
-35.90144 38.359291 82.105797
-28.221792 37.737602 82.406677
-19.880886 37.560631 83.035622
-43.086971 16.464931 62.642944
-107.48396 -54.774101 -105.42165
-52.12595 44.22028 84.701637
-100.13213 -54.61293 -105.46304
-44.073452 44.000023 85.474785
-92.293175 -55.248657 -105.8898
-35.844826 43.726166 86.146759
-84.258308 -55.232616 -106.81362
-27.990286 43.713326 86.912132
-76.219849 -55.453491 -106.15634
84.464699 17.685381 61.277893
-19.968662 47.499142 90.468819
91.878357 17.568327 61.287773
100.41343 17.639771 61.209362
-10.985146 46.685509 90.641846
100.03825 26.961143 69.432632
99.697647 12.905463 56.841995
108.05462 18.360163 61.587257
108.13142 27.468838 69.508942
-4.1383166 46.444229 90.945633
115.25536 18.151785 60.915009
115.79001 27.578741 69.11026
4.0909166 46.669121 91.490471
123.82525 27.504673 68.313538
124.09207 18.449808 60.253422
123.26926 22.370171 63.90918
131.93256 19.583597 59.855129
132.51517 28.056839 67.559212
129.79639 23.872108 64.339035
139.24437 20.450329 58.401115
-107.40234 6.1983199 37.897999
139.97197 28.391441 65.912048
146.11804 30.596249 65.013313
145.41302 21.603848 55.983341
-152.27608 31.742424 44.821644
-92.496239 9.5005856 43.779552
-149.19601 26.474836 41.79797
-92.301804 1.0082707 34.574047
-83.91291 4.3455048 39.512142
-85.592552 0.43390799 34.984818
-84.476265 8.9401722 44.31237
-75.605042 4.1610894 40.242382
-79.38456 0.119404 35.424831
-77.31015 8.3836031 44.480324
-68.899811 2.5295174 41.502178
-11.96111 -17.660048 29.114201
-60.618767 0.62465841 43.810204
-4.3237143 -18.115372 29.149593
-131.75461 -20.301567 -55.708485
3.8523424 -18.468225 29.140112
126.41257 -7.2885489 -39.651051
-123.77929 -20.896233 -55.704098
132.02591 -4.7007036 -38.295441
129.2299 -6.2170825 -30.998888
138.18385 -0.34129399 -35.852356
140.22444 -4.4390106 -37.972725
140.83472 3.3001261 -33.877014
148.05159 -4.126142 -37.534634
150.9641 -0.2878235 -35.439537
46.595364 -8.153224 41.735294
155.34995 -4.8747563 -37.740166
157.48801 -0.82578182 -35.525864
55.858006 -8.1663074 41.266102
161.96474 -4.838583 -37.344013
162.99791 -1.4975981 -35.363476
115.85028 -20.776676 -5.1316924
59.798943 -17.480173 29.101278
-105.3166 31.518696 63.612812
60.040253 -10.173938 38.349701
-152.91068 52.267845 66.38549
64.04335 -17.767365 27.397812
65.644974 -9.6934443 37.926853
121.97182 -17.478949 -4.5200377
-148.62265 51.017433 69.215271
-147.26912 44.906281 65.021103
-146.07135 54.185329 73.498192
-140.69019 48.707878 71.583
-140.18272 43.956192 67.702934
-139.48117 52.395454 74.811325
-131.99942 42.792652 69.074692
-75.214684 28.82262 65.906921
-131.19656 37.648689 64.791824
-131.46335 51.789463 76.385361
-123.64728 51.694698 77.725929
-123.81457 42.433163 70.377769
-123.62628 36.85305 65.64386
-68.000977 27.536961 68.703629
-116.12879 51.49324 78.597145
-116.35033 41.312397 70.583206
-60.239754 26.970375 69.713463
-51.91449 26.185797 70.270874
-108.62478 41.240185 71.509544
-51.739075 17.292089 62.288574
-43.694191 25.257929 70.50975
-101.37251 40.665939 71.843689
-12.264845 -10.200375 38.192837
-3.9907181 -10.40505 38.572517
4.0836725 -10.346882 39.064217
12.453659 -10.582132 39.090378
20.678429 -10.794786 38.967216
146.82986 7.4543552 -31.453468
-100.32333 54.103817 81.989723
-91.423607 53.971058 82.565491
-84.354561 53.587254 82.839012
-91.97406 59.965508 86.485687
76.877792 17.886612 61.316154
76.737747 12.88697 56.652058
-80.053986 63.201836 91.076309
84.17289 13.043322 56.977856
-75.399895 60.397648 92.255234
92.096642 12.836382 56.89325
-123.6574 -55.223118 -105.81306
-68.134285 60.143074 93.719391
-115.77638 -55.029724 -106.63754
-68.562531 55.185753 90.32637
-60.249035 54.323551 90.909714
-60.199902 59.838322 94.621323
107.67645 22.146391 64.958298
-52.06609 53.911652 91.658531
-51.791763 60.581219 96.162201
116.51059 22.207291 64.45433
-44.340427 60.073162 96.683136
-43.948128 52.953133 91.933739
-41.083897 63.500874 99.245018
-35.941544 52.668705 92.5709
-35.754734 62.897259 99.414574
-36.047447 59.453991 97.137199
-27.921595 62.490097 99.904869
-28.038107 51.566978 92.58593
91.92247 27.023382 69.630081
-146.29517 21.874859 39.032589
-140.25308 18.907234 41.369801
60.064053 -6.5808392 42.644093
-153.02023 61.476479 73.379585
-148.09456 60.137093 76.527466
-140.5554 58.42564 78.975182
-132.29745 56.807777 80.001152
-125.07124 56.014454 80.736206
-59.728912 35.812351 77.186668
-52.14513 35.91993 78.336685
-108.40993 50.639565 78.790436
-44.507767 35.137268 78.63382
12.585928 22.759563 72.923027
11.513435 13.859027 64.780495
-19.283827 62.028252 100.40949
92.593445 40.34568 80.374176
100.28091 40.790543 80.61731
-11.732421 61.431355 100.59711
108.66132 41.241188 80.700203
-4.1584625 61.126274 100.83345
-132.47406 17.094877 43.660416
3.943759 60.874146 101.00281
115.76023 41.015842 80.120728
-66.919853 -1.5253358 38.160957
123.74329 41.358002 79.775322
124.12486 35.954651 75.339012
131.8367 32.346367 71.38504
132.22873 42.070042 79.349037
131.90237 36.585926 74.893166
140.27753 43.187859 78.521523
140.39545 33.729618 70.655724
139.61436 37.278904 73.892494
146.00862 38.934433 72.702103
147.53343 43.908512 76.157326
147.25418 35.473301 68.898514
-92.186707 17.754196 52.247936
-35.783379 3.3956642 50.708664
-35.548405 -5.3608494 41.259888
-83.9832 17.29711 52.733192
-28.269451 2.9886978 51.135723
-28.084112 -5.5180244 41.963776
-20.27387 2.3298364 51.299847
-76.525856 17.009886 53.173927
-11.947338 -2.0770068 47.393845
-12.239709 2.0552299 51.760365
-3.7120366 1.8297814 52.148945
-3.5804131 -2.4063504 47.657902
-60.028717 9.2819443 53.125416
4.0666428 -2.6696329 47.756538
4.4940701 1.5036892 52.224953
12.055096 -2.6984568 47.989872
12.425277 1.4218861 52.452797
20.189323 -2.9548869 47.804699
20.103603 1.3431803 52.469627
28.880466 1.4279631 52.581322
27.98855 -2.4570911 48.402203
142.5571 9.569603 -31.439413
36.375938 -2.4218211 48.382015
150.75058 18.570583 -26.118553
147.9951 11.773232 -29.346943
155.75247 20.074043 -24.624382
157.94412 15.841432 -26.717184
155.88542 11.98134 -28.808271
162.06802 20.136118 -24.051039
162.15291 15.70322 -26.636784
162.07532 11.019709 -28.968184
60.29678 1.8749894 51.925587
-107.97044 44.809608 74.41272
68.070717 2.5988655 50.504742
-152.89084 67.433464 77.832474
-150.20139 66.414589 79.500931
-146.99612 68.746429 83.197853
-83.825539 44.097698 75.99942
-139.85733 68.223854 85.986588
-76.636917 43.285759 77.973419
-132.08496 67.697037 87.508583
-68.21022 41.383183 80.195679
-123.45065 66.972343 88.30555
-116.09219 66.023254 88.451782
-58.808105 40.453911 80.966263
-108.90691 65.969536 89.067154
3.6858895 23.048746 72.824028
-91.806351 68.802483 91.938568
-91.766762 76.014725 96.083832
-25.930182 -64.073891 -90.16803
77.740692 27.080647 69.47496
-83.762428 68.296562 92.594452
84.574265 26.807423 69.353264
-80.822197 77.2146 100.17039
-75.258797 71.161362 99.572845
92.093475 21.685705 64.971939
-68.466881 70.223732 100.19698
99.648125 21.517872 64.704216
-59.631161 69.210518 100.74025
-51.835766 68.272911 101.09268
-43.992599 68.311562 101.96608
-36.077793 68.062614 102.60371
-75.807098 76.122238 102.39925
-68.205154 76.121223 103.83261
-60.214947 76.198952 104.90259
-52.036819 75.857918 105.63594
-44.321331 74.881516 105.89977
-36.308105 74.331909 106.34133
-35.796242 78.53598 108.79089
-27.635693 78.256241 109.2982
-28.3092 68.012062 103.28902
-28.036203 74.158249 106.96834
-107.65794 14.573284 46.948635
-152.67303 35.353203 49.23811
-149.72293 34.214615 51.70779
-83.833626 12.855163 48.317314
-75.707001 12.39946 48.851719
-68.570961 10.291247 50.995033
21.666981 71.912613 108.02003
-54.062447 8.7556143 53.687145
148.76744 49.807426 80.37262
-115.82066 -11.93421 -50.2831
-35.798946 12.15991 59.454601
-108.33337 -13.911885 -49.339771
-28.175516 11.448673 59.617035
-41.354511 -39.632843 -47.684395
-20.298899 11.018515 60.020454
-38.616268 -39.624683 -48.407207
-12.232528 10.807425 60.566536
-3.6782501 10.630761 61.006256
139.24457 -47.554005 -117.37119
4.2876258 10.439189 61.26123
11.791702 9.7279921 60.818878
19.756891 9.8053522 61.059212
135.16315 -7.2148356 15.221067
136.87503 -5.9156303 15.511419
28.415592 10.116868 61.420677
-101.17442 -23.083553 -13.166962
35.227856 10.092839 61.343277
44.151798 10.009351 61.071453
158.15421 27.192167 -20.926411
-114.31154 54.899139 81.321289
-107.59997 54.690266 81.796349
-152.20599 75.681473 83.777786
-148.35147 75.937462 86.93528
-141.0957 73.914482 89.196732
-76.307587 52.173309 85.509048
-68.449608 51.351711 87.571869
-60.046387 50.211044 88.02565
-52.847004 50.301994 89.013908
-44.28619 48.807159 88.968948
11.795758 27.746933 77.064392
-86.615143 97.464973 107.88509
11.666538 60.635735 101.06954
-3.8825829 67.925575 105.05167
-20.480854 73.432838 107.17405
19.711384 60.576962 101.12731
3.9010568 68.034775 105.4314
-11.668213 72.837616 107.51736
27.876381 60.925949 101.29565
12.131978 67.702126 105.4491
-4.4643617 72.48378 107.72088
36.022053 60.693069 101.03734
20.10495 67.978897 105.69075
-20.443443 -5.7818747 42.501167
44.137962 61.003254 101.06837
28.191883 68.333237 105.8445
-11.909451 -6.245616 42.797661
51.907394 60.823761 100.70788
35.926605 68.156349 105.66832
-3.8276927 -6.5119715 43.077675
60.308594 61.425911 100.74832
44.331066 68.106178 105.47948
4.9839778 -6.6596613 43.378471
68.168427 61.644806 100.39722
52.239689 67.891716 105.12807
12.213263 -6.7456021 43.5117
75.917465 62.211212 99.772827
59.757423 68.157448 105.01823
20.470093 -6.7027102 43.709244
-19.87565 -46.07486 -58.189522
67.713898 67.514404 104.17897
53.756905 72.481651 107.84647
125.96191 -14.547668 4.704062
76.057076 67.598236 103.24818
60.588009 72.274719 107.51755
130.91841 -11.306052 5.0460739
85.373558 69.75267 99.996941
68.876129 72.618416 107.25022
4.0786934 -47.098984 -58.685368
92.347466 70.184464 100.367
76.890251 73.864853 107.03304
-130.16756 46.745277 72.759407
100.61439 69.696358 100.22182
85.790085 75.75386 103.46822
-123.64302 46.319187 73.566986
108.92438 69.947906 100.42322
92.389168 76.718079 104.09534
-115.84605 45.41885 73.964172
115.68537 69.872345 100.31966
100.09926 75.396477 103.53748
85.857094 82.081596 107.03888
122.76528 69.883163 100.08812
107.62146 75.854118 103.97096
91.814079 82.02449 107.00282
131.40695 70.452034 99.871574
116.02201 76.054726 104.12309
99.881813 81.463737 106.94673
137.42538 71.279602 99.623756
123.59373 76.014114 103.89685
107.32112 81.337234 107.08733
-100.52748 50.353729 79.284645
132.17432 75.851997 103.1554
116.44257 81.556404 107.36568
-92.116982 50.223885 79.873222
140.29085 75.756638 101.77044
124.01326 81.628021 107.25972
-83.717453 49.621212 80.085091
146.48392 77.375343 100.71156
131.92902 81.913239 106.86562
-79.60379 48.553715 79.922882
-36.232117 34.211414 78.837517
140.80331 82.895081 106.08974
-12.025699 27.88237 75.93161
-164.16245 39.566185 -25.14843
146.80223 84.410461 104.99628
-4.0641165 27.917528 76.511383
-155.16809 39.197701 -25.042038
20.225986 22.978962 73.251236
4.1562386 28.164137 77.146149
-12.811619 32.965965 80.015198
-164.29735 44.109993 -22.637768
147.41385 89.039436 107.45252
-4.4735951 32.741787 80.446365
-157.19197 43.771896 -22.710958
20.022978 28.308294 77.73053
2.4171438 32.738808 80.760391
43.965252 22.846241 72.994827
-164.0818 50.341099 -19.314283
12.248471 32.19408 80.727325
52.111877 23.076912 72.815529
-158.95743 50.539715 -19.036369
-60.305691 -21.403559 13.864302
60.312695 23.584015 72.752983
44.150764 27.985899 77.316673
29.822105 32.02253 80.830719
65.305939 23.855511 72.5214
52.372791 27.781193 76.790466
32.963169 32.193909 80.932182
162.27617 -44.346699 -57.934811
60.410938 28.223448 76.651588
-37.597282 -23.770432 17.236088
-20.253223 -48.909191 -118.99992
68.179764 28.329676 75.897392
51.550888 32.245415 80.464722
12.875961 -32.030155 9.4544735
74.468193 28.677401 74.050957
59.164467 32.501499 80.18795
18.039707 -32.017082 9.5253716
84.03727 30.684929 72.623634
68.017685 33.512917 80.15593
25.083548 -32.114346 9.296258
91.033279 31.023952 72.992157
76.975945 34.986671 77.699677
92.877945 -30.814039 -22.611317
99.687744 31.010193 72.824669
84.135818 35.929192 76.856422
99.964752 -28.003971 -22.308697
107.13023 31.223732 72.70491
92.165428 35.777699 76.836662
106.02161 -25.235802 -22.41831
116.60368 31.738689 72.561707
100.30711 36.157402 76.970856
84.206558 40.706398 80.600708
-123.13537 15.785506 45.202061
108.3102 36.004425 76.518677
-75.20005 86.511238 108.6288
-115.90706 15.001357 45.947155
115.89524 36.309845 76.331734
-67.891747 85.392998 109.23486
-80.472229 93.003563 110.07869
-43.335384 79.052887 108.37688
-59.75106 84.62706 109.79057
-75.964203 91.441338 111.1068
-92.357658 98.632179 108.06299
-51.577831 83.866188 110.23319
-67.784996 91.398331 112.50284
-84.543716 97.433113 109.7644
-44.252144 84.218048 111.14323
-59.875134 90.963402 113.22331
-19.989399 77.694542 109.59515
-36.090809 84.053032 111.79037
-52.205185 90.651794 113.83714
-11.957583 76.558876 109.54988
-28.020975 84.014267 112.39091
-44.203941 90.940262 114.67493
-3.9354186 76.370605 109.89889
-20.227884 84.028862 112.97025
-35.985069 90.163155 114.93969
3.8811514 76.037399 110.02917
-12.038323 84.092934 113.5165
-27.826271 90.44014 115.68506
12.153493 76.413452 110.4112
-3.84899 84.032623 113.91447
-19.550186 89.874489 115.92059
20.231533 75.796425 110.15875
4.2969561 83.920769 114.16726
-12.813189 90.013954 116.37728
27.852272 76.467918 110.5415
12.533954 84.301628 114.52833
-4.6186485 89.000572 116.24184
36.135921 76.460396 110.48785
20.015821 84.107613 114.50778
4.2327008 88.952133 116.53786
44.282196 76.280914 110.27356
28.126759 84.190765 114.62079
11.362765 88.62114 116.53168
52.2453 76.470848 110.21542
35.799946 83.96125 114.51723
20.571114 88.726898 116.69293
60.227409 76.650208 110.06078
44.366806 84.17247 114.55774
26.277605 88.508713 116.70243
67.757141 76.295609 109.48846
52.241486 84.315628 114.51769
37.307289 88.302551 116.65184
75.933228 77.717026 109.45852
60.202457 83.532593 113.91763
46.234043 88.005974 116.48786
60.148773 -2.5892971 47.129734
67.550461 83.861748 113.75887
51.393185 88.9356 116.87587
66.425591 -1.4909052 47.407482
75.79483 83.706749 112.88142
59.967682 88.583557 116.53819
-117.38058 -14.415841 -13.816569
83.277 84.915062 110.93093
69.02581 88.862518 116.29567
-139.56256 62.500492 82.200104
92.226158 85.956184 109.10029
76.96685 89.438019 115.92924
-131.24403 61.111626 83.250771
100.3825 85.731117 109.27201
85.515831 89.940994 112.17644
-123.57521 60.11594 83.820572
108.22556 85.592552 109.45078
92.040886 90.862518 111.79749
-115.86148 59.420341 84.246696
116.53008 85.549911 109.61421
99.913292 90.447411 111.8182
-108.1387 60.120014 85.440582
123.55927 85.507378 109.48473
107.65563 90.653221 112.26476
-99.829941 59.948074 85.941002
131.39464 85.846779 109.26599
115.84634 90.418488 112.39342
-150.75937 82.610748 89.324097
139.70605 86.666306 108.60973
123.50084 90.340431 112.29813
-83.873642 60.309418 87.399544
-101.03937 65.04464 89.102295
131.24951 90.142662 111.831
-78.656868 58.128853 88.573166
-92.789139 64.959686 89.564011
139.49211 90.281029 110.82366
-11.572284 36.976643 83.252174
-87.301414 64.537376 89.693741
146.6752 90.790749 108.95585
-3.6833291 36.486271 83.397202
-20.089748 43.768902 87.694809
-36.432388 48.539989 89.599335
4.1005363 36.797993 84.028107
-11.845406 42.550182 87.479393
-164.69463 54.077126 -17.339602
12.2275 36.517517 84.087242
-4.3884406 42.567188 88.013733
-159.7372 54.439159 -17.156254
20.148544 36.179012 83.987968
3.6540554 42.577633 88.426056
-147.65335 16.720739 25.873283
-165.24341 59.384026 -14.517566
11.569601 42.360001 88.494102
-84.199478 -7.5300217 25.664959
36.031788 36.296848 84.081879
19.867874 42.496723 88.732094
-78.687531 -7.4798231 26.723541
43.857384 35.991753 83.658638
-166.84059 66.842567 -10.49472
-11.845918 -25.013887 19.013245
52.078026 36.254429 83.534302
36.148827 42.244324 88.514099
-4.0258527 -25.218796 19.407118
60.039898 36.667477 83.380928
43.916622 42.100098 88.22287
3.4509909 -25.183359 19.924799
67.846764 37.225422 83.091431
51.957958 42.106129 87.929764
12.106188 -25.293619 20.040108
74.195007 37.87323 82.486931
60.029137 42.933128 88.095398
20.015039 -25.382288 20.058605
4.4505353 -22.252823 24.103855
68.42881 43.114109 87.470818
28.089401 -25.581045 19.69792
11.862513 -22.330439 24.243427
75.813873 43.701519 85.96917
35.70314 -25.19379 20.155348
19.800694 -22.060942 24.750303
84.198624 44.727047 83.526604
43.418495 -25.293329 19.648071
27.625334 -22.138575 24.609726
92.331757 44.750046 83.685974
77.677414 48.866081 89.990143
35.753738 -22.143856 24.45532
100.37389 44.821651 83.689522
83.651222 51.084091 88.11293
43.671814 -22.270786 24.029823
107.94662 44.688217 83.349693
91.608086 51.089294 88.202774
-115.74722 23.410202 54.563549
116.25144 45.194908 83.334854
100.15209 50.951107 88.12793
-107.44454 22.968914 55.382881
124.43939 45.57547 83.041321
108.24217 50.704605 87.772987
-153.13034 44.267189 58.750336
132.50768 46.093433 82.439354
116.24144 51.26561 87.843933
-150.06769 42.154888 60.107071
139.24036 47.11869 82.040344
123.64968 51.255184 87.357445
-83.418121 21.446306 56.713219
-100.23494 27.102486 60.197792
132.01387 51.995163 87.036713
-75.013603 20.722404 57.792191
-91.847054 26.495972 60.587749
139.90855 52.309696 85.775482
-68.437187 18.607182 60.148411
-83.950783 26.132788 61.020885
147.22206 53.034889 83.563797
-60.763905 17.904421 61.39761
-77.264961 25.565695 61.305202
-8.9904661 90.804359 117.13495
141.58757 57.223534 88.917259
-12.536924 7.7682667 57.562508
-2.9879906 90.62352 117.25406
148.25894 59.4258 87.824432
-5.9178009 7.8504624 58.137886
5.490139 90.353271 117.47813
-118.30318 -6.5505075 -42.176258
3.124912 7.8106999 58.654118
12.201846 90.333427 117.51494
-164.45291 17.88938 -36.681194
11.404068 5.5900331 56.71571
19.262506 90.181076 117.56594
-156.73053 17.338959 -36.747673
19.682438 5.3837128 56.627834
27.342609 89.844139 117.46011
-148.10904 17.240961 -36.483673
27.658377 5.500586 56.784996
35.274124 89.932037 117.64224
-141.86411 16.889374 -36.508209
36.437878 5.4414783 56.674725
43.615921 89.83522 117.59841
148.30734 -68.303268 -76.2509
43.924572 5.3777418 56.451283
52.69223 90.240555 117.85162
-123.80591 -10.17246 -4.8911939
