101.239019 259.503911 59.531966
103.874469 258.823207 60.003088
104.006736 259.359353 60.035463
104.690496 259.711343 60.190442
103.434367 258.940538 59.434906
104.306169 259.709394 59.722521
103.574940 259.474900 59.422017
102.988840 259.059042 58.896265
104.821354 259.698278 59.420069
103.110802 259.670401 58.709774
102.536680 259.178987 58.393772
103.956068 259.754904 58.861560
102.713755 259.690478 58.238653
103.564607 259.765288 58.391842
104.488435 259.714046 58.563431
103.158435 259.801188 57.918429
104.091998 259.733076 58.092465
105.018737 259.676817 58.264793
102.320254 259.810938 57.366746
103.708331 259.730035 57.624720
101.928449 259.821963 56.896946
102.854525 259.766826 57.069103
104.247332 259.677739 57.328268
105.159442 259.646731 57.496904
102.462995 259.777351 56.599370
99.886200 260.181033 59.687500
100.839166 260.079444 59.866436
98.067937 260.339283 58.950050
99.023234 260.233686 59.129576
100.464196 260.061337 59.400874
98.627876 260.250783 58.658873
100.764822 259.628601 59.149529
99.607876 260.102489 58.844626
100.293333 259.752716 58.752342
97.745367 260.337194 58.096024
99.202466 260.136996 58.371395
98.334544 260.198198 57.812223
97.953351 260.190840 57.345090
95.298010 260.490400 58.435680
96.253084 260.385108 58.615140
97.141283 260.395428 58.777747
95.889886 260.453264 57.750878
96.791447 260.440441 57.916848
97.342355 260.367584 57.623401
90.318136 263.654813 57.519388
90.244103 263.667137 57.412754
90.162128 263.686752 57.305485
89.549193 262.812701 56.863687
90.023520 263.724411 57.129551
89.886958 263.762664 56.931036
88.968374 262.395737 56.309218
89.808335 263.783952 56.821492
89.723365 263.802343 56.720185
89.538969 263.673150 56.565923
89.455526 263.843846 56.444935
89.341459 263.852032 56.325791
88.519766 262.514908 55.787335
88.950847 263.257721 56.051174
89.177444 263.853590 56.118575
89.093200 263.791705 56.028611
89.062424 263.863202 55.951824
88.060276 262.636403 55.324770
88.886911 263.886035 55.721042
88.651651 263.905768 55.481825
87.733825 263.293936 54.890373
88.218480 263.968675 55.075545
88.172956 263.974166 55.029211
88.120019 263.986763 54.989345
87.129527 262.882026 54.463810
87.771128 264.054483 54.671660
87.694396 264.044657 54.597016
87.418401 263.946154 54.407015
87.002061 263.970938 54.039031
86.921108 263.958597 53.979086
86.638335 263.864550 53.835937
86.173656 263.966115 53.481219
85.849805 263.790029 53.291175
85.923372 264.060546 53.272252
85.683347 264.116538 53.102648
85.261508 264.115254 52.867375
85.154659 264.102121 52.800934
84.885039 264.038941 52.630678
84.444158 264.074318 52.376544
84.364047 264.065186 52.337920
84.076681 263.965565 52.205895
83.606083 264.056714 51.927362
83.541021 264.069218 51.890247
83.324474 264.119892 51.783958
112.929348 259.247310 59.336263
115.910423 259.911122 60.254523
114.301036 259.194718 59.590106
115.217169 259.156751 59.759753
113.905499 259.212167 59.119362
115.823046 260.253167 59.827470
114.831595 259.156964 59.291522
115.753317 259.701266 59.439105
113.516777 259.217856 58.650340
114.435291 259.175777 58.820588
115.342754 259.152779 58.988048
115.705071 260.066864 59.018300
114.962030 259.144653 58.521044
115.680158 260.504157 58.996386
115.573831 259.632601 58.613982
113.196039 259.212564 57.796771
114.114783 259.170119 57.967082
115.551469 260.772521 58.613787
115.537576 260.777744 58.561916
115.502579 260.782155 58.488131
115.487972 260.273188 58.175369
114.638373 259.144440 57.666745
115.351439 260.643267 58.135631
115.318068 260.812537 58.106315
115.359360 259.685825 57.777600
113.786851 259.177297 57.111706
115.267074 260.830510 57.873001
115.095721 259.233228 57.349709
115.255841 260.842405 57.712740
115.247639 260.013230 57.346663
114.305012 259.160996 56.810001
115.189207 260.841045 57.303109
113.468430 259.168003 56.258722
115.089477 260.715211 56.942429
115.076196 260.701763 56.890441
114.782864 259.214367 56.498134
115.027651 259.765522 56.521206
113.993109 259.140478 55.958663
112.010036 259.290761 59.165812
109.767921 259.408883 58.352165
110.699432 259.344337 58.525690
111.689109 259.285825 58.312198
112.610285 259.239132 58.483117
109.443487 259.409975 57.497664
110.376422 259.343006 57.671551
111.353536 259.306204 57.454895
112.281735 259.247390 57.627589
110.049636 259.348172 56.816461
111.040214 259.288138 56.603202
111.954029 259.254174 56.772266
112.869694 259.217033 56.941798
110.262371 259.300200 55.665057
111.628061 259.257962 55.917383
112.543201 259.221693 56.086780
109.935802 259.305003 54.810020
107.459769 259.534539 57.923543
108.842602 259.462719 58.180200
105.765924 259.584351 56.815781
107.145800 259.517590 57.071688
108.062454 259.478752 57.241471
106.368658 259.528460 56.133719
107.752363 259.455097 56.390592
108.670911 259.412948 56.560845
106.050798 259.518222 55.280881
106.975222 259.465936 55.452619
108.346368 259.414282 55.706327
109.274758 259.355173 55.879071
106.653837 259.461822 54.598898
107.568234 259.426849 54.768108
108.950782 259.355473 55.024685
103.386218 259.727124 56.770803
102.076110 259.779866 56.130809
102.992081 259.742216 56.300424
103.920077 259.683732 56.473059
104.842580 259.634763 56.644315
104.523301 259.627009 55.791121
105.443156 259.582590 55.961704
105.123132 259.576131 55.108326
83.128303 264.155064 51.666827
114.964018 260.629450 56.459278
114.855211 260.508639 56.062635
114.497118 259.148659 55.653391
114.849294 260.689491 56.054374
114.759724 259.941245 55.670161
114.724935 260.710133 55.748810
113.677221 259.126848 55.106320
114.679446 260.699098 55.625364
114.601565 260.627568 55.282312
114.583808 260.610883 55.213860
114.171852 259.151223 54.798686
114.564410 260.594321 55.151520
114.468093 259.650413 54.833265
114.459975 260.504568 54.797899
114.299639 260.394352 54.364678
113.863614 259.124390 53.948278
114.170489 259.808268 53.977480
114.167692 260.258838 53.959091
114.208496 260.448921 53.917597
110.850446 259.269629 54.979295
112.224116 259.213611 55.233638
113.145025 259.167387 55.404489
110.534919 259.255353 54.127044
111.445156 259.227589 54.295208
112.827991 259.155739 54.551861
112.431652 259.174591 54.080918
113.355297 259.123610 54.252457
111.127288 259.217384 53.442369
112.038042 259.188720 53.610662
112.958980 259.142486 53.781528
112.567078 259.153659 53.311701
113.492001 259.100477 53.483562
113.999106 260.499221 53.763818
113.966633 260.496621 53.692658
111.727244 259.166260 52.759602
113.106706 259.100280 53.015408
113.873676 260.475729 53.493824
113.800596 259.446327 53.129030
111.346574 259.158059 52.292611
112.250289 259.141550 52.459128
113.854684 260.407413 53.100846
113.837505 260.650964 53.088032
113.805876 260.662004 53.006972
111.862381 259.145832 51.990312
112.768787 259.124701 52.157514
113.641070 260.608001 52.630761
113.604186 260.591242 52.556864
113.444215 259.592765 52.262911
112.384269 259.123078 51.689544
113.457069 260.504086 52.222273
108.173548 259.366519 54.086696
109.166457 259.302387 53.874017
109.766224 259.251618 53.191204
113.282603 260.342398 51.806068
112.874288 259.155454 51.380749
113.262653 260.536327 51.755972
113.188850 260.550810 51.586915
113.125268 259.737773 51.403720
113.075081 260.576856 51.361235
113.043959 260.584555 51.294290
112.903236 259.998747 50.955161
112.881326 260.437861 50.933734
112.836533 260.600985 50.919044
112.679990 260.259011 50.506416
112.679226 260.587955 50.516334
112.617135 260.566995 50.385737
112.454132 259.613153 50.093131
112.578033 260.548771 50.307646
112.439580 260.486312 50.055835
112.229927 260.323694 49.616814
112.018631 260.140256 49.197388
111.925342 260.524441 49.082824
111.777116 259.937234 48.763661
111.764088 260.381659 48.743642
111.784691 260.589099 48.734705
111.536580 260.638715 48.289740
111.301630 260.440280 47.861533
111.323184 260.702312 47.855102
111.105551 260.734995 47.541300
110.710774 260.820660 46.860942
110.660815 260.823120 46.791199
110.372970 260.817169 46.430852
73.707882 259.359917 108.571442
74.238152 259.322696 108.272794
73.837368 259.349260 107.800733
74.737916 259.338231 107.966454
74.338525 259.362320 107.494733
75.238592 259.352180 107.660344
73.932415 259.398080 107.021334
74.840309 259.374357 107.188907
75.731839 259.378908 107.352354
75.341420 259.387519 106.882904
76.232525 259.392794 107.046242
70.106763 260.005857 108.515135
70.002182 259.463722 108.331920
70.647118 259.866824 108.537055
71.340562 259.481331 108.529593
72.581546 259.653379 108.755145
70.585007 259.348334 107.998744
73.141796 259.510042 108.668667
71.939711 259.325098 108.248303
70.207490 259.334657 107.532545
71.098168 259.340686 107.695779
72.453023 259.317196 107.945376
73.347517 259.316626 108.109572
70.695059 259.371224 107.223131
71.590051 259.369820 107.387453
72.948622 259.339880 107.637984
70.286640 259.410986 106.749147
71.185619 259.402633 106.914466
72.089732 259.385468 107.081088
73.435910 259.376949 107.328500
70.789740 259.420721 106.443644
71.685061 259.418711 106.608045
72.582661 259.412769 106.773020
73.531278 259.425226 106.549182
70.437532 259.469843 105.582147
71.338522 259.458026 105.747974
72.234790 259.454421 105.912622
66.689022 259.748344 107.834140
67.537997 259.813886 108.034118
67.146077 260.485563 107.956451
66.625937 260.620210 107.824376
68.394273 259.877896 108.194362
66.897171 260.785979 107.884924
66.968561 260.794883 107.902093
66.548317 260.763103 107.771758
67.018857 260.803764 107.912973
67.475514 260.685653 108.021100
69.251848 259.941589 108.347515
69.147586 259.407981 108.130009
67.007901 259.349071 107.342179
67.898455 259.355316 107.505380
68.801316 259.340344 107.671696
69.702263 259.328600 107.837510
66.620820 259.351943 106.873572
67.513851 259.353898 107.037398
68.410888 259.348959 107.202237
69.320887 259.321594 107.370340
67.110061 259.385655 106.564579
67.996304 259.399332 106.726697
68.907409 259.370025 106.895074
69.802177 259.369017 107.059338
66.701219 259.426109 106.090490
67.603470 259.412125 106.256637
68.493065 259.420029 106.419595
69.392542 259.410842 106.585044
67.202008 259.439846 105.784402
68.099806 259.433546 105.949427
69.888350 259.433165 106.277704
69.038879 259.462487 105.723182
66.847291 259.493267 104.922269
67.742690 259.491144 105.086694
68.694786 259.497581 104.863730
69.591005 259.494050 105.028363
65.319825 259.817427 107.502481
63.962398 259.883987 107.106710
64.604340 260.287777 107.328209
63.452351 260.016456 106.919635
65.969266 260.219592 107.683114
65.266382 260.669150 107.508313
65.366646 260.660772 107.528339
64.783388 260.744052 107.368700
64.263359 260.878127 107.238090
64.136247 260.908827 107.205742
65.778217 260.554391 107.617548
64.722089 260.757121 107.346396
63.378339 260.890667 106.969388
63.358884 259.471923 106.675869
62.746260 260.484760 106.694170
64.663789 260.775278 107.315887
65.706547 260.677973 107.600405
63.306864 261.017112 106.940420
63.582436 261.014223 107.006650
63.764373 260.994022 107.044152
66.065838 260.723757 107.637749
66.125658 260.733472 107.648444
64.298947 259.394782 106.843171
62.955070 261.000987 106.761485
62.899236 260.984912 106.732511
65.200378 259.382267 107.009121
66.111045 259.353748 107.177392
63.024448 259.386028 106.212162
63.931981 259.362889 106.379639
64.825984 259.363212 106.543714
65.720621 259.362361 106.707938
63.522502 259.404459 105.905383
64.420220 259.398302 106.070389
65.307020 259.411037 106.232646
66.205773 259.403110 106.397912
63.123395 259.428076 105.433738
64.023031 259.418630 105.599234
64.906740 259.436735 105.760711
65.799430 259.439240 105.924443
63.619845 259.449343 105.126566
64.511736 259.453248 105.290106
65.402689 259.458807 105.453406
66.296931 259.458701 105.617541
63.715062 259.497873 104.347215
65.051108 259.506848 104.592067
65.945860 259.505873 104.756333
63.406472 259.471622 103.496711
64.312934 259.450355 103.663919
65.620089 259.509274 103.901496
66.496586 259.539823 104.061154
62.300231 259.745138 106.511759
61.584099 260.215623 106.341005
61.480387 259.673284 106.153027
61.686487 260.628608 106.363348
61.782493 260.637654 106.389619
60.448189 259.940840 105.844832
61.402306 260.543526 106.243346
61.082415 260.346303 106.108392
62.564618 260.807057 106.616693
62.243568 260.611487 106.482530
60.342987 260.702209 105.905084
60.431976 260.710582 105.926434
60.907847 260.651508 106.051024
60.862095 260.662580 106.032205
59.632341 259.868107 105.464331
62.115951 259.410766 106.044432
59.125959 259.999796 105.257307
60.086731 260.601786 105.616684
59.599297 260.690656 105.452322
59.524173 260.708077 105.414689
60.378576 259.429233 105.327372
61.282153 259.412975 105.493855
62.628140 259.404810 105.741226
59.116744 259.398558 104.699552
60.000753 259.416065 104.861093
60.899215 259.408702 105.026300
61.781496 259.429231 105.187413
59.600201 259.442231 104.389093
60.499267 259.433793 104.554444
61.389501 259.440550 104.717562
62.277868 259.450580 104.880215
60.100814 259.456259 104.082963
60.999242 259.448876 104.248148
61.884261 259.464678 104.409954
62.775687 259.469440 104.573381
59.714729 259.457401 103.614609
60.604523 259.464946 103.777617
60.224898 259.454942 103.310890
61.550172 259.482526 103.553030
62.436436 259.496198 103.715154
59.877318 259.496059 102.450561
60.769527 259.499423 102.614177
61.686344 259.460298 102.784000
58.618581 260.131654 105.055650
58.518464 259.588524 104.848073
58.429562 260.466007 104.979016
58.113598 260.263025 104.840972
59.091365 260.829926 105.226284
58.749868 260.668033 105.093371
59.032668 260.847808 105.203867
57.494848 259.854242 104.493143
58.243457 260.799673 104.886444
57.928670 260.596464 104.742024
57.616459 260.392705 104.583588
57.796532 260.829344 104.691628
56.998022 259.983813 104.233987
57.552426 260.694999 104.493923
57.479849 260.653430 104.456132
57.416692 260.620628 104.420507
57.133238 260.510963 104.281856
56.494583 260.114841 104.010905
56.652925 260.600410 104.070710
56.307123 260.448845 103.925756
56.577836 260.621623 104.036319
55.999008 260.244180 103.744969
56.127145 260.763778 103.865597
57.808927 259.447304 104.060130
55.813123 260.577822 103.651220
58.714864 259.426941 104.227200
58.321815 259.440126 103.757091
59.215728 259.440564 103.921143
58.822845 259.453432 103.451068
59.337410 259.443366 103.148457
55.511206 260.371818 103.436668
55.332552 260.692773 103.345565
55.016119 260.497874 103.180030
54.558280 260.567156 102.904162
54.461456 260.587336 102.841457
54.222102 260.423610 102.668638
54.092348 260.676852 102.526656
54.037096 260.690239 102.480993
53.966331 260.697568 102.442844
53.738797 260.550306 102.335864
53.662211 260.694630 102.271341
85.276908 257.256761 107.450796
85.183127 256.712267 107.208707
84.644521 255.676358 106.783687
85.090597 256.167541 106.959839
85.008334 255.620567 106.655008
85.878945 257.104415 107.136676
85.766749 256.563904 106.994908
84.731619 255.506860 106.468003
84.775671 255.442440 106.428834
84.813980 255.380628 106.387809
85.670704 256.019938 106.765216
85.580859 255.474619 106.501681
84.965263 255.079939 106.238082
86.033555 257.635749 107.047311
84.986000 255.012733 106.204330
85.049851 254.758195 106.138529
85.074602 254.658794 106.035752
85.130497 256.564867 106.406791
86.364098 256.412625 106.706392
86.257717 255.870873 106.532968
85.147467 254.449557 105.918270
86.164510 255.326252 106.287759
85.736835 254.582673 106.005340
85.248975 254.266441 105.772766
85.180319 257.499399 106.378869
86.512465 256.945285 106.651002
85.391544 256.212080 106.071239
86.855984 255.719340 106.239358
86.315881 254.435306 105.816480
86.750805 255.177310 106.059373
85.606112 255.379041 105.746207
85.423395 257.135790 106.040446
86.998126 256.253357 106.217930
86.916452 257.130014 106.314712
85.818507 254.602640 105.418519
85.495848 258.083984 106.016145
85.673558 256.776467 105.703161
86.905875 254.285586 105.567995
87.347938 255.026060 105.772011
87.257963 256.825673 105.992010
85.896868 255.948704 105.379525
85.708366 257.701978 105.672844
87.559069 255.592433 105.698725
87.496069 254.135826 105.318413
87.322116 257.768841 105.966377
86.120201 255.120936 105.055889
84.132921 257.548435 107.751626
83.860886 257.840276 107.712996
83.911866 257.403059 107.631896
83.957917 257.309579 107.570062
83.838483 257.812463 107.611189
84.089312 257.035317 107.525582
83.963418 257.632687 107.541857
84.191131 256.813784 107.421602
84.696010 257.404513 107.649725
84.212075 256.756938 107.357764
84.255726 256.629634 107.202736
84.300611 256.653985 107.191503
84.393940 256.345422 107.107815
84.399117 256.300820 107.046239
84.428829 255.849690 106.955233
84.500969 255.820419 106.919434
84.618136 256.921409 107.089535
84.370011 255.882781 106.782025
84.343275 255.884263 106.686745
84.670544 257.690721 107.018548
84.430625 256.166242 106.450615
84.443754 255.885056 106.311676
78.393385 259.494869 104.656633
79.348803 259.495510 104.434500
74.483458 259.431519 106.326241
75.438069 259.433595 106.103911
76.336590 259.426095 106.269125
77.283863 259.440833 106.044942
75.083465 259.486833 105.241808
75.988132 259.468697 105.408567
76.935101 259.484034 105.184319
77.841920 259.462153 105.351617
74.738132 259.524118 104.382050
75.636916 259.516122 104.547324
76.587976 259.524359 104.324102
77.488817 259.512825 104.489896
75.287578 259.560301 103.686550
76.239321 259.567350 103.463501
77.139285 259.557300 103.629072
78.044923 259.537472 103.796074
73.183895 259.465987 105.688898
70.986794 259.506350 104.886600
71.882028 259.504485 105.050981
74.129696 259.483313 105.464350
72.835921 259.507849 104.828477
71.536203 259.542572 104.191094
73.791743 259.507803 104.606448
72.481882 259.560114 103.966514
73.426777 259.578993 103.741737
71.230441 259.618022 102.939636
72.130061 259.608554 103.105113
74.381874 259.580237 103.519533
73.073611 259.629744 102.879994
71.786636 259.642494 102.245830
74.025355 259.636793 102.656944
74.933418 259.612780 102.824561
72.730511 259.663140 102.020795
67.385165 259.549492 104.223862
68.347982 259.537363 104.003597
69.236422 259.547283 104.166266
70.135454 259.538854 104.331604
67.988912 259.598379 103.140376
68.888953 259.588218 103.305968
69.785076 259.584835 103.470572
70.679537 259.584335 103.634759
68.536174 259.638346 102.444329
69.438226 259.624691 102.610423
70.329226 259.630206 102.773745
67.692649 259.657361 101.891299
68.226976 259.613142 101.593672
69.105558 259.640056 101.753853
70.004047 259.632595 101.919058
70.892177 259.643024 102.081647
67.885199 259.537691 101.136481
68.707094 259.662585 101.282376
67.836996 258.935573 100.826397
69.598915 259.666632 101.445896
68.403818 258.790813 100.704113
68.535274 259.327171 100.740933
69.252731 259.598821 100.987597
63.946535 259.524000 102.798847
64.849844 259.508209 102.965265
66.172618 259.540150 103.206778
67.061514 259.549247 103.369558
64.460337 259.515266 102.496046
64.064425 259.533394 102.025211
64.919519 259.600912 102.179475
65.792065 259.638249 102.338135
66.695587 259.622095 102.504608
64.582686 259.516913 101.723530
66.305377 259.630346 102.035209
67.215677 259.602474 102.203388
64.882901 259.120363 101.338340
65.522372 259.544776 101.497436
65.442548 258.977175 101.255171
66.837515 259.589914 101.737027
66.007614 258.832863 101.142513
66.122434 259.372776 101.269928
66.569961 258.689092 101.044629
67.352517 259.579091 101.434528
66.691612 259.227542 101.134851
67.265004 259.081409 100.976814
60.393528 259.483115 102.148359
61.281433 259.493970 102.310900
62.196222 259.458343 102.480211
63.038100 259.548661 102.631138
60.931272 259.433014 101.851596
61.809833 259.459994 102.011776
62.669524 259.519546 102.167193
63.537396 259.564992 102.324679
88.567410 254.217392 104.745971
88.932592 254.831831 104.391169
89.264364 254.521645 104.066918
89.290657 255.442018 104.035239
89.597376 254.212164 103.742853
89.352425 256.383761 104.009229
89.610987 255.124949 103.709161
89.665868 256.062519 103.682042
89.927507 254.805546 103.382462
89.707602 256.992225 103.652840
89.963903 255.732026 103.352403
90.238913 254.483084 103.054956
90.008297 256.663288 103.323613
90.260407 255.400582 103.022514
90.041179 257.587649 103.292991
90.315245 256.338130 102.995389
90.556692 255.068999 102.692588
90.348907 257.262978 102.964896
90.597377 255.998057 102.663211
90.835149 254.274437 102.377758
87.620130 256.533764 105.672605
85.957523 257.342058 105.335402
87.914923 255.296725 105.378312
87.659811 257.462195 105.643064
86.185455 256.517053 105.012496
88.090497 253.985111 105.045710
87.963712 256.230665 105.350231
88.224894 254.520824 105.066527
86.398415 255.683046 104.687206
86.247454 257.911212 104.968587
88.019985 257.169090 105.323342
86.631957 254.861427 104.365200
88.300109 255.923236 105.026711
86.477194 257.087316 104.645977
88.348069 256.856667 104.998496
88.612574 255.149113 104.717303
86.888585 254.505995 104.028948
86.708970 256.264609 104.323683
88.388372 257.785495 104.969059
86.933553 255.437603 104.000249
88.671487 256.541435 104.672906
86.818102 257.687162 104.287303
88.707529 257.467680 104.642783
88.982176 255.766256 104.363217
87.003692 256.836668 103.957639
87.198291 255.087052 103.665290
87.235244 256.013851 103.635317
89.043789 257.160186 104.319245
87.440251 254.722777 103.326690
87.070817 258.233913 103.914547
87.294225 257.406192 103.590921
87.505607 255.666685 103.301255
87.530718 256.586344 103.269386
89.399408 257.768869 103.962919
87.757988 255.308699 102.964323
87.581850 257.973995 103.223747
87.811701 256.245581 102.937024
87.870467 257.185531 102.910539
88.072241 255.892496 102.601394
88.296167 255.065071 102.277848
88.115268 256.822957 102.572391
88.175122 257.763549 102.546073
88.565913 254.717537 101.943689
88.378752 256.471646 102.237229
82.915017 259.593305 101.905534
79.000254 259.538350 103.573930
79.958236 259.534616 103.352452
80.857684 259.525467 103.517892
79.606729 259.582515 102.491130
80.508846 259.568779 102.657250
81.404101 259.566909 102.821637
79.239768 259.657134 101.625915
80.146545 259.635355 101.793209
81.057416 259.606506 101.961535
82.011903 259.608769 101.739167
79.792168 259.688228 100.931163
80.695756 259.671936 101.097650
81.654008 259.667734 100.876239
82.555812 259.654540 101.042278
75.881781 259.625702 102.600662
76.789908 259.601551 102.768287
77.694196 259.584095 102.934958
78.659472 259.567712 102.715313
75.517847 259.695062 101.736204
76.418570 259.683741 101.901972
77.330362 259.653306 102.070529
78.303640 259.623107 101.852903
76.070536 259.725651 101.041525
76.966276 259.722919 101.206034
77.925834 259.716478 100.984955
76.621335 259.759490 100.346369
78.883309 259.713642 100.763352
75.776466 259.780845 99.793006
77.579065 259.756220 100.124834
76.290727 259.771317 99.490321
78.530030 259.764606 99.901583
71.885006 259.685609 101.467275
73.666509 259.697444 101.793782
74.569033 259.682961 101.959995
72.377908 259.712977 101.159203
71.983543 259.728405 100.688758
72.875042 259.732996 100.852194
74.211131 259.741958 101.097068
72.472734 259.762192 100.379751
73.365706 259.764224 100.543559
75.164959 259.745371 100.874539
71.996387 258.445815 99.679512
72.156441 259.642706 99.928983
72.130769 258.981519 99.700371
72.992330 259.743433 100.078411
73.870119 259.771717 100.238391
72.579526 258.297559 99.468355
72.714457 258.833142 99.486211
72.840498 259.370630 99.552488
73.512997 259.722804 99.777335
73.160932 258.149673 99.266625
74.363461 259.798328 99.930430
75.268507 259.779512 100.097284
73.296888 258.685062 99.278950
73.431776 259.220634 99.297004
74.022047 259.722230 99.473331
73.750650 258.000025 99.019661
74.873216 259.796589 99.626610
73.887993 258.535084 99.024387
74.020400 259.071212 99.055988
72.042935 258.729264 98.319393
74.556386 259.678008 99.175707
72.187023 259.262860 98.287355
75.355257 259.842682 99.315797
74.482291 258.384448 98.752453
72.620303 258.582262 98.139691
74.622655 258.918843 98.740696
72.764707 259.115771 98.105912
70.139901 259.610909 101.149946
68.974655 258.645249 100.560002
70.996282 259.676193 101.304532
69.106432 259.181498 100.595044
69.546983 258.499343 100.407766
69.772311 259.580067 100.686249
70.616480 259.666509 100.837765
69.683093 259.034651 100.419186
71.482804 259.714594 100.994855
70.121461 258.352951 100.243793
70.252541 258.889366 100.282633
71.106152 259.699436 100.528877
70.700767 258.205519 100.053520
70.834765 258.741298 100.076460
70.968911 259.277066 100.098599
68.475660 259.068794 99.206170
71.614681 259.699793 100.224744
71.415915 258.593504 99.876156
69.037901 258.925052 99.108864
71.553968 259.128386 99.876988
69.602282 258.780863 98.999919
69.198783 259.455063 98.985366
69.755747 259.312447 98.916818
70.169951 258.635956 98.873039
68.677216 259.687389 98.493739
70.314080 259.169560 98.840813
70.886148 259.023694 98.689966
69.166025 259.721827 98.184635
70.102026 259.649527 98.359293
71.046076 259.553882 98.571647
71.459446 258.877573 98.532446
68.753137 259.769276 97.709523
71.617039 259.408255 98.426826
69.667203 259.734910 97.878654
70.556791 259.742815 98.041612
69.254827 259.781462 97.403666
70.154188 259.772487 97.569090
71.056389 259.758608 97.735229
71.998564 259.675634 97.911439
65.033491 259.381298 99.411312
65.566903 259.243820 99.471130
64.510487 259.614854 98.924227
66.850009 259.486809 99.165300
64.987258 259.670099 98.612089
65.870427 259.689110 98.773430
67.924106 259.210224 99.245239
65.473921 259.708220 98.302442
66.369705 259.705446 98.466964
67.281547 259.674875 98.635530
68.208031 259.619050 98.807792
65.968516 259.732696 97.994803
66.876742 259.708397 98.162458
67.782102 259.689009 98.329387
66.477344 259.732547 97.690748
67.391660 259.697717 97.859937
68.276410 259.713960 98.021668
67.867612 259.754340 97.547589
66.573550 259.779380 96.911644
67.498378 259.832920 96.681805
90.643999 256.930682 102.634783
90.882613 255.659848 102.331525
90.673050 257.852742 102.603550
90.934734 256.595761 102.303968
91.148393 254.857639 102.014668
90.976732 257.525629 102.274807
91.217137 256.255849 101.971831
91.425379 254.514455 101.681665
91.252834 257.181917 101.941662
91.454723 255.436672 101.650475
91.274135 258.099271 101.909182
91.521203 256.833525 101.607277
91.729012 255.091850 101.317035
89.790326 254.771748 100.576456
91.556479 257.759339 101.577041
91.776709 256.025120 101.288775
92.004917 254.295715 101.001788
91.827116 257.412303 101.243015
92.050144 255.679793 100.955204
90.159412 255.388565 100.222283
92.088081 256.607193 100.925387
92.311412 254.874867 100.637626
90.429366 255.041144 99.888155
92.138712 257.994515 100.879664
92.350610 256.255305 100.590075
92.573099 254.522473 100.302180
90.494895 255.985140 99.862744
92.387926 257.182338 100.560162
92.598326 255.442231 100.270334
90.543158 257.371066 99.816644
90.763938 255.637195 99.528475
92.643281 256.826148 100.223708
92.859144 255.089306 99.934746
90.810096 256.569516 99.499964
92.867475 255.998884 99.900205
92.679736 257.752648 100.193655
91.026620 255.285400 99.193184
90.872276 257.963792 99.456084
91.071722 256.217103 99.164512
93.114213 255.637486 99.562371
92.921983 257.388560 99.855103
91.306372 254.943872 98.860620
88.623118 255.656542 101.916952
88.452222 257.420435 102.213087
88.487835 258.346428 102.182899
88.696103 257.057309 101.874792
88.905729 255.316743 101.584845
88.723003 257.978080 101.843219
88.961295 256.254757 101.557843
89.210138 254.990067 101.256221
88.993856 257.631185 101.509231
89.249340 255.918226 101.226606
89.073906 258.583934 101.486140
89.291683 256.848272 101.197491
89.551585 255.590265 100.897638
89.365540 258.249568 101.155476
89.581610 256.512897 100.866558
89.620123 257.440612 100.836827
89.882874 256.184306 100.537425
89.920280 257.111382 100.507522
89.950996 258.034429 100.476553
90.209177 256.775386 100.176424
90.246633 257.702483 100.146528
90.276279 258.624884 100.115390
90.573676 258.293968 99.785637
83.468626 259.622307 101.211090
84.022248 259.651276 100.516645
83.665468 259.708326 99.654000
84.571571 259.687703 99.821123
84.216702 259.741439 98.958958
85.119441 259.726623 99.125231
86.042564 259.676545 99.296637
83.853411 259.809682 98.094660
84.761875 259.784983 98.262378
85.675602 259.751195 98.431423
86.595998 259.705899 98.602152
80.335984 259.734146 100.234250
81.293469 259.731247 100.012642
82.205179 259.700924 100.181176
83.117120 259.670205 100.349768
79.979132 259.791278 99.371578
80.936297 259.788982 99.149897
81.848104 259.758481 99.318456
82.750667 259.743957 99.484682
80.581791 259.842042 98.287817
81.489170 259.819248 98.455265
82.389960 259.807789 98.621047
83.300126 259.780136 98.789189
80.682002 259.881982 97.509726
82.036663 259.858788 97.759272
82.944612 259.835019 97.926867
80.279999 259.910609 97.037354
81.191457 259.880750 97.205830
80.787501 259.912765 96.732968
79.429210 259.755924 100.066957
76.806404 259.759307 99.187990
76.396363 259.801820 98.713591
77.279333 259.821189 98.874883
78.178516 259.812506 99.040259
76.251365 257.935419 98.011832
79.082229 259.796028 99.206780
76.885688 259.835418 98.404625
76.400089 258.468021 97.954561
77.784352 259.827636 98.569869
76.548860 259.000619 97.897022
76.846446 257.784619 97.735660
76.681434 259.536723 97.927737
77.407081 259.813497 98.103729
76.996903 258.316833 97.668911
78.280506 259.849379 98.262618
77.140552 258.850526 97.639276
79.177306 259.844839 98.427396
77.287267 259.383574 97.592931
77.593041 258.165776 97.386939
77.907145 259.828495 97.797462
78.778198 259.868455 97.955753
77.738328 258.699117 97.348373
79.682765 259.850469 98.122484
77.882320 259.232752 97.316867
76.311119 258.216003 96.579766
78.195278 258.013394 97.071707
78.396880 259.861342 97.488596
79.288497 259.865749 97.652065
76.454797 258.749700 96.549972
78.340710 258.546715 97.032375
76.612387 259.280402 96.444399
76.910811 258.064194 96.278437
78.494917 259.078129 96.945208
78.936614 259.807784 97.192328
78.797937 257.860916 96.754205
79.799261 259.862247 97.348495
77.061091 258.596469 96.212686
78.949453 258.392926 96.681694
77.212598 259.128473 96.140206
79.095886 258.926011 96.636886
79.433454 259.828337 96.885249
79.403566 257.707827 96.420547
77.674207 258.441723 95.838176
79.556749 258.239460 96.338931
79.923199 259.861123 96.576378
79.707619 258.771626 96.269975
77.830123 258.972796 95.741733
76.874622 259.827666 95.620724
77.494648 259.688203 95.740058
75.073945 258.234322 98.494863
75.891467 259.795218 99.018642
73.199548 258.434851 97.949748
75.210548 258.769557 98.503622
73.341933 258.968817 97.926987
75.350705 259.303988 98.492984
75.660901 258.085256 98.262910
73.785330 258.286038 97.724188
72.481173 259.720782 97.600775
73.535468 259.517532 97.802338
75.807888 258.618222 98.215087
73.937093 258.817969 97.650326
75.948020 259.152705 98.204630
74.084405 259.350859 97.600717
72.970427 259.754431 97.291781
74.527437 258.668145 97.399902
74.668721 259.202379 97.383175
73.465750 259.777615 96.984320
75.116184 258.518710 97.158234
75.262188 259.051887 97.115722
73.033985 259.857700 96.504451
75.703618 258.369533 96.923658
73.958122 259.805887 96.676114
74.896456 259.729609 96.851366
75.437349 259.578788 96.914413
75.857477 258.901001 96.838378
73.522055 259.893402 96.195158
74.435879 259.859436 96.364227
76.018065 259.431070 96.716471
73.993531 259.957806 95.881688
74.923933 259.895172 96.054932
75.856029 259.829617 96.228604
73.143428 259.988211 95.327007
74.510048 259.944383 95.579572
75.396278 259.958033 95.741675
76.365308 259.828707 95.924663
75.903776 259.960220 95.437290
73.672230 260.060032 94.626299
69.751808 259.801794 97.096628
70.646404 259.801045 97.260846
71.550116 259.784506 97.427360
71.143839 259.820526 96.953908
72.052065 259.796286 97.121575
70.274887 259.883527 96.394482
71.630020 259.859536 96.644150
72.542498 259.827911 96.812882
69.448680 259.979183 95.444146
70.805661 259.951985 95.694278
71.703548 259.945538 95.859329
72.604811 259.933282 96.025228
69.979249 260.047970 94.743889
71.313602 260.059897 94.988320
72.235084 260.012695 95.159318
69.613993 260.119664 93.879104
70.504483 260.126017 94.042291
71.862971 260.096221 94.292804
72.753948 260.101743 94.456114
68.397778 259.823875 96.847236
67.127250 259.914720 95.815536
68.021460 259.914653 95.979659
68.914748 259.916173 96.143551
67.638888 260.016248 95.110510
68.540974 260.002582 95.276621
68.189381 260.050626 94.415277
69.076425 260.062931 94.577592
68.714540 260.128785 93.713657
94.334815 255.179493 97.817301
94.548917 254.798429 97.474250
94.577610 255.720284 97.442962
94.779198 255.331720 97.097922
94.816504 256.258695 97.067995
94.975624 254.940019 96.752049
95.014284 255.867856 96.722350
95.056626 256.797902 96.693237
95.211717 255.476781 96.376643
91.125323 257.153945 99.137199
93.145913 256.561133 99.531559
93.358022 254.822064 99.242009
92.982221 258.329352 99.828841
91.362079 255.881951 98.833637
91.186496 258.547596 99.093155
91.420637 256.821788 98.807121
93.380777 256.192572 99.191824
93.217553 257.961095 99.489188
91.620233 255.527441 98.497629
91.455200 257.747134 98.776760
93.602566 255.363915 98.867951
93.418395 257.119789 99.161960
91.696509 256.477908 98.473932
91.891421 255.180755 98.163695
91.712384 257.392051 98.440598
93.845071 254.999930 98.529429
93.660278 256.755497 98.823355
91.941087 256.115225 98.135754
91.761656 258.326263 98.412593
93.863390 255.915546 98.496490
93.700441 257.684200 98.793888
91.981736 257.044259 98.106374
94.080581 254.631790 98.189806
92.215239 255.770338 97.802298
92.027518 257.976378 98.077809
94.101026 255.548669 98.157201
93.922965 257.308259 98.452193
92.256280 256.699601 97.772978
92.046119 258.892124 98.044903
92.483719 255.422045 97.467940
94.134947 256.473652 98.126742
93.948197 258.227986 98.420342
92.256160 257.604091 97.737086
92.527665 256.353029 97.439073
92.292682 258.530638 97.707044
94.352681 256.094803 97.784280
94.172080 257.852846 98.078863
92.534105 257.261482 97.404235
92.787215 255.999374 97.103292
94.381605 257.016767 97.753021
92.543451 258.171685 97.369857
92.801374 256.912450 97.069678
92.535222 259.071294 97.332671
94.605538 256.641648 97.411547
94.446968 258.412953 97.709648
92.798905 257.815538 97.033413
93.045351 256.549397 96.731403
94.647283 257.571323 97.382337
93.056331 257.460562 96.697281
93.249097 255.709841 96.404641
94.858639 257.188629 97.038851
93.044112 258.357778 96.659461
93.305030 257.100337 96.359759
94.895306 258.115270 97.008834
93.301818 258.002962 96.323369
93.543006 256.281389 96.038461
95.088580 257.721683 96.662461
93.337781 258.929190 96.293244
93.734434 255.434420 95.709731
88.633092 259.702144 97.386366
88.259903 259.787543 96.519583
89.188677 259.727722 96.692416
88.814225 259.815288 95.825313
89.789049 259.782481 95.608085
90.728871 259.703550 95.783700
84.398779 259.852929 97.398138
85.312679 259.818851 97.567227
86.231005 259.777096 97.737431
87.148325 259.737074 97.907377
84.945515 259.893829 96.701963
85.872409 259.837255 96.874321
86.790890 259.795245 97.044565
87.710110 259.751911 97.214987
84.590247 259.948221 95.839691
85.501444 259.918798 96.008097
86.421066 259.874806 96.178627
87.350630 259.813646 96.351663
85.147367 259.971133 95.146127
86.054927 259.948016 95.313620
86.981621 259.891800 95.485932
87.899771 259.850367 95.656090
84.822624 259.972855 94.291562
85.696500 260.007886 94.450554
86.612470 259.970236 94.620169
87.530904 259.928270 94.790394
81.692171 259.894629 96.899728
82.587681 259.892263 97.064173
80.167380 258.085288 95.978026
83.492975 259.873045 97.231093
80.316837 258.617717 95.916711
81.277343 259.945403 96.424121
80.472560 259.148816 95.821292
80.782991 257.930020 95.589942
80.907768 259.917988 95.959923
81.782516 259.951535 96.119139
80.937154 258.461423 95.502972
82.687006 259.933751 96.285863
84.044545 259.905581 96.536133
81.083554 258.994527 95.458365
81.416312 259.918311 95.655792
81.398833 257.774665 95.200553
82.284297 259.963573 95.813310
81.555521 258.305570 95.099898
81.921858 259.923855 95.350913
81.714141 258.836037 94.988704
82.794253 259.961446 95.509533
82.029614 257.616150 94.729864
83.697140 259.946378 95.675843
81.861506 259.368950 94.938841
82.406815 259.964931 95.040837
82.189974 258.146233 94.609178
83.290451 259.983116 95.202293
82.344701 258.677523 94.519159
82.914362 259.966984 94.736457
82.499773 259.208778 94.427300
83.805643 259.971968 94.899843
82.812306 257.989505 94.184462
80.960581 258.185122 93.515784
82.968113 258.520583 94.088573
83.412499 259.985301 94.429704
84.309873 259.979755 94.594624
81.125311 258.714245 93.371278
83.120617 259.052366 94.010687
83.439592 257.831726 93.732779
83.229560 259.635368 94.012551
81.276799 259.246273 93.298964
83.922422 259.983244 94.125921
83.594929 258.362898 93.639453
81.650134 258.957206 92.954663
83.725143 259.658117 93.705158
83.751162 258.893888 93.541255
79.852077 259.305107 96.235904
78.289196 258.286612 95.453499
80.415353 259.889788 96.268119
78.434243 258.819985 95.416217
78.384594 259.688950 95.333243
78.907829 258.130701 95.048978
77.844790 259.909446 95.000642
79.143827 258.698909 94.889620
77.420502 259.976588 94.522655
78.334712 259.941969 94.691823
79.162102 259.614474 94.856668
79.698247 258.502389 94.461479
77.906631 260.015674 94.212879
79.611986 259.379263 94.577974
78.836951 259.953185 94.386102
78.398908 260.044124 93.904649
80.074181 259.595935 94.229894
79.328405 259.983043 94.077664
80.327386 258.344204 93.999688
77.520695 260.123046 93.342874
80.483065 258.875310 93.904519
78.914250 260.032691 93.602234
79.858550 259.946039 93.778982
80.642007 259.405677 93.791516
78.488454 260.102432 93.123863
79.424382 260.030273 93.298504
80.363675 259.952307 93.473992
79.921361 260.050577 92.991456
80.871194 259.954398 93.169604
78.100867 260.212684 92.253447
79.031170 260.150260 92.426670
74.577664 260.040593 94.793256
75.474897 260.035297 94.958143
76.405638 259.972085 95.131474
76.911331 259.977347 94.826626
74.180751 260.166965 93.920491
75.101127 260.121674 94.091212
76.016026 260.085836 94.260547
76.993649 260.048166 94.044020
73.825849 260.220770 93.058319
74.732922 260.198425 93.225678
75.640724 260.174878 93.393232
76.594609 260.178215 93.170718
74.372259 260.262184 92.362054
75.284274 260.231354 92.530667
76.232177 260.245039 92.306649
77.142410 260.217276 92.474810
74.059521 260.243108 91.510509
74.948565 260.251952 91.673327
75.884466 260.286404 91.446288
70.158622 260.164176 93.182393
71.047124 260.173957 93.345077
72.393589 260.164964 93.592563
73.293334 260.155278 93.758077
70.729379 260.163536 92.492269
71.613098 260.181576 92.653748
72.920532 260.240055 92.891397
71.296736 260.168774 91.801288
72.191360 260.167986 91.965516
73.491031 260.239820 92.201203
71.807319 260.165594 91.497675
72.294883 260.202164 91.188255
73.198593 260.185655 91.354772
72.774070 260.253226 90.876727
95.251678 256.405401 96.347149
95.420549 255.092567 96.032754
95.275526 257.324300 96.315081
95.441827 256.009924 96.000276
95.477311 256.935851 95.970070
95.635189 255.616412 95.653921
95.497682 257.852683 95.937453
95.671953 256.543094 95.623918
95.824449 255.220407 95.306909
95.711577 257.471536 95.594377
95.844840 256.137265 95.274296
95.739377 258.392833 95.562944
95.892080 257.070229 95.245957
96.036687 255.742800 94.927690
95.928213 257.996576 95.215862
96.066008 256.665020 94.896501
96.121943 257.603237 94.869555
96.242825 256.261534 94.547502
96.152816 258.526404 94.838617
96.409789 255.399856 94.214872
96.290246 257.194644 94.519201
96.309937 258.111061 94.486472
96.458120 256.785769 94.168773
96.606379 255.912833 93.833155
96.495645 257.712943 94.138897
96.525481 258.635460 94.107787
96.761578 255.496340 93.480707
96.647235 257.294259 93.785867
96.790940 256.418553 93.449517
96.678489 258.217627 93.754982
96.948113 256.003260 93.097385
96.843475 257.807029 93.404098
93.566512 257.652389 95.988407
95.143624 258.659401 96.635383
93.561467 258.553907 95.951726
93.802250 256.832079 95.666748
95.322626 258.257228 96.286732
94.019629 256.000747 95.342166
93.807464 258.192075 95.613775
93.803547 259.094287 95.577280
94.218984 255.610821 94.996764
94.039386 257.369490 95.291514
94.267788 256.544758 94.968684
94.062926 258.740484 95.241459
92.296890 259.631334 94.882005
94.274279 257.905511 94.915912
94.514217 256.183177 94.630799
94.529283 257.096837 94.597339
94.291307 259.272593 94.864818
94.529294 258.453643 94.543521
94.748110 256.718630 94.255045
92.831688 259.692802 94.182811
94.919134 255.859363 93.923054
94.754188 257.626821 94.220134
94.771433 258.994072 94.169086
94.976031 257.250463 93.878330
95.147510 256.391472 93.546413
94.974535 258.154123 93.842221
93.378307 259.733856 93.486599
94.864576 259.444765 93.770851
95.342912 255.999178 93.200382
95.185136 257.770967 93.498613
95.121391 258.637170 93.452566
95.363959 256.916426 93.167875
93.898431 259.714194 93.185391
95.326579 258.250770 93.108099
95.531515 256.507370 92.817399
93.019096 259.795093 92.623338
95.536796 257.415105 92.782368
95.375054 259.184498 93.079961
89.425447 259.851264 94.743711
90.352269 259.794861 94.916060
91.300053 259.702187 95.093685
89.044775 259.949577 93.875039
89.984120 259.871535 94.050545
90.924482 259.791698 94.226301
91.910308 259.739824 94.011838
89.606219 259.965023 93.182567
90.539446 259.897549 93.356528
91.518713 259.857001 93.140411
92.452186 259.789095 93.314434
89.256101 260.010538 92.321597
90.172172 259.972739 92.491239
91.137229 259.956720 92.271534
92.061656 259.904432 92.443276
89.806924 260.044371 91.626450
88.447271 259.889905 94.960100
85.814011 260.017899 93.676820
87.162490 260.005411 93.924814
88.076703 259.970762 94.093976
85.414978 260.041404 93.205199
86.315514 260.030408 93.370919
85.058221 257.669844 92.438863
85.130965 258.618224 92.414612
85.935542 260.020984 92.904103
86.825364 260.028492 93.067120
87.725857 260.017509 93.232820
85.558928 260.005725 92.438129
86.425566 260.053329 92.595308
85.516222 259.244753 92.063015
88.684065 260.013410 93.011402
85.813962 258.461795 91.751265
86.052555 260.031832 92.130240
86.935271 260.051604 92.291464
86.542555 260.064213 91.821437
87.430519 260.074931 91.983986
88.339542 260.049259 92.151843
86.326831 259.770936 91.396021
86.441267 258.271842 91.079025
87.052634 260.061871 91.517692
86.542585 259.237392 91.059329
87.543019 260.093600 91.208988
86.849805 258.912395 90.731148
88.459518 260.055016 91.378732
86.952676 259.675090 90.719780
84.065822 257.674158 93.286831
84.406847 260.025255 93.815713
81.579120 259.819005 92.907448
81.996266 258.655621 92.632693
84.225812 258.204330 93.168156
84.197870 259.720327 93.391999
81.997728 259.561083 92.597058
84.920531 260.016704 93.512881
84.378873 258.735997 93.087239
82.316141 258.338276 92.306540
84.713500 257.972280 92.761059
82.360382 259.269475 92.277733
84.792900 258.924608 92.737856
82.613677 258.912012 91.940942
85.087239 259.941683 92.751545
81.938367 260.081578 91.770613
82.673999 259.852879 91.914698
82.947004 258.602743 91.616934
82.443837 260.087234 91.465713
83.167994 259.629130 91.539532
83.238286 258.268143 91.286204
82.018932 260.155456 90.987571
82.969195 260.058522 91.165824
83.648164 258.991736 90.935293
82.518233 260.171725 90.681105
83.699375 259.844918 90.910853
84.005581 259.519325 90.582513
83.036269 260.155670 90.379373
84.059613 258.493793 90.235650
82.593555 260.254686 89.896745
83.569505 260.113329 90.081468
84.121927 259.983997 90.187985
84.508445 259.254448 89.890401
80.416663 260.073797 92.683992
79.985883 260.152186 92.204372
80.931815 260.062720 92.381531
78.643977 260.259857 91.556359
79.562959 260.216953 91.726722
80.490357 260.159512 91.899210
81.447457 260.050781 92.079189
81.010675 260.139524 91.598053
78.277431 260.333756 90.691248
79.201466 260.282123 90.862885
80.120816 260.238631 91.033350
81.511436 260.153298 91.291962
81.082717 260.228089 90.812854
78.833443 260.358580 89.997404
79.749856 260.320142 90.167123
80.720858 260.293905 89.948928
81.624977 260.276709 90.115548
79.383820 260.393142 89.302138
80.367658 260.344756 89.087181
81.271013 260.328891 89.253613
82.185673 260.293452 89.422888
76.785910 260.273826 91.612232
75.053036 260.284504 90.896307
77.735747 260.284158 91.388702
74.647799 260.318721 90.423119
75.544308 260.314656 90.587819
76.426522 260.335354 90.748926
75.154741 260.321850 90.118592
77.369555 260.357444 90.523678
75.657544 260.332061 89.813010
76.548513 260.337615 89.976320
76.174931 260.317125 89.511112
77.044252 260.360079 89.668964
77.906876 260.414549 89.825120
76.662251 260.354155 89.201635
76.301626 260.311270 88.739693
77.159276 260.374385 88.894603
78.469417 260.428117 89.132926
76.470097 260.121887 88.398607
76.767282 260.385734 88.424756
76.884824 260.258614 88.167681
76.982773 260.248424 88.149002
77.117326 260.308042 88.094626
77.272366 260.392013 88.119751
77.222645 260.354278 88.038321
78.126466 260.461289 88.273769
77.300880 260.377775 87.994829
73.296521 260.229499 90.576100
74.170711 260.264049 90.735180
73.806830 260.226789 90.272416
74.318940 260.220946 89.969185
96.977685 256.925615 93.066232
96.937172 258.767999 93.383185
97.109953 255.590747 92.745993
97.132718 256.509003 92.713751
97.039173 258.319478 93.022243
97.170186 257.436127 92.683864
97.295023 256.096794 92.362439
97.320511 257.016713 92.330639
97.258529 258.846153 92.644160
97.345434 257.936285 92.298749
97.466700 256.594784 91.976748
96.236548 256.248933 91.367238
97.588178 255.705702 91.636850
97.485507 257.510672 91.943880
97.547247 259.243044 92.283953
97.517256 258.434339 91.913075
97.627698 257.086322 91.589348
96.434819 256.762893 90.985785
97.974985 259.383036 91.959458
97.760120 256.203853 91.251202
97.675508 258.019660 91.561108
97.771280 259.069016 91.537076
96.580678 256.340783 90.631845
97.803456 257.586777 91.204310
98.469022 259.408425 91.651670
96.617829 257.267726 90.601908
97.935099 256.703821 90.866037
97.854281 258.521936 91.176553
98.143137 259.305525 91.198487
96.750092 256.837416 90.245795
97.973156 258.083567 90.818302
98.968065 259.425218 91.345154
98.097032 257.195938 90.478788
96.877668 256.404271 89.888931
98.595175 259.403536 90.880121
98.208455 256.300800 90.137284
99.475368 259.427672 91.040709
96.902765 257.323961 89.857070
98.142338 258.580062 90.432215
98.236949 257.674790 90.088023
97.040600 256.896986 89.501841
99.074046 259.455141 90.568511
98.350590 256.780988 89.746872
97.060649 257.813637 89.469174
94.415003 259.700635 92.883284
95.720664 257.015854 92.434491
95.565780 258.789366 92.733180
94.006287 259.740903 92.409226
94.935791 259.679820 92.582243
95.897545 256.160137 92.103443
95.740354 257.932270 92.401764
93.584496 259.803720 91.931864
95.713084 259.272691 92.343599
95.941459 257.543406 92.056643
96.067941 256.657341 91.717544
95.950773 258.453585 92.022259
94.561006 259.767993 91.715059
95.652555 259.630899 91.920833
96.135069 258.054586 91.674451
94.155971 259.801851 91.241923
96.283394 257.181668 91.338838
96.147103 258.966399 91.640501
95.076891 259.755593 91.412774
96.311067 258.555177 91.289450
96.250713 259.423402 91.243940
95.601376 259.728424 91.112672
96.482165 257.695956 90.957471
93.777048 259.897166 90.373696
94.711891 259.826852 90.548059
96.452773 259.035114 90.898971
96.646336 258.189435 90.570583
95.689898 259.788501 90.331625
96.547669 259.486867 90.501018
96.776232 257.757697 90.214092
96.822431 258.690069 90.185595
94.324405 259.936925 89.677666
95.282935 259.825709 89.858003
96.303150 259.734330 90.048878
96.931043 258.245532 89.825709
96.927944 259.148226 89.789341
90.780102 260.014381 91.408805
91.706729 259.958275 91.581097
92.638603 259.893114 91.754715
89.971007 260.080435 90.462777
91.339997 260.032528 90.715944
92.270968 259.968889 90.889327
93.204045 259.901639 91.063247
90.527155 260.105040 89.768969
91.904652 260.042391 90.024274
92.830207 259.988186 90.196304
90.195643 260.118389 88.912688
91.090825 260.116659 89.077061
92.474563 260.043257 89.333942
93.392479 260.002191 89.504038
90.760533 260.127914 88.221089
91.645776 260.143322 88.382949
88.070749 260.060779 90.909696
88.964203 260.062011 91.073630
87.680782 260.068599 90.440356
87.398968 258.675403 90.046432
88.575050 260.068454 90.604500
87.622038 257.847503 89.722760
87.492255 259.636118 90.025453
88.178673 260.087347 90.133543
89.076303 260.081366 90.298529
88.670040 260.117351 89.825085
