0.0318565 0.0708250 -0.0167981
0.0318565 0.0709538 -0.0162725
0.0319169 0.0715113 -0.0136084
0.0319962 0.0705750 -0.0170225
0.0321065 0.0712231 -0.0142725
0.0321165 0.0705750 -0.0165225
0.0321471 0.0710750 -0.0147725
0.0323565 0.0703250 -0.0163349
0.0323565 0.0708250 -0.0147074
0.0323565 0.0709707 -0.0140225
0.0325414 0.0705750 -0.0147725
0.0326065 0.0702145 -0.0157725
0.0328018 0.0705750 -0.0135225
0.0328565 0.0703250 -0.0141337
0.0285756 0.0792023 -0.0151398
0.0286354 0.0793395 -0.0184719
0.0286676 0.0792847 -0.0173811
0.0286777 0.0792557 -0.0170090
0.0287047 0.0793126 -0.0198069
0.0287749 0.0792134 -0.0159328
0.0287886 0.0793333 -0.0141640
0.0288565 0.0792044 -0.0202725
0.0289858 0.0793250 -0.0195225
0.0290375 0.0792903 -0.0162204
0.0290392 0.0793558 -0.0144387
0.0290512 0.0788250 -0.0202725
0.0290590 0.0793209 -0.0151769
0.0290889 0.0793236 -0.0185195
0.0290942 0.0793212 -0.0174909
0.0291648 0.0793250 -0.0190225
0.0292757 0.0788250 -0.0197725
0.0293380 0.0793213 -0.0170049
0.0293565 0.0783250 -0.0199344
0.0293893 0.0793679 -0.0156394
0.0294613 0.0788250 -0.0192725
0.0296065 0.0780750 -0.0194387
0.0296065 0.0788250 -0.0189161
0.0296065 0.0792275 -0.0182725
0.0296638 0.0773250 -0.0195225
0.0297159 0.0792286 -0.0176784
0.0297670 0.0792845 -0.0168433
0.0298066 0.0793127 -0.0162893
0.0298170 0.0794607 -0.0148943
0.0298217 0.0793955 -0.0154536
0.0298371 0.0794645 -0.0140749
0.0298565 0.0775750 -0.0189974
0.0298565 0.0780750 -0.0187976
0.0298565 0.0788113 -0.0182725
0.0300406 0.0773250 -0.0185225
0.0300434 0.0780750 -0.0182725
0.0300502 0.0788250 -0.0177725
0.0300815 0.0791499 -0.0169729
0.0301065 0.0783250 -0.0179167
0.0303115 0.0780750 -0.0175225
0.0303285 0.0788250 -0.0167725
0.0303520 0.0791716 -0.0159955
0.0303824 0.0773250 -0.0175225
0.0303972 0.0792066 -0.0156384
0.0305116 0.0788250 -0.0162725
0.0305131 0.0778250 -0.0170225
0.0305197 0.0792770 -0.0149728
0.0306065 0.0790750 -0.0156362
0.0306232 0.0773250 -0.0167725
0.0306310 0.0793696 -0.0142262
0.0307510 0.0778250 -0.0162725
0.0307740 0.0773250 -0.0162725
0.0308565 0.0783250 -0.0155549
0.0308565 0.0788964 -0.0150225
0.0309236 0.0780750 -0.0155225
0.0309554 0.0788250 -0.0147725
0.0310637 0.0775750 -0.0152725
0.0311065 0.0780750 -0.0148094
0.0311065 0.0788250 -0.0140338
0.0311257 0.0775750 -0.0150225
0.0312377 0.0780750 -0.0140225
0.0313227 0.0775750 -0.0140225
0.0313565 0.0781047 -0.0135225
0.0313866 0.0773250 -0.0137725
0.0286065 0.0970988 -0.0190225
0.0288471 0.0973250 -0.0190225
0.0285209 0.1005750 -0.0147725
0.0286065 0.0984033 -0.0177725
0.0286065 0.0985852 -0.0200225
0.0286065 0.0996422 -0.0135225
0.0286065 0.1003590 -0.0142725
0.0286065 0.1005750 -0.0183079
0.0286065 0.1013290 -0.0177725
0.0286065 0.1017110 -0.0175225
0.0287750 0.1020750 -0.0172725
0.0287756 0.0975750 -0.0195225
0.0288840 0.0988250 -0.0195225
0.0288939 0.0978250 -0.0197725
0.0289038 0.1008250 -0.0157725
0.0289123 0.0978250 -0.0190225
0.0289290 0.0983250 -0.0197725
0.0289905 0.0978250 -0.0185225
0.0290572 0.1013250 -0.0150225
0.0291065 0.0985750 -0.0177496
0.0291065 0.0990750 -0.0192391
0.0291065 0.0991218 -0.0170225
0.0291065 0.0998250 -0.0188917
0.0291065 0.0998250 -0.0163925
0.0291065 0.0998250 -0.0134884
0.0291065 0.1005750 -0.0184124
0.0291065 0.1005750 -0.0161168
0.0291065 0.1005750 -0.0139296
0.0291065 0.1010750 -0.0180242
0.0291065 0.1012130 -0.0155225
0.0291065 0.1013250 -0.0178247
0.0291065 0.1017430 -0.0175225
0.0291065 0.1024420 -0.0170225
0.0291065 0.1030750 -0.0164591
0.0291065 0.1039260 -0.0155225
0.0291293 0.1013250 -0.0142725
0.0291852 0.0983250 -0.0182725
0.0291918 0.0983250 -0.0190225
0.0292271 0.1015750 -0.0147725
0.0293002 0.1015750 -0.0142725
0.0293565 0.0989712 -0.0175225
0.0293565 0.0994698 -0.0167725
0.0293565 0.1000750 -0.0186820
0.0293565 0.1005750 -0.0136311
0.0293747 0.1015750 -0.0152725
0.0294537 0.1010750 -0.0135225
0.0295287 0.0990750 -0.0187725
0.0296065 0.0993629 -0.0172725
0.0296065 0.0999294 -0.0165225
0.0296065 0.1019970 -0.0142725
0.0296065 0.1039610 -0.0155225
0.0296276 0.1010750 -0.0180225
0.0296435 0.1018250 -0.0175225
0.0296684 0.1005750 -0.0182725
0.0297035 0.0990750 -0.0182725
0.0297865 0.1020750 -0.0150225
0.0297893 0.0993250 -0.0177725
0.0298164 0.1013250 -0.0157725
0.0298441 0.0998250 -0.0182725
0.0298565 0.0998250 -0.0169958
0.0298565 0.1005750 -0.0162723
0.0298565 0.1012620 -0.0177725
0.0298565 0.1017040 -0.0155225
0.0298565 0.1019580 -0.0135225
0.0298565 0.1020750 -0.0172585
0.0298565 0.1032090 -0.0162725
0.0299403 0.1023250 -0.0147725
0.0299816 0.1010750 -0.0160225
0.0300176 0.1025750 -0.0167725
0.0300275 0.1025750 -0.0142725
0.0300478 0.0998250 -0.0177725
0.0300655 0.1028250 -0.0165225
0.0300742 0.1003250 -0.0167725
0.0300957 0.1005750 -0.0177725
0.0301065 0.1036100 -0.0157725
0.0301276 0.1025750 -0.0135225
0.0302185 0.1023250 -0.0167725
0.0302696 0.1005750 -0.0170225
0.0302738 0.1008250 -0.0165225
0.0303474 0.1030750 -0.0160225
0.0303565 0.1012450 -0.0162725
0.0303565 0.1028250 -0.0161904
0.0303565 0.1039650 -0.0152725
0.0303724 0.1033250 -0.0135225
0.0303733 0.1013250 -0.0170225
0.0303890 0.1018250 -0.0167725
0.0304072 0.1020750 -0.0155225
0.0304368 0.1025750 -0.0150225
0.0304391 0.1033250 -0.0140225
0.0304944 0.1018250 -0.0162725
0.0306065 0.1040750 -0.0149366
0.0306094 0.1025750 -0.0155225
0.0306163 0.1030750 -0.0155225
0.0306170 0.1030750 -0.0147725
0.0307215 0.1038250 -0.0140225
0.0286065 0.1048250 -0.0148259
0.0286065 0.1069080 -0.0135225
0.0291065 0.1043250 -0.0151429
0.0291065 0.1045750 -0.0149474
0.0291065 0.1053250 -0.0144523
0.0291065 0.1068250 -0.0135109
0.0293565 0.1052020 -0.0145225
0.0293565 0.1061030 -0.0140225
0.0298565 0.1048250 -0.0148054
0.0298565 0.1052750 -0.0145225
0.0298565 0.1055750 -0.0143699
0.0298565 0.1062340 -0.0140225
0.0298565 0.1068610 -0.0135225
0.0301065 0.1043250 -0.0151418
0.0301065 0.1065750 -0.0138452
0.0303565 0.1052900 -0.0145225
0.0305248 0.1045750 -0.0147725
0.0306065 0.1060750 -0.0140958
0.0306065 0.1068780 -0.0135225
0.0306632 0.1055750 -0.0142725
0.0308565 0.1063590 -0.0137725
0.0308843 0.1048250 -0.0142725
0.0309424 0.1043250 -0.0140225
0.0309861 0.1053250 -0.0140225
0.0309959 0.1048250 -0.0140225
0.0310474 0.1048250 -0.0135225
0.0311609 0.1060750 -0.0135225
0.0311688 0.1053250 -0.0135225
0.0285635 0.1373250 -0.0145225
0.0285640 0.1370750 -0.0142725
0.0286065 0.1368900 -0.0137725
0.0286065 0.1383250 -0.0149496
0.0286615 0.1373250 -0.0140225
0.0288317 0.1383250 -0.0140225
0.0288998 0.1380750 -0.0135225
0.0285444 0.1385750 -0.0152725
0.0286065 0.1423280 -0.0182725
0.0286065 0.1424750 -0.0190225
0.0286090 0.1403250 -0.0150225
0.0286271 0.1388250 -0.0150225
0.0286294 0.1398250 -0.0150225
0.0286464 0.1413250 -0.0155225
0.0286867 0.1418250 -0.0162725
0.0287620 0.1415750 -0.0155225
0.0287763 0.1413250 -0.0150225
0.0287993 0.1423250 -0.0175225
0.0288457 0.1413250 -0.0147725
0.0288565 0.1419630 -0.0160225
0.0288565 0.1426950 -0.0197725
0.0289168 0.1398250 -0.0140225
0.0289744 0.1410750 -0.0140225
0.0290940 0.1420750 -0.0155225
0.0291065 0.1418260 -0.0147725
0.0291065 0.1423290 -0.0162725
0.0291065 0.1424650 -0.0170225
0.0291065 0.1425750 -0.0176891
0.0291065 0.1427030 -0.0185225
0.0291065 0.1427450 -0.0192725
0.0292365 0.1418250 -0.0142725
0.0293565 0.1416850 -0.0135225
0.0293565 0.1422430 -0.0150225
0.0293565 0.1423480 -0.0155225
0.0293565 0.1428960 -0.0200225
0.0295170 0.1428250 -0.0182725
0.0296469 0.1425750 -0.0155225
0.0296544 0.1425750 -0.0147725
0.0296632 0.1425750 -0.0140225
0.0296686 0.1423250 -0.0135225
0.0298565 0.1427740 -0.0162725
0.0298565 0.1428250 -0.0170112
0.0298565 0.1428540 -0.0175225
0.0298565 0.1428890 -0.0182725
0.0298565 0.1428920 -0.0190225
0.0298565 0.1429060 -0.0195225
0.0298565 0.1431440 -0.0142725
0.0298660 0.1430750 -0.0135225
0.0299709 0.1430750 -0.0147725
0.0300364 0.1438250 -0.0135225
0.0300473 0.1428250 -0.0190225
0.0301065 0.1428670 -0.0155225
0.0301065 0.1428710 -0.0172725
0.0301065 0.1428860 -0.0177725
0.0301065 0.1435920 -0.0140225
0.0303164 0.1440750 -0.0137725
0.0303565 0.1428150 -0.0197725
0.0303565 0.1428500 -0.0170225
0.0303565 0.1428790 -0.0177725
0.0303565 0.1428850 -0.0180225
0.0303565 0.1428890 -0.0162725
0.0303565 0.1435180 -0.0142725
0.0304948 0.1445750 -0.0135225
0.0306065 0.1427910 -0.0182725
0.0306065 0.1428210 -0.0177725
0.0306065 0.1428450 -0.0190225
0.0306065 0.1428850 -0.0170225
0.0306065 0.1430050 -0.0155225
0.0306065 0.1433250 -0.0148676
0.0306065 0.1439250 -0.0140225
0.0306065 0.1443250 -0.0139067
0.0310419 0.1428250 -0.0202725
0.0311065 0.1427890 -0.0182725
0.0311065 0.1428000 -0.0197725
0.0311065 0.1428570 -0.0192725
0.0311065 0.1433250 -0.0149317
0.0311065 0.1438250 -0.0141638
0.0311065 0.1445750 -0.0136637
0.0311821 0.1430750 -0.0155225
0.0312166 0.1428250 -0.0175225
0.0313565 0.1428610 -0.0175225
0.0313565 0.1428700 -0.0185225
0.0313565 0.1428990 -0.0197725
0.0313565 0.1429000 -0.0190225
0.0313565 0.1429730 -0.0170225
0.0313565 0.1430220 -0.0165225
0.0313565 0.1435750 -0.0146244
0.0313565 0.1443900 -0.0140225
0.0313823 0.1453250 -0.0200225
0.0315547 0.1448250 -0.0200225
0.0316065 0.1452510 -0.0195225
0.0317912 0.1430750 -0.0190225
0.0317933 0.1433250 -0.0197725
0.0318565 0.1430460 -0.0182725
0.0318565 0.1431300 -0.0170225
0.0318565 0.1432540 -0.0155225
0.0318565 0.1434700 -0.0150225
0.0318565 0.1440750 -0.0142232
0.0318565 0.1443880 -0.0140225
0.0318565 0.1445750 -0.0194779
0.0318565 0.1453250 -0.0135456
0.0318617 0.1453250 -0.0190225
0.0319089 0.1438250 -0.0197725
0.0319143 0.1430750 -0.0175225
0.0319596 0.1445750 -0.0192725
0.0321065 0.1437190 -0.0147725
0.0321065 0.1440750 -0.0191456
0.0321065 0.1450750 -0.0137989
0.0321065 0.1453250 -0.0185124
0.0321401 0.1433250 -0.0162725
0.0322130 0.1448250 -0.0137725
0.0322344 0.1435750 -0.0152725
0.0322727 0.1438250 -0.0185225
0.0322888 0.1445750 -0.0185225
0.0323212 0.1448250 -0.0182725
0.0323565 0.1435390 -0.0157725
0.0323565 0.1440750 -0.0183370
0.0323565 0.1440750 -0.0144530
0.0323565 0.1453250 -0.0177931
0.0324309 0.1448250 -0.0137725
0.0324656 0.1438250 -0.0175225
0.0325552 0.1445750 -0.0175225
0.0325964 0.1438250 -0.0162725
0.0326065 0.1440030 -0.0147725
0.0326065 0.1440470 -0.0170225
0.0326065 0.1445750 -0.0141359
0.0326065 0.1453250 -0.0135108
0.0326114 0.1438250 -0.0155225
0.0326334 0.1453250 -0.0170225
0.0327631 0.1445750 -0.0167725
0.0328565 0.1450750 -0.0139459
0.0328750 0.1453250 -0.0165225
0.0329191 0.1445750 -0.0162725
0.0329198 0.1443250 -0.0147725
0.0329502 0.1443250 -0.0152725
0.0330335 0.1448250 -0.0142725
0.0330486 0.1448250 -0.0160225
0.0331065 0.1446620 -0.0147725
0.0331065 0.1447040 -0.0155225
0.0331065 0.1453250 -0.0160750
0.0332679 0.1453250 -0.0142725
0.0332855 0.1453250 -0.0155225
0.0333426 0.1453250 -0.0150225
0.0288565 0.1520750 -0.0171252
0.0288565 0.1521490 -0.0175225
0.0290310 0.1515750 -0.0162725
0.0291065 0.1515750 -0.0155958
0.0291788 0.1515750 -0.0170225
0.0292569 0.1510750 -0.0155225
0.0292757 0.1515750 -0.0150225
0.0293565 0.1509660 -0.0162725
0.0293565 0.1515750 -0.0175410
0.0293565 0.1519110 -0.0182725
0.0294739 0.1510750 -0.0167725
0.0294855 0.1508250 -0.0150225
0.0295104 0.1520750 -0.0140225
0.0295122 0.1505750 -0.0155225
0.0295356 0.1513250 -0.0145225
0.0296065 0.1508250 -0.0147329
0.0296065 0.1514390 -0.0177725
0.0296065 0.1515750 -0.0142102
0.0296839 0.1505750 -0.0162725
0.0298565 0.1500960 -0.0155225
0.0298565 0.1502640 -0.0160225
0.0298565 0.1508250 -0.0142423
0.0298565 0.1508430 -0.0170225
0.0298565 0.1515750 -0.0183094
0.0298565 0.1516630 -0.0135225
0.0299088 0.1510750 -0.0175225
0.0299672 0.1500750 -0.0147725
0.0300705 0.1498250 -0.0155225
0.0301065 0.1497420 -0.0150225
0.0301065 0.1503250 -0.0142157
0.0301065 0.1505230 -0.0167725
0.0301065 0.1510750 -0.0136344
0.0301065 0.1512160 -0.0180225
0.0301065 0.1518260 -0.0187725
0.0303019 0.1500750 -0.0140225
0.0303565 0.1507710 -0.0175225
0.0303565 0.1514100 -0.0185225
0.0304818 0.1493250 -0.0150225
0.0305091 0.1495750 -0.0140225
0.0306065 0.1493360 -0.0155225
0.0306065 0.1498250 -0.0162359
0.0306065 0.1500750 -0.0165703
0.0306065 0.1503620 -0.0170225
0.0306065 0.1510630 -0.0182725
0.0306065 0.1518250 -0.0190768
0.0307651 0.1490750 -0.0152725
0.0308565 0.1488440 -0.0147725
0.0308565 0.1488830 -0.0142725
0.0310383 0.1465750 -0.0202725
0.0310814 0.1460750 -0.0202725
0.0311065 0.1474550 -0.0202725
0.0311065 0.1485750 -0.0140245
0.0311065 0.1486710 -0.0150225
0.0311065 0.1508250 -0.0183423
0.0311065 0.1515750 -0.0192371
0.0311065 0.1520750 -0.0197984
0.0311379 0.1500750 -0.0170225
0.0312067 0.1473250 -0.0200225
0.0312144 0.1488250 -0.0135225
0.0312589 0.1510750 -0.0187725
0.0312716 0.1468250 -0.0197725
0.0312862 0.1460750 -0.0197725
0.0313565 0.1482790 -0.0142725
0.0313565 0.1483690 -0.0147725
0.0313565 0.1488430 -0.0155225
0.0313565 0.1494040 -0.0162725
0.0313565 0.1497950 -0.0167725
0.0313565 0.1503250 -0.0176845
0.0313565 0.1517770 -0.0197725
0.0314533 0.1483250 -0.0137725
0.0315435 0.1478250 -0.0200225
0.0315543 0.1460750 -0.0192725
0.0315884 0.1490750 -0.0160225
0.0315969 0.1468250 -0.0192725
0.0316065 0.1498650 -0.0170225
0.0317106 0.1460750 -0.0190225
0.0317920 0.1513250 -0.0197725
0.0318326 0.1478250 -0.0140225
0.0318565 0.1468250 -0.0188985
0.0318565 0.1475750 -0.0195281
0.0318565 0.1478300 -0.0197725
0.0318565 0.1479760 -0.0147725
0.0318565 0.1488150 -0.0157725
0.0318565 0.1492250 -0.0162725
0.0318565 0.1495750 -0.0167281
0.0318565 0.1501310 -0.0177725
0.0318565 0.1505750 -0.0185813
0.0318565 0.1514460 -0.0202725
0.0318996 0.1508250 -0.0190225
0.0320364 0.1510750 -0.0197725
0.0320466 0.1473250 -0.0190225
0.0320515 0.1483250 -0.0152725
0.0320885 0.1473250 -0.0135225
0.0320910 0.1460750 -0.0182725
0.0321065 0.1465750 -0.0183233
0.0321065 0.1474560 -0.0140225
0.0321065 0.1476650 -0.0145225
0.0321065 0.1489520 -0.0160225
0.0321065 0.1503250 -0.0183680
0.0323565 0.1465750 -0.0136245
0.0323565 0.1468310 -0.0180225
0.0323565 0.1478210 -0.0197725
0.0324049 0.1508250 -0.0202725
0.0324117 0.1460750 -0.0175225
0.0324666 0.1505750 -0.0192725
0.0326065 0.1458270 -0.0135225
0.0326065 0.1467970 -0.0175225
0.0326065 0.1473250 -0.0144174
0.0326065 0.1474740 -0.0190225
0.0326065 0.1477390 -0.0197725
0.0326065 0.1479500 -0.0150225
0.0326065 0.1483250 -0.0154386
0.0326065 0.1490060 -0.0162725
0.0326065 0.1491790 -0.0165225
0.0326065 0.1495750 -0.0171280
0.0326065 0.1498760 -0.0177725
0.0326065 0.1500750 -0.0182833
0.0326065 0.1505750 -0.0197055
0.0326131 0.1468250 -0.0140225
0.0326259 0.1460750 -0.0170225
0.0327004 0.1473250 -0.0185225
0.0327292 0.1465750 -0.0170225
0.0327480 0.1503250 -0.0190225
0.0327972 0.1475750 -0.0147725
0.0327981 0.1485750 -0.0157725
0.0328565 0.1463250 -0.0139426
0.0328565 0.1471820 -0.0177725
0.0328565 0.1497570 -0.0177725
0.0328565 0.1503970 -0.0197725
0.0329671 0.1503250 -0.0202725
0.0330581 0.1458250 -0.0137725
0.0330625 0.1473250 -0.0147725
0.0331065 0.1455740 -0.0137725
0.0331065 0.1474690 -0.0182725
0.0331065 0.1476390 -0.0190225
0.0331065 0.1498770 -0.0185225
0.0331065 0.1500750 -0.0191513
0.0331065 0.1501700 -0.0197725
0.0331113 0.1465750 -0.0142725
0.0331271 0.1480750 -0.0155225
0.0331401 0.1493250 -0.0172725
0.0331968 0.1458250 -0.0160225
0.0332640 0.1485750 -0.0162725
0.0332727 0.1460750 -0.0142725
0.0332888 0.1468250 -0.0162725
0.0333225 0.1468250 -0.0147725
0.0333565 0.1474840 -0.0170225
0.0333565 0.1488250 -0.0168762
0.0333565 0.1493250 -0.0177537
0.0333565 0.1495750 -0.0184234
0.0333565 0.1497420 -0.0190225
0.0333630 0.1475750 -0.0175225
0.0333786 0.1458250 -0.0155225
0.0334245 0.1460750 -0.0147725
0.0334388 0.1473250 -0.0155225
0.0334482 0.1473250 -0.0162725
0.0334591 0.1468250 -0.0155225
0.0334686 0.1480750 -0.0197725
0.0334727 0.1480750 -0.0162725
0.0335211 0.1495750 -0.0197725
0.0335280 0.1480750 -0.0192725
0.0335432 0.1488250 -0.0175225
0.0335700 0.1480750 -0.0170225
0.0335948 0.1480750 -0.0175225
0.0335989 0.1480750 -0.0182725
0.0336517 0.1488250 -0.0197725
0.0336695 0.1488250 -0.0185225
0.0336787 0.1488250 -0.0190225
0.0286065 0.1524050 -0.0170225
0.0286065 0.1524480 -0.0175225
0.0286065 0.1528250 -0.0156887
0.0286065 0.1530750 -0.0190079
0.0286065 0.1537530 -0.0147725
0.0286065 0.1538250 -0.0194455
0.0286065 0.1543250 -0.0140401
0.0286065 0.1545340 -0.0137725
0.0286065 0.1558310 -0.0202725
0.0286411 0.1525750 -0.0182725
0.0286734 0.1523250 -0.0162725
0.0287708 0.1533250 -0.0147725
0.0287768 0.1538250 -0.0140225
0.0287931 0.1523250 -0.0157725
0.0288565 0.1535750 -0.0140906
0.0288959 0.1543250 -0.0197725
0.0289854 0.1523250 -0.0152725
0.0289863 0.1528250 -0.0147725
0.0289897 0.1548250 -0.0200225
0.0291065 0.1523130 -0.0185225
0.0291065 0.1530490 -0.0140225
0.0291065 0.1530750 -0.0192038
0.0291065 0.1538250 -0.0196200
0.0291843 0.1530750 -0.0137725
0.0291903 0.1523250 -0.0147725
0.0293354 0.1550750 -0.0202725
0.0293398 0.1523250 -0.0187725
0.0293565 0.1523250 -0.0142588
0.0293565 0.1533250 -0.0194341
0.0294924 0.1525750 -0.0135225
0.0296065 0.1522730 -0.0135225
0.0296065 0.1529140 -0.0192725
0.0296742 0.1540750 -0.0200225
0.0297355 0.1535750 -0.0197725
0.0298324 0.1543250 -0.0202725
0.0298565 0.1523250 -0.0190462
0.0298797 0.1530750 -0.0195225
0.0303565 0.1523250 -0.0193281
0.0303565 0.1528250 -0.0197243
0.0306065 0.1523250 -0.0195225
0.0306065 0.1531530 -0.0202725
0.0285173 0.1793440 -0.0183674
0.0286269 0.1779310 -0.0196433
0.0289282 0.1785510 -0.0191050
0.0290393 0.1780750 -0.0196042
0.0291794 0.1776200 -0.0199594
0.0293430 0.1773830 -0.0201008
0.0293511 0.1788760 -0.0189674
0.0297949 0.1782040 -0.0197286
0.0297958 0.1772470 -0.0202630
0.0297960 0.1777600 -0.0200155
0.0298565 0.1790750 -0.0190712
0.0301065 0.1786680 -0.0195225
0.0302681 0.1781990 -0.0199649
0.0305903 0.1780910 -0.0202311
0.0306065 0.1790750 -0.0196482
0.0306587 0.1793250 -0.0195225
0.0308565 0.1785750 -0.0202078
0.0311065 0.1791900 -0.0200225
0.0285181 0.1820750 -0.0147725
0.0286065 0.1809440 -0.0170225
0.0286065 0.1814990 -0.0162725
0.0286454 0.1823250 -0.0140225
0.0286982 0.1823250 -0.0152725
0.0287278 0.1823250 -0.0135225
0.0287279 0.1799640 -0.0180361
0.0288565 0.1825750 -0.0155453
0.0290426 0.1810750 -0.0172725
0.0290637 0.1830750 -0.0155225
0.0291065 0.1805390 -0.0177725
0.0291065 0.1825680 -0.0162725
0.0291065 0.1832550 -0.0140225
0.0291122 0.1833250 -0.0147725
0.0291267 0.1815750 -0.0170225
0.0291493 0.1797760 -0.0182908
0.0293061 0.1838250 -0.0150225
0.0293140 0.1838250 -0.0155225
0.0293294 0.1823250 -0.0167725
0.0293323 0.1838250 -0.0140225
0.0293493 0.1830750 -0.0162725
0.0293565 0.1800750 -0.0181443
0.0293565 0.1809590 -0.0175225
0.0293565 0.1837290 -0.0135225
0.0294080 0.1835750 -0.0160225
0.0294733 0.1843250 -0.0150225
0.0294807 0.1843250 -0.0152725
0.0295211 0.1840750 -0.0157725
0.0296065 0.1805750 -0.0179528
0.0296065 0.1818730 -0.0172725
0.0296065 0.1846920 -0.0150225
0.0296347 0.1848250 -0.0140225
0.0296919 0.1845750 -0.0155225
0.0296951 0.1850750 -0.0142725
0.0297652 0.1810750 -0.0177725
0.0297821 0.1798250 -0.0185225
0.0298565 0.1803210 -0.0182725
0.0298565 0.1816380 -0.0175225
0.0298565 0.1823890 -0.0170225
0.0298565 0.1828770 -0.0167725
0.0298565 0.1833250 -0.0164534
0.0298565 0.1838250 -0.0162053
0.0298565 0.1841650 -0.0160225
0.0298565 0.1853250 -0.0147770
0.0298629 0.1853250 -0.0135225
0.0299391 0.1808250 -0.0180225
0.0299463 0.1795750 -0.0187725
0.0299530 0.1850750 -0.0152725
0.0299994 0.1858250 -0.0140225
0.0300076 0.1858250 -0.0135225
0.0301065 0.1820750 -0.0173797
0.0301065 0.1857090 -0.0147725
0.0301417 0.1863250 -0.0135225
0.0301853 0.1863250 -0.0140225
0.0303565 0.1803250 -0.0186114
0.0303565 0.1825750 -0.0171433
0.0303565 0.1846470 -0.0157725
0.0304367 0.1838250 -0.0162725
0.0305033 0.1798250 -0.0190225
0.0306065 0.1803250 -0.0187308
0.0306065 0.1810570 -0.0182725
0.0306065 0.1814250 -0.0180225
0.0306065 0.1817590 -0.0177725
0.0306065 0.1823250 -0.0174268
0.0306065 0.1830750 -0.0169465
0.0306065 0.1844260 -0.0160225
0.0306065 0.1852620 -0.0155225
0.0306065 0.1856540 -0.0152725
0.0306065 0.1860220 -0.0150225
0.0308565 0.1835330 -0.0167725
0.0310032 0.1840750 -0.0165225
0.0310125 0.1845750 -0.0162725
0.0310185 0.1853250 -0.0157725
0.0310250 0.1810750 -0.0185225
0.0310397 0.1833250 -0.0170225
0.0311065 0.1804050 -0.0190225
0.0311065 0.1823510 -0.0177725
0.0311065 0.1858250 -0.0155482
0.0311110 0.1815750 -0.0182725
0.0311464 0.1795750 -0.0197725
0.0311662 0.1838250 -0.0170225
0.0311731 0.1830750 -0.0202725
0.0312354 0.1850750 -0.0162725
0.0312394 0.1833250 -0.0175225
0.0312699 0.1840750 -0.0175225
0.0312774 0.1823250 -0.0182725
0.0312814 0.1845750 -0.0170225
0.0312915 0.1830750 -0.0195225
0.0312920 0.1838250 -0.0202725
0.0313135 0.1830750 -0.0185225
0.0313169 0.1830750 -0.0190225
0.0313221 0.1838250 -0.0182725
0.0313483 0.1810750 -0.0190225
0.0313565 0.1823250 -0.0196226
0.0313565 0.1838250 -0.0197605
0.0313565 0.1844720 -0.0175225
0.0313642 0.1823250 -0.0190225
0.0313708 0.1838250 -0.0190225
0.0313963 0.1818250 -0.0190225
0.0314099 0.1850750 -0.0167725
0.0314693 0.1815750 -0.0197725
0.0314736 0.1808250 -0.0195225
0.0314926 0.1803250 -0.0197725
0.0314948 0.1795750 -0.0202725
0.0315440 0.1843250 -0.0195225
0.0315485 0.1845750 -0.0182725
0.0315774 0.1858250 -0.0162725
0.0316065 0.1805750 -0.0200984
0.0316065 0.1844470 -0.0192725
0.0316065 0.1845750 -0.0185866
0.0316337 0.1853250 -0.0170225
0.0316340 0.1803250 -0.0202725
0.0316881 0.1845750 -0.0197725
0.0317698 0.1860750 -0.0162725
0.0318565 0.1853250 -0.0175944
0.0320588 0.1855750 -0.0175225
0.0320985 0.1858250 -0.0170225
0.0321065 0.1851550 -0.0195225
0.0321065 0.1852490 -0.0187725
0.0321065 0.1853250 -0.0184169
0.0323079 0.1853250 -0.0202725
0.0324290 0.1860750 -0.0170225
0.0326065 0.1858250 -0.0191361
0.0326065 0.1859500 -0.0182725
0.0326065 0.1860470 -0.0177725
0.0326674 0.1858250 -0.0197725
0.0302202 0.1868250 -0.0135225
0.0303064 0.1875750 -0.0135225
0.0303180 0.1865750 -0.0142725
0.0303697 0.1873250 -0.0140225
0.0304029 0.1880750 -0.0135225
0.0305815 0.1895750 -0.0137725
0.0306065 0.1871280 -0.0145225
0.0306065 0.1887650 -0.0140225
0.0306065 0.1909400 -0.0135225
0.0306189 0.1880750 -0.0142725
0.0306910 0.1865750 -0.0147725
0.0307034 0.1893250 -0.0142725
0.0307110 0.1898250 -0.0142725
0.0307646 0.1913250 -0.0140225
0.0308177 0.1880750 -0.0145225
0.0308267 0.1928250 -0.0140225
0.0308396 0.1888250 -0.0145225
0.0308565 0.1895750 -0.0146787
0.0308565 0.1909410 -0.0145225
0.0308565 0.1919030 -0.0142725
0.0308592 0.1900750 -0.0147725
0.0309409 0.1905750 -0.0150225
0.0309538 0.1900750 -0.0150225
0.0309790 0.1913250 -0.0150225
0.0309974 0.1865750 -0.0150225
0.0310465 0.1923250 -0.0147725
0.0310617 0.1895750 -0.0150225
0.0310869 0.1908250 -0.0155225
0.0310875 0.1915750 -0.0155225
0.0310895 0.1928250 -0.0147725
0.0310959 0.1880750 -0.0147725
0.0311258 0.1920750 -0.0155225
0.0311947 0.1930750 -0.0152725
0.0312228 0.1928250 -0.0162725
0.0312397 0.1923250 -0.0162725
0.0312488 0.1900750 -0.0155225
0.0312608 0.1873250 -0.0150225
0.0313177 0.1885750 -0.0150225
0.0313565 0.1865750 -0.0154218
0.0313565 0.1895750 -0.0153886
0.0313565 0.1915460 -0.0162725
0.0313565 0.1930750 -0.0168957
0.0314557 0.1923250 -0.0167725
0.0314621 0.1873250 -0.0152725
0.0314762 0.1888250 -0.0152725
0.0315375 0.1903250 -0.0160225
0.0315631 0.1908250 -0.0162725
0.0316065 0.1898250 -0.0158949
0.0316902 0.1893250 -0.0157725
0.0317033 0.1920750 -0.0170225
0.0317238 0.1908250 -0.0165225
0.0317293 0.1868250 -0.0157725
0.0317373 0.1925750 -0.0172725
0.0318129 0.1915750 -0.0170225
0.0318307 0.1885750 -0.0157725
0.0318373 0.1908250 -0.0167725
0.0318565 0.1880750 -0.0156976
0.0318565 0.1901740 -0.0165225
0.0319324 0.1873250 -0.0157725
0.0319382 0.1865750 -0.0160225
0.0319482 0.1928250 -0.0177725
0.0319795 0.1923250 -0.0177725
0.0319886 0.1913250 -0.0175225
0.0320011 0.1893250 -0.0162725
0.0320338 0.1920750 -0.0182725
0.0320381 0.1923250 -0.0190225
0.0320393 0.1928250 -0.0187725
0.0320500 0.1930750 -0.0197725
0.0320590 0.1930750 -0.0182725
0.0320816 0.1908250 -0.0175225
0.0320819 0.1915750 -0.0182725
0.0321065 0.1885750 -0.0160699
0.0321065 0.1900750 -0.0169401
0.0321482 0.1923250 -0.0197725
0.0321801 0.1880750 -0.0160225
0.0321952 0.1915750 -0.0187725
0.0322661 0.1923250 -0.0202725
0.0322759 0.1870750 -0.0160225
0.0322890 0.1908250 -0.0180225
0.0323565 0.1905750 -0.0177943
0.0323565 0.1919090 -0.0197725
0.0324042 0.1890750 -0.0165225
0.0324596 0.1880750 -0.0162725
0.0326065 0.1868250 -0.0162837
0.0326065 0.1885750 -0.0165564
0.0326065 0.1893250 -0.0168238
0.0326065 0.1898250 -0.0171657
0.0326065 0.1908250 -0.0183571
0.0326065 0.1913250 -0.0190871
0.0326532 0.1873250 -0.0162725
0.0326863 0.1910750 -0.0187725
0.0327462 0.1918250 -0.0202725
0.0327602 0.1900750 -0.0175225
0.0327610 0.1888250 -0.0167725
0.0327779 0.1865750 -0.0202725
0.0328116 0.1915750 -0.0197725
0.0328565 0.1865520 -0.0170225
0.0328565 0.1872510 -0.0197725
0.0328565 0.1904560 -0.0180225
0.0328660 0.1865750 -0.0197725
0.0328705 0.1880750 -0.0167725
0.0328842 0.1878250 -0.0197725
0.0329111 0.1865750 -0.0192725
0.0329364 0.1865750 -0.0177725
0.0329398 0.1870750 -0.0167725
0.0329480 0.1865750 -0.0185225
0.0330003 0.1868250 -0.0182725
0.0330054 0.1875750 -0.0187725
0.0330120 0.1878250 -0.0190225
0.0330192 0.1893250 -0.0172725
0.0330282 0.1870750 -0.0172725
0.0330429 0.1883250 -0.0172725
0.0330463 0.1888250 -0.0172725
0.0330565 0.1875750 -0.0175225
0.0330608 0.1900750 -0.0177725
0.0330713 0.1883250 -0.0195225
0.0331065 0.1883250 -0.0179517
0.0331065 0.1911770 -0.0192725
0.0331138 0.1888250 -0.0175225
0.0331166 0.1883250 -0.0182725
0.0331884 0.1888250 -0.0180225
0.0332173 0.1893250 -0.0177725
0.0332320 0.1913250 -0.0197725
0.0332378 0.1905750 -0.0185225
0.0332745 0.1888250 -0.0192725
0.0332762 0.1888250 -0.0197725
0.0333207 0.1893250 -0.0182725
0.0333247 0.1908250 -0.0190225
0.0333565 0.1901060 -0.0182725
0.0333872 0.1890750 -0.0197725
0.0334883 0.1895750 -0.0190225
0.0335102 0.1893250 -0.0202725
0.0335994 0.1908250 -0.0197725
0.0336065 0.1900750 -0.0191992
0.0336532 0.1900750 -0.0195225
0.0337237 0.1900750 -0.0202725
0.0308565 0.1935750 -0.0140222
0.0309293 0.1953250 -0.0137725
0.0309521 0.1933250 -0.0142725
0.0309795 0.1950750 -0.0140225
0.0309824 0.1958250 -0.0135225
0.0310966 0.1943250 -0.0145225
0.0311065 0.1958030 -0.0142725
0.0311356 0.1935750 -0.0147725
0.0311427 0.1963250 -0.0142725
0.0311654 0.2000750 -0.0170225
0.0311839 0.2000750 -0.0147725
0.0311906 0.2000750 -0.0177725
0.0311948 0.1998250 -0.0165225
0.0311999 0.1993250 -0.0170225
0.0312031 0.1948250 -0.0147725
0.0312111 0.1985750 -0.0175225
0.0312172 0.1970750 -0.0172725
0.0312217 0.1970750 -0.0140225
0.0312259 0.2000750 -0.0142725
0.0312272 0.1983250 -0.0170225
0.0312285 0.1985750 -0.0147725
0.0312293 0.1958250 -0.0147725
0.0312294 0.1960750 -0.0147725
0.0312306 0.1970750 -0.0177725
0.0312314 0.1935750 -0.0152725
0.0312332 0.1990750 -0.0147725
0.0312388 0.1990750 -0.0165225
0.0312399 0.1993250 -0.0155225
0.0312434 0.1960750 -0.0172725
0.0312443 0.1933250 -0.0165225
0.0312488 0.1978250 -0.0170225
0.0312510 0.1965750 -0.0177725
0.0312574 0.1973250 -0.0150225
0.0312576 0.1978250 -0.0142725
0.0312624 0.1940750 -0.0165225
0.0312629 0.1983250 -0.0155225
0.0312676 0.1948250 -0.0170225
0.0312746 0.1943250 -0.0170225
0.0312828 0.1948250 -0.0152725
0.0312980 0.1958250 -0.0177725
0.0313019 0.1985750 -0.0142725
0.0313124 0.1950750 -0.0175225
0.0313135 0.1993250 -0.0182725
0.0313270 0.1935750 -0.0170225
0.0313273 0.1965750 -0.0162725
0.0313278 0.1978250 -0.0182725
0.0313376 0.1955750 -0.0157725
0.0313565 0.1970310 -0.0135225
0.0313565 0.1983250 -0.0183655
0.0313565 0.1993250 -0.0141180
0.0313644 0.1998250 -0.0182725
0.0314030 0.1970750 -0.0182725
0.0314116 0.1943250 -0.0175225
0.0314171 0.1958250 -0.0180225
0.0315330 0.1980750 -0.0137725
0.0315360 0.1938250 -0.0175225
0.0315428 0.1963250 -0.0182725
0.0315435 0.1995750 -0.0137725
0.0315777 0.1993250 -0.0137725
0.0315867 0.1988250 -0.0137725
0.0316065 0.1985750 -0.0186236
0.0317137 0.2000750 -0.0185225
0.0317970 0.1970750 -0.0185225
0.0318239 0.1935750 -0.0177725
0.0318565 0.1955750 -0.0183857
0.0318565 0.1963250 -0.0184813
0.0318565 0.1975750 -0.0186395
0.0318565 0.1978250 -0.0135223
0.0318565 0.1985750 -0.0135777
0.0318565 0.1993250 -0.0135671
0.0318597 0.1950750 -0.0182725
0.0318769 0.1993250 -0.0187725
0.0319789 0.1943250 -0.0182725
0.0320550 0.1935750 -0.0182725
0.0320636 0.1950750 -0.0202725
0.0320660 0.1940750 -0.0200225
0.0320802 0.1998250 -0.0190225
0.0320843 0.1935750 -0.0197725
0.0320896 0.1985750 -0.0190225
0.0321065 0.1934960 -0.0192725
0.0321266 0.1970750 -0.0187725
0.0321294 0.1958250 -0.0187725
0.0321303 0.1963250 -0.0187725
0.0321340 0.1950750 -0.0187725
0.0321584 0.1943250 -0.0190225
0.0321826 0.1948250 -0.0195225
0.0321989 0.1955750 -0.0197725
0.0322047 0.1960750 -0.0200225
0.0322141 0.1978250 -0.0190225
0.0322165 0.2000750 -0.0197725
0.0322534 0.1993250 -0.0197725
0.0322775 0.1970750 -0.0200225
0.0322962 0.1985750 -0.0197725
0.0323026 0.1970750 -0.0195225
0.0323167 0.1978250 -0.0195225
0.0302320 0.2063250 -0.0135225
0.0303077 0.2068250 -0.0142725
0.0303300 0.2060750 -0.0142725
0.0303928 0.2058250 -0.0145225
0.0304259 0.2055750 -0.0142725
0.0305544 0.2045750 -0.0135225
0.0305991 0.2048250 -0.0147725
0.0305995 0.2048250 -0.0140225
0.0306013 0.2063250 -0.0150225
0.0306065 0.2055750 -0.0153999
0.0306065 0.2068250 -0.0147936
0.0306237 0.2048250 -0.0155225
0.0307280 0.2040750 -0.0157725
0.0307362 0.2040750 -0.0142725
0.0307415 0.2040750 -0.0160225
0.0307471 0.2048250 -0.0160225
0.0308370 0.2025750 -0.0135225
0.0308387 0.2060750 -0.0155225
0.0308436 0.2033250 -0.0162725
0.0308505 0.2033250 -0.0157725
0.0308565 0.2034870 -0.0147725
0.0308565 0.2051850 -0.0160225
0.0308683 0.2030750 -0.0142725
0.0308961 0.2035750 -0.0167725
0.0309020 0.2030750 -0.0155225
0.0309131 0.2058250 -0.0157725
0.0309231 0.2028250 -0.0165225
0.0309723 0.2020750 -0.0142725
0.0309863 0.2023250 -0.0165225
0.0309892 0.2025750 -0.0152725
0.0309975 0.2025750 -0.0170225
0.0310352 0.2018250 -0.0167725
0.0310828 0.2013250 -0.0140225
0.0310915 0.2013250 -0.0172725
0.0311065 0.2011350 -0.0147725
0.0311065 0.2013820 -0.0155225
0.0311065 0.2033250 -0.0171188
0.0311065 0.2063180 -0.0157725
0.0311065 0.2068250 -0.0156487
0.0311080 0.2013250 -0.0162725
0.0311445 0.2005750 -0.0175225
0.0311449 0.2048250 -0.0165225
0.0311604 0.2005750 -0.0152725
0.0311656 0.2003250 -0.0167725
0.0311684 0.2013250 -0.0135225
0.0311788 0.2003250 -0.0165225
0.0311950 0.2013250 -0.0177725
0.0312156 0.2005750 -0.0140225
0.0312338 0.2025750 -0.0175225
0.0312422 0.2055750 -0.0162725
0.0313264 0.2020750 -0.0177725
0.0313359 0.2068250 -0.0162725
0.0313565 0.2012870 -0.0180225
0.0313565 0.2041720 -0.0170225
0.0313565 0.2061220 -0.0162725
0.0313592 0.2068250 -0.0182725
0.0313878 0.2048250 -0.0167725
0.0314463 0.2063250 -0.0190225
0.0314580 0.2005750 -0.0182725
0.0314717 0.2005750 -0.0135225
0.0315109 0.2055750 -0.0197725
0.0315171 0.2033250 -0.0175225
0.0315262 0.2048250 -0.0200225
0.0315366 0.2063250 -0.0170225
0.0315369 0.2055750 -0.0167725
0.0315411 0.2060750 -0.0197725
0.0315594 0.2060750 -0.0180225
0.0315634 0.2055750 -0.0190225
0.0315673 0.2058250 -0.0185225
0.0315698 0.2053250 -0.0202725
0.0316065 0.2028250 -0.0177748
0.0316065 0.2042090 -0.0172725
0.0316065 0.2047840 -0.0195225
0.0316065 0.2053250 -0.0190896
0.0316065 0.2058250 -0.0200862
0.0316065 0.2060650 -0.0172725
0.0316065 0.2060660 -0.0175225
0.0316065 0.2063250 -0.0197901
0.0316258 0.2055750 -0.0170225
0.0316627 0.2048250 -0.0192725
0.0316664 0.2033250 -0.0202725
0.0316682 0.2040750 -0.0197725
0.0316962 0.2048250 -0.0172725
0.0317045 0.2055750 -0.0177725
0.0317267 0.2033250 -0.0177725
0.0317464 0.2053250 -0.0180225
0.0317731 0.2048250 -0.0175225
0.0318292 0.2048250 -0.0182725
0.0318465 0.2040750 -0.0177725
0.0318565 0.2005750 -0.0185225
0.0318565 0.2013250 -0.0184134
0.0318565 0.2025750 -0.0202019
0.0318565 0.2033250 -0.0196800
0.0318565 0.2040750 -0.0190934
0.0318565 0.2068250 -0.0198255
0.0318598 0.2028250 -0.0200225
0.0318900 0.2020750 -0.0182725
0.0319301 0.2040750 -0.0182725
0.0319454 0.2028250 -0.0182725
0.0319590 0.2033250 -0.0192725
0.0319957 0.2035750 -0.0185225
0.0320351 0.2028250 -0.0192725
0.0320802 0.2010750 -0.0202725
0.0321065 0.2005750 -0.0188600
0.0321065 0.2013250 -0.0187919
0.0321065 0.2018250 -0.0196896
0.0321266 0.2020750 -0.0190225
0.0321326 0.2013250 -0.0197725
0.0321891 0.2008250 -0.0195225
0.0322204 0.2068250 -0.0202725
0.0300805 0.2090750 -0.0135225
0.0300837 0.2075750 -0.0135225
0.0301065 0.2096090 -0.0135225
0.0301236 0.2083250 -0.0135225
0.0301264 0.2098250 -0.0140225
0.0301693 0.2100750 -0.0140225
0.0301714 0.2100750 -0.0135225
0.0301860 0.2090750 -0.0140225
0.0302639 0.2088250 -0.0142725
0.0303489 0.2098250 -0.0150225
0.0303565 0.2075750 -0.0141614
0.0303565 0.2084170 -0.0142725
0.0303565 0.2105010 -0.0142725
0.0303685 0.2090750 -0.0147725
0.0303898 0.2103250 -0.0147725
0.0303939 0.2105750 -0.0135225
0.0304161 0.2098250 -0.0152725
0.0305592 0.2090750 -0.0155225
0.0306065 0.2083250 -0.0149422
0.0306065 0.2103360 -0.0155225
0.0306065 0.2108250 -0.0135225
0.0306065 0.2108670 -0.0147725
0.0306065 0.2108870 -0.0142725
0.0306216 0.2085750 -0.0152725
0.0306515 0.2098250 -0.0162725
0.0306766 0.2093250 -0.0162725
0.0306945 0.2075750 -0.0147725
0.0307221 0.2103250 -0.0162725
0.0307257 0.2108250 -0.0155225
0.0308565 0.2083250 -0.0160664
0.0308565 0.2109460 -0.0162725
0.0308570 0.2095750 -0.0170225
0.0308791 0.2090750 -0.0170225
0.0308792 0.2105750 -0.0167725
0.0308841 0.2085750 -0.0167725
0.0309040 0.2088250 -0.0170225
0.0309623 0.2083250 -0.0170225
0.0309794 0.2080750 -0.0165225
0.0310315 0.2075750 -0.0157725
0.0310501 0.2105750 -0.0172725
0.0311065 0.2077090 -0.0165225
0.0311065 0.2083250 -0.0176433
0.0311065 0.2090750 -0.0176989
0.0311065 0.2111420 -0.0147725
0.0311065 0.2111540 -0.0155225
0.0311065 0.2112360 -0.0142725
0.0311065 0.2112920 -0.0162725
0.0311065 0.2113250 -0.0136767
0.0311072 0.2098250 -0.0177725
0.0311248 0.2110750 -0.0170225
0.0311386 0.2075750 -0.0172725
0.0311816 0.2105750 -0.0177725
0.0311843 0.2075750 -0.0177725
0.0312581 0.2118250 -0.0135225
0.0312870 0.2070750 -0.0177725
0.0313238 0.2125750 -0.0135225
0.0313494 0.2103250 -0.0182725
0.0313557 0.2090750 -0.0182725
0.0313565 0.2069800 -0.0167725
0.0313565 0.2082810 -0.0182725
0.0313565 0.2110750 -0.0177521
0.0313565 0.2114770 -0.0167725
0.0313995 0.2075750 -0.0185225
0.0314152 0.2130750 -0.0137725
0.0314162 0.2108250 -0.0182725
0.0314574 0.2118250 -0.0140225
0.0314941 0.2070750 -0.0190225
0.0315064 0.2075750 -0.0187725
0.0315475 0.2125750 -0.0140225
0.0315875 0.2103250 -0.0190225
0.0316065 0.2070530 -0.0192725
0.0316065 0.2128250 -0.0141192
0.0316086 0.2118250 -0.0142725
0.0316355 0.2105750 -0.0190225
0.0316588 0.2113250 -0.0150225
0.0316627 0.2113250 -0.0185225
0.0317275 0.2110750 -0.0190225
0.0317466 0.2093250 -0.0192725
0.0317556 0.2083250 -0.0190225
0.0317862 0.2103250 -0.0195225
0.0318088 0.2075750 -0.0192725
0.0318565 0.2095750 -0.0196077
0.0318565 0.2113510 -0.0155225
0.0318565 0.2114560 -0.0162725
0.0318565 0.2118250 -0.0146739
0.0318565 0.2130750 -0.0145407
0.0319090 0.2090750 -0.0195225
0.0319693 0.2115750 -0.0175225
0.0320966 0.2098250 -0.0202725
0.0321065 0.2085750 -0.0197056
0.0321065 0.2114980 -0.0162725
0.0321065 0.2115550 -0.0170225
0.0321065 0.2115760 -0.0190225
0.0321065 0.2116490 -0.0182725
0.0321384 0.2110750 -0.0197725
0.0321581 0.2123250 -0.0150225
0.0321773 0.2115750 -0.0155225
0.0321833 0.2075750 -0.0197725
0.0322465 0.2090750 -0.0202725
0.0323178 0.2083250 -0.0200225
0.0323565 0.2076920 -0.0200225
0.0323565 0.2113250 -0.0198831
0.0324617 0.2118250 -0.0157725
0.0326065 0.2116730 -0.0182725
0.0326065 0.2116930 -0.0177725
0.0326065 0.2116950 -0.0170225
0.0326065 0.2117070 -0.0190225
0.0326065 0.2125750 -0.0157071
0.0326065 0.2135430 -0.0197725
0.0326065 0.2135750 -0.0196841
0.0326979 0.2118250 -0.0162725
0.0328067 0.2125750 -0.0160225
0.0328565 0.2116920 -0.0197725
0.0328565 0.2132110 -0.0160225
0.0328565 0.2136420 -0.0160225
0.0331065 0.2118340 -0.0197725
0.0331065 0.2119150 -0.0177725
0.0331065 0.2119940 -0.0170225
0.0331065 0.2128250 -0.0163990
0.0331308 0.2118250 -0.0190225
0.0331916 0.2118250 -0.0182725
0.0332416 0.2133250 -0.0165225
0.0333135 0.2130750 -0.0197725
0.0333565 0.2125510 -0.0170225
0.0333773 0.2125750 -0.0197725
0.0334101 0.2123250 -0.0175225
0.0334141 0.2123250 -0.0192725
0.0334488 0.2130750 -0.0170225
0.0334735 0.2133250 -0.0190225
0.0334908 0.2123250 -0.0182725
0.0335877 0.2133250 -0.0177725
0.0335955 0.2133250 -0.0182725
0.0300167 0.2188250 -0.0147725
0.0300336 0.2198250 -0.0147725
0.0300597 0.2203250 -0.0147725
0.0300896 0.2188250 -0.0142725
0.0301082 0.2180750 -0.0147725
0.0301341 0.2195750 -0.0142725
0.0301565 0.2195750 -0.0152725
0.0301725 0.2190750 -0.0152725
0.0301929 0.2180750 -0.0142725
0.0302744 0.2203250 -0.0155225
0.0303046 0.2188250 -0.0140225
0.0303430 0.2188250 -0.0155225
0.0303523 0.2195750 -0.0140225
0.0303565 0.2180750 -0.0154160
0.0303565 0.2198250 -0.0156360
0.0303723 0.2180750 -0.0140225
0.0304252 0.2173250 -0.0147725
0.0305997 0.2188250 -0.0137725
0.0306065 0.2173470 -0.0155225
0.0306065 0.2174760 -0.0142725
0.0306065 0.2195750 -0.0159830
0.0306065 0.2203250 -0.0138783
0.0306180 0.2205750 -0.0160225
0.0306193 0.2203250 -0.0160225
0.0306667 0.2195750 -0.0137725
0.0307282 0.2180750 -0.0160225
0.0307568 0.2180750 -0.0137725
0.0308292 0.2188250 -0.0162725
0.0308565 0.2168290 -0.0155225
0.0308565 0.2170250 -0.0150225
0.0308565 0.2173770 -0.0160225
0.0308565 0.2203250 -0.0136916
0.0309435 0.2170750 -0.0147725
0.0309462 0.2175750 -0.0162725
0.0311065 0.2172770 -0.0140225
0.0311065 0.2202890 -0.0135225
0.0311090 0.2195750 -0.0167725
0.0311119 0.2200750 -0.0167725
0.0311278 0.2188250 -0.0167725
0.0311602 0.2173250 -0.0135225
0.0311900 0.2165750 -0.0162725
0.0312315 0.2168250 -0.0135225
0.0312546 0.2150750 -0.0135225
0.0312906 0.2160750 -0.0135225
0.0313104 0.2168250 -0.0140225
0.0313565 0.2162660 -0.0162725
0.0313565 0.2166450 -0.0155225
0.0313565 0.2168500 -0.0147725
0.0313565 0.2173250 -0.0169921
0.0313820 0.2165750 -0.0167725
0.0314714 0.2143250 -0.0140225
0.0314947 0.2160750 -0.0140225
0.0315123 0.2150750 -0.0140225
0.0315345 0.2180750 -0.0175225
0.0315544 0.2160750 -0.0167725
0.0315644 0.2198250 -0.0175225
0.0315791 0.2200750 -0.0175225
0.0316065 0.2143250 -0.0142402
0.0316065 0.2204570 -0.0175225
0.0316518 0.2183250 -0.0177725
0.0316688 0.2173250 -0.0177725
0.0316737 0.2158250 -0.0142725
0.0317011 0.2168250 -0.0177725
0.0317085 0.2198250 -0.0177725
0.0317271 0.2158250 -0.0170225
0.0317358 0.2153250 -0.0197725
0.0317497 0.2165750 -0.0150225
0.0317671 0.2160750 -0.0197725
0.0318149 0.2165750 -0.0202725
0.0318328 0.2173250 -0.0182725
0.0318561 0.2160750 -0.0190225
0.0318565 0.2145750 -0.0197640
0.0318565 0.2154520 -0.0190225
0.0318565 0.2158250 -0.0178081
0.0318565 0.2160640 -0.0162725
0.0318565 0.2165220 -0.0155225
0.0318565 0.2167180 -0.0200225
0.0318565 0.2168250 -0.0184058
0.0318565 0.2178930 -0.0182725
0.0318827 0.2160750 -0.0182725
0.0318835 0.2160750 -0.0147725
0.0319220 0.2188250 -0.0182725
0.0319296 0.2145750 -0.0147725
0.0319466 0.2168250 -0.0190225
0.0319635 0.2155750 -0.0147725
0.0319918 0.2153250 -0.0182725
0.0320010 0.2153250 -0.0177725
0.0320109 0.2200750 -0.0182725
0.0320202 0.2173250 -0.0190225
0.0320291 0.2173250 -0.0195225
0.0320836 0.2145750 -0.0187725
0.0320918 0.2195750 -0.0185225
0.0320949 0.2180750 -0.0202725
0.0321044 0.2140750 -0.0150225
0.0321065 0.2139530 -0.0197725
0.0321065 0.2146750 -0.0185225
0.0321065 0.2154670 -0.0170225
0.0321065 0.2180880 -0.0190225
0.0321200 0.2188250 -0.0187725
0.0321357 0.2160750 -0.0155225
0.0321485 0.2180750 -0.0195225
0.0322128 0.2140750 -0.0190225
0.0322148 0.2185750 -0.0197725
0.0322370 0.2155750 -0.0155225
0.0322404 0.2143250 -0.0152725
0.0322679 0.2140750 -0.0152725
0.0322797 0.2193250 -0.0192725
0.0322906 0.2205750 -0.0187725
0.0323048 0.2195750 -0.0192725
0.0323372 0.2153250 -0.0157725
0.0323444 0.2195750 -0.0197725
0.0323565 0.2144840 -0.0182725
0.0323565 0.2203250 -0.0191523
0.0323893 0.2200750 -0.0195225
0.0324874 0.2153250 -0.0162725
0.0325047 0.2145750 -0.0157725
0.0326065 0.2138410 -0.0190225
0.0326065 0.2140750 -0.0186824
0.0326065 0.2148720 -0.0177725
0.0326065 0.2150750 -0.0174865
0.0326520 0.2138250 -0.0157725
0.0326634 0.2153250 -0.0170225
0.0328565 0.2145750 -0.0162207
0.0330470 0.2150750 -0.0170225
0.0331065 0.2138250 -0.0189662
0.0331065 0.2149650 -0.0175225
0.0331669 0.2143250 -0.0165225
0.0332447 0.2143250 -0.0182725
0.0332449 0.2138250 -0.0165225
0.0333081 0.2145750 -0.0170225
0.0333280 0.2145750 -0.0177725
0.0333565 0.2140270 -0.0185225
0.0333772 0.2138250 -0.0167725
0.0335493 0.2138250 -0.0177725
0.0288185 0.2258250 -0.0135225
0.0291065 0.2238250 -0.0135085
0.0291814 0.2228250 -0.0135225
0.0293565 0.2223250 -0.0135019
0.0293565 0.2250750 -0.0136145
0.0293565 0.2265750 -0.0135724
0.0293565 0.2273250 -0.0135406
0.0296065 0.2265750 -0.0135398
0.0301065 0.2208250 -0.0149791
0.0301846 0.2208250 -0.0152725
0.0302394 0.2218250 -0.0150225
0.0302396 0.2210750 -0.0145225
0.0303197 0.2210750 -0.0155225
0.0303565 0.2216000 -0.0155225
0.0303565 0.2223250 -0.0146748
0.0303565 0.2230750 -0.0149296
0.0304034 0.2225750 -0.0155225
0.0304624 0.2235750 -0.0155225
0.0304825 0.2238250 -0.0147725
0.0305387 0.2245750 -0.0155225
0.0305598 0.2230750 -0.0157725
0.0305646 0.2208250 -0.0140225
0.0305959 0.2223250 -0.0142725
0.0306065 0.2218250 -0.0142075
0.0306065 0.2243250 -0.0146897
0.0306065 0.2250750 -0.0149443
0.0306065 0.2251200 -0.0155225
0.0306770 0.2230750 -0.0142725
0.0307508 0.2260750 -0.0155225
0.0307777 0.2238250 -0.0160225
0.0308090 0.2238250 -0.0142725
0.0308200 0.2218250 -0.0162725
0.0308231 0.2243250 -0.0160225
0.0308307 0.2208250 -0.0137725
0.0308354 0.2265750 -0.0155225
0.0308395 0.2223250 -0.0162725
0.0308565 0.2245750 -0.0144370
0.0308565 0.2256580 -0.0147725
0.0309286 0.2270750 -0.0155225
0.0310360 0.2245750 -0.0162725
0.0310396 0.2225750 -0.0165225
0.0310501 0.2265750 -0.0160225
0.0310770 0.2230750 -0.0165225
0.0310972 0.2258250 -0.0145225
0.0311065 0.2225750 -0.0138608
0.0311065 0.2233250 -0.0139572
0.0311065 0.2234310 -0.0165225
0.0311065 0.2237690 -0.0140225
0.0311065 0.2250750 -0.0142979
0.0311065 0.2252470 -0.0162725
0.0311065 0.2265750 -0.0147647
0.0312960 0.2273250 -0.0147725
0.0313032 0.2233250 -0.0167725
0.0313131 0.2270750 -0.0162725
0.0313278 0.2210750 -0.0170225
0.0313288 0.2235750 -0.0167725
0.0313331 0.2215750 -0.0135225
0.0313565 0.2214700 -0.0170225
0.0313565 0.2220750 -0.0135778
0.0313565 0.2228250 -0.0137061
0.0313565 0.2240750 -0.0167364
0.0313565 0.2245750 -0.0139586
0.0313565 0.2257050 -0.0165225
0.0313565 0.2259230 -0.0142725
0.0314745 0.2263250 -0.0142725
0.0315800 0.2258250 -0.0167725
0.0315853 0.2220750 -0.0172725
0.0316065 0.2223250 -0.0172723
0.0316342 0.2258250 -0.0140225
0.0317884 0.2223250 -0.0175225
0.0317933 0.2208250 -0.0177725
0.0318026 0.2258250 -0.0170225
0.0318260 0.2243250 -0.0172725
0.0318565 0.2214210 -0.0177725
0.0318565 0.2229790 -0.0175225
0.0318565 0.2242480 -0.0135225
0.0318565 0.2265750 -0.0169901
0.0318565 0.2265750 -0.0140026
0.0320533 0.2245750 -0.0175225
0.0321065 0.2209570 -0.0182725
0.0321065 0.2222610 -0.0180225
0.0321065 0.2235390 -0.0177725
0.0321065 0.2250070 -0.0175225
0.0321065 0.2257830 -0.0135225
0.0321065 0.2273250 -0.0139949
0.0321501 0.2213250 -0.0182725
0.0322615 0.2235750 -0.0180225
0.0322878 0.2263250 -0.0175225
0.0323049 0.2215750 -0.0185225
0.0323054 0.2250750 -0.0177725
0.0323565 0.2208250 -0.0189114
0.0323565 0.2223250 -0.0184674
0.0323565 0.2263250 -0.0176099
0.0324449 0.2228250 -0.0185225
0.0324816 0.2208250 -0.0195225
0.0325075 0.2218250 -0.0190225
0.0325718 0.2215750 -0.0195225
0.0325817 0.2238250 -0.0185225
0.0326065 0.2222440 -0.0192725
0.0326065 0.2227210 -0.0190225
0.0326065 0.2272640 -0.0177725
0.0326065 0.2273150 -0.0135225
0.0326381 0.2250750 -0.0182725
0.0326530 0.2223250 -0.0195225
0.0326560 0.2243250 -0.0185225
0.0327064 0.2255750 -0.0182725
0.0327248 0.2235750 -0.0190225
0.0327461 0.2230750 -0.0195225
0.0327713 0.2230750 -0.0202725
0.0327860 0.2273250 -0.0180225
0.0327984 0.2263250 -0.0182725
0.0328304 0.2243250 -0.0190225
0.0328565 0.2237010 -0.0197725
0.0328577 0.2250750 -0.0187725
0.0329223 0.2243250 -0.0195225
0.0329504 0.2258250 -0.0187725
0.0330179 0.2270750 -0.0185225
0.0330491 0.2253250 -0.0195225
0.0330713 0.2258250 -0.0192725
0.0331065 0.2265750 -0.0190246
0.0331135 0.2258250 -0.0197725
0.0331369 0.2258250 -0.0202725
0.0332246 0.2268250 -0.0197725
0.0332402 0.2273250 -0.0192725
0.0286065 0.2295750 -0.0135541
0.0291065 0.2280750 -0.0135548
0.0293565 0.2283250 -0.0134910
0.0310795 0.2278250 -0.0155225
0.0312111 0.2278250 -0.0160225
0.0312962 0.2288250 -0.0155225
0.0313565 0.2278250 -0.0148957
0.0314094 0.2293250 -0.0155225
0.0314338 0.2290750 -0.0160225
0.0314645 0.2283250 -0.0162725
0.0314779 0.2285750 -0.0150225
0.0315855 0.2300750 -0.0155225
0.0315924 0.2290750 -0.0150225
0.0315949 0.2298250 -0.0160225
0.0316065 0.2278250 -0.0165078
0.0316065 0.2280750 -0.0146916
0.0316339 0.2293250 -0.0162725
0.0316759 0.2285750 -0.0147725
0.0316972 0.2300750 -0.0152725
0.0318259 0.2308250 -0.0155225
0.0318565 0.2292690 -0.0147725
0.0318565 0.2300750 -0.0163872
0.0318776 0.2305750 -0.0162725
0.0320290 0.2313250 -0.0155225
0.0320397 0.2278250 -0.0170225
0.0320412 0.2313250 -0.0162725
0.0320523 0.2293250 -0.0167725
0.0321065 0.2278250 -0.0141560
0.0321065 0.2283250 -0.0143053
0.0321065 0.2290750 -0.0144915
0.0321065 0.2297060 -0.0167725
0.0321065 0.2300680 -0.0147725
0.0321065 0.2305750 -0.0149611
0.0321451 0.2318250 -0.0157725
0.0322268 0.2320750 -0.0162725
0.0322846 0.2310750 -0.0167725
0.0323016 0.2323250 -0.0162725
0.0323080 0.2280750 -0.0172725
0.0323565 0.2280750 -0.0140144
0.0323565 0.2284010 -0.0172725
0.0323565 0.2295750 -0.0170890
0.0323565 0.2300750 -0.0145376
0.0323565 0.2301160 -0.0170225
0.0323565 0.2305750 -0.0147180
0.0325147 0.2323250 -0.0155225
0.0325354 0.2315750 -0.0170225
0.0325588 0.2330750 -0.0162725
0.0325936 0.2285750 -0.0175225
0.0326065 0.2280750 -0.0176275
0.0326065 0.2285750 -0.0139643
0.0326065 0.2300750 -0.0143260
0.0326065 0.2306850 -0.0172725
0.0326065 0.2319450 -0.0170225
0.0326748 0.2290750 -0.0140225
0.0326975 0.2335750 -0.0162725
0.0327157 0.2328250 -0.0155225
0.0327579 0.2333250 -0.0167725
0.0327873 0.2305750 -0.0175225
0.0327922 0.2328250 -0.0170225
0.0328322 0.2340750 -0.0162725
0.0328548 0.2293250 -0.0177725
0.0328565 0.2278250 -0.0135314
0.0328565 0.2285320 -0.0137725
0.0328565 0.2305750 -0.0142452
0.0328565 0.2310750 -0.0144653
0.0328565 0.2311640 -0.0175225
0.0328565 0.2315750 -0.0147128
0.0328565 0.2320750 -0.0173302
0.0328565 0.2320750 -0.0149952
0.0328565 0.2335750 -0.0156620
0.0328996 0.2298250 -0.0177725
0.0329843 0.2340750 -0.0155225
0.0329849 0.2278250 -0.0182725
0.0330041 0.2335750 -0.0152725
0.0330438 0.2323250 -0.0175225
0.0330632 0.2313250 -0.0177725
0.0330662 0.2285750 -0.0182725
0.0331022 0.2278250 -0.0185225
0.0331032 0.2340750 -0.0147725
0.0331064 0.2335750 -0.0172725
0.0331065 0.2303250 -0.0138618
0.0331065 0.2305750 -0.0139433
0.0331065 0.2308250 -0.0179380
0.0331452 0.2320750 -0.0147725
0.0331652 0.2295750 -0.0182725
0.0332459 0.2335750 -0.0175225
0.0332543 0.2278250 -0.0190225
0.0332651 0.2340750 -0.0140225
0.0332944 0.2335750 -0.0147725
0.0332999 0.2328250 -0.0177725
0.0333094 0.2300750 -0.0185225
0.0333335 0.2285750 -0.0190225
0.0333413 0.2313250 -0.0182725
0.0333505 0.2280750 -0.0195225
0.0333565 0.2290750 -0.0189558
0.0333565 0.2293250 -0.0135195
0.0333565 0.2300750 -0.0134959
0.0333565 0.2305320 -0.0185225
0.0333565 0.2313950 -0.0140225
0.0333565 0.2328250 -0.0148560
0.0333565 0.2340750 -0.0175692
0.0333565 0.2340800 -0.0135225
0.0333747 0.2283250 -0.0195225
0.0333899 0.2305750 -0.0135225
0.0334451 0.2305750 -0.0187725
0.0334718 0.2323250 -0.0182725
0.0334878 0.2298250 -0.0192725
0.0335350 0.2298250 -0.0197725
0.0336065 0.2313250 -0.0191296
0.0336065 0.2313250 -0.0135562
0.0336065 0.2320530 -0.0142725
0.0336065 0.2328250 -0.0184390
0.0336065 0.2335750 -0.0181868
0.0336065 0.2336420 -0.0142725
0.0336065 0.2340750 -0.0180296
0.0336180 0.2308250 -0.0195225
0.0336241 0.2320750 -0.0187725
0.0337444 0.2315750 -0.0197725
0.0338218 0.2323250 -0.0195225
0.0338565 0.2321630 -0.0140225
