297.6872 25.25959 354.2944
258.7852 66.0836 448.6235
248.4438 184.8512 477.9653
283.9804 25.5195 387.3321
260.3033 283.2828 453.7405
275.068 311.5768 420.3886
332.3625 52.4544 274.4635
291.1833 330.5848 383.19
334.2673 310.7854 280.185
289.5211 329.9373 387.8954
252.5777 83.84126 466.3082
272.939 306.9949 426.8861
263.7428 57.3661 439.0211
251.0809 226.9997 476.0582
273.55 40.6149 415.7374
331.6142 47.3791 278.3127
335.4103 61.5373 269.8757
255.6338 77.4252 460.2213
259.9452 279.0509 458.0175
330.0519 44.8148 282.5299
249.8195 141.9545 477.2319
289.3919 23.54021 379.2692
258.8167 71.3349 453.941
285.2149 324.0799 401.1577
312.5118 323.9308 336.414
325.9356 317.8078 304.4886
337.4397 306.6719 277.4932
270.9726 46.90029 425.4475
279.6712 33.9124 404.6578
288.809 327.358 395.2692
334.9166 312.176 285.2324
252.3227 110.1696 473.6855
265.8561 289.8948 448.5846
317.7916 321.7187 326.8008
319.0683 37.5533 312.7584
251.6965 131.0889 476.7517
256.1135 80.52975 464.3963
283.8929 320.2076 407.9578
340.8864 294.3425 271.8113
306.4463 327.9741 355.3565
257.3426 266.3616 469.8219
339.7503 62.8252 266.4966
289.7523 24.5041 384.6203
270.7548 297.0027 440.5592
279.7554 36.2988 409.295
345.3068 290.5743 263.5149
299.9143 25.27071 361.1099
255.3357 89.59369 469.6683
259.3961 271.0143 467.454
298.1864 329.9492 377.8208
252.9855 181.3221 479.5015
264.7237 63.50119 447.3178
343.8234 290.5117 268.7655
316.319 34.618 325.0003
303.9727 329.0646 366.0187
333.9328 314.5095 294.5227
294.2019 329.0721 389.8194
336.4603 50.498 278.5852
324.3958 39.53259 307.0791
257.0785 244.7291 475.195
270.5048 293.4873 445.2188
258.3405 257.2592 472.8394
339.9177 62.1964 272.0328
254.4136 139.1325 478.47
339.6217 310.0438 282.6196
256.4865 96.37758 471.9102
255.8083 105.6681 473.8869
335.3871 46.4483 282.5365
267.6509 286.4748 453.1282
282.2816 313.1772 419.4601
255.2273 201.4499 479.6155
317.8417 322.5102 335.5786
264.5721 278.4311 460.532
290.6387 26.15581 389.8987
256.0356 117.8587 476.2636
333.1974 43.839 290.1163
307.4776 28.0466 350.7407
342.6783 302.4178 278.1805
256.2082 124.8885 477.3941
292.4304 325.6917 399.2944
259.7823 82.75285 467.6736
320.4562 36.4555 321.6665
298.1933 329.1291 386.0528
321.5261 321.45 331.1213
297.4053 24.61419 377.4628
339.1841 312.3303 289.585
288.6718 319.5744 409.9891
258.2724 225.1339 478.6056
290.57 28.2251 394.7935
257.9062 213.2874 479.6718
315.6218 324.4206 346.9472
258.8996 230.4069 478.1333
344.4887 62.735 268.5695
302.0904 25.45609 367.9642
304.262 328.8768 374.6834
266.7435 68.5811 453.7941
257.0914 143.7393 479.7017
262.2591 263.3477 472.3564
260.0813 89.84436 471.2304
263.2609 268.3589 470.6439
294.8138 25.19871 386.3316
302.8115 328.9027 379.6755
346.7656 292.7878 274.5503
258.0895 182.8117 481.0999
265.1816 272.4786 467.9062
341.1617 54.2242 278.9002
272.5873 58.4351 442.5141
289.5211 31.41969 401.5181
263.4977 79.7727 465.5624
258.3609 160.4815 480.9977
313.9801 325.8655 355.3915
298.8696 328.1205 391.7247
330.9384 41.14991 304.7148
340.3548 48.79159 282.8021
270.9188 283.8611 457.125
276.1141 53.0544 435.7934
344.4103 62.6633 274.2755
259.2488 169.6436 481.4501
312.8002 326.6004 360.8511
287.0681 312.5454 421.4813
281.7056 303.5636 434.0383
343.7993 310.4483 286.8653
339.202 45.57171 287.8743
346.1911 304.3085 281.7092
281.6953 45.42019 425.409
322.0662 322.0617 340.4949
270.5695 279.6364 461.4011
263.6657 85.50245 470.5574
311.5584 327.1701 366.1911
284.2354 306.4102 430.4212
299.7643 25.33611 382.5859
319.9622 33.8342 334.9747
297.1789 324.9838 401.2925
302.8454 328.0829 387.9554
320.8211 322.7562 345.9719
310.2346 327.5584 371.3766
286.5896 39.5005 416.4227
352.8159 290.2787 269.3558
265.5347 255.3361 475.508
304.1838 25.8378 374.9081
271.9576 67.59559 454.0064
349.1638 62.8157 270.6655
297.4013 26.94031 392.3745
308.6904 27.09769 365.5491
335.2075 317.6509 314.1368
310.852 27.96549 360.9432
344.6048 311.7119 292.0453
264.9461 90.08826 472.7705
268.0502 267.6837 472.4267
276.9018 289.3116 452.2479
307.4183 327.8026 381.5258
263.1669 119.4754 478.7294
331.9192 319.2657 323.1187
300.0144 26.0578 388.0189
325.0633 36.4389 329.4313
267.1681 81.92702 468.9205
270.0114 272.016 469.8442
266.4934 247.2096 477.5953
331.2937 39.60761 315.8667
264.1617 207.6623 481.9891
302.604 326.7142 395.8749
271.0759 74.1025 461.1294
297.2895 28.9556 397.3256
344.8858 49.1088 285.4434
263.8663 166.494 482.8
348.9942 63.0837 276.4533
290.2777 310.0505 426.0585
352.6642 291.461 277.1925
275.6359 282.4753 460.0221
349.579 306.256 285.2925
341.6632 44.77549 293.9884
266.1929 228.5518 480.5933
266.5925 94.7743 474.5758
348.0094 58.5447 280.4343
327.5782 321.0995 339.917
264.8355 149.8934 482.4677
342.8289 314.5316 303.5675
267.7254 239.3012 479.4397
282.9129 295.1307 445.985
268.5675 85.76202 472.0317
349.2167 309.7992 289.3056
302.9995 325.0694 401.199
307.3965 26.5697 379.5303
325.5544 321.771 347.9864
267.7185 107.1389 477.8089
294.1831 36.6664 412.5433
313.4447 326.616 378.3343
267.1892 195.6276 483.5525
267.8241 113.8135 479.1341
353.8111 62.9593 272.768
279.8336 62.4592 449.2346
269.8296 90.35077 474.2643
272.8174 266.9192 474.1544
312.0004 326.6681 383.3535
300.6672 320.595 410.1391
321.4698 32.1381 349.5318
358.4313 289.8099 271.7743
282.5639 290.2482 452.2925
328.4453 36.7059 333.8801
272.3584 80.88014 469.1705
303.0797 322.8102 406.2275
268.2842 127.8186 481.4228
354.258 299.4928 283.7881
305.236 27.0009 389.702
287.9825 299.269 441.4038
274.8063 271.4716 471.7138
308.0705 326.0231 395.4144
270.0991 101.3165 477.2074
268.5636 186.3373 484.2201
307.6905 26.9179 385.0609
286.9267 51.6118 435.7766
268.7104 135.3727 482.4162
299.3241 316.6028 416.8623
277.9103 70.068 458.1842
356.1827 293.2234 280.8781
348.7872 48.2034 289.0127
270.0915 218.5523 482.8435
278.5386 278.537 465.2364
347.0965 46.02271 293.2552
353.6696 63.2191 278.5677
304.332 27.94611 394.6961
271.3513 229.0999 482.001
296.6564 311.1324 425.3993
274.1541 259.2219 476.9954
320.7206 324.7755 369.8163
293.6209 42.92849 423.4257
358.9695 289.5954 277.7448
286.7486 292.99 449.6057
288.5543 295.9901 445.9735
273.5988 86.00869 473.453
311.9893 325.8575 391.5885
335.9083 39.5217 323.6106
351.8615 53.57549 286.2462
355.4634 304.8777 288.031
304.1418 29.75259 399.7871
319.4041 325.1866 375.064
351.7186 311.4593 297.7529
294.8026 306.0545 432.8951
331.0354 320.8032 347.392
270.6944 159.972 484.6015
308.6094 324.7414 400.9149
315.2032 28.32409 374.6981
354.6755 309.019 291.8232
318.0038 325.4259 380.1358
299.7826 36.14729 412.313
329.5992 321.0601 352.6237
271.8648 192.288 485.008
358.4035 63.2605 274.8933
284.594 284.8744 459.3638
274.3917 92.8943 476.2741
277.6331 266.2172 475.8357
330.7859 36.4447 340.5944
287.3328 289.6029 454.094
287.8438 57.57409 444.2599
336.5181 319.8109 338.9437
307.7671 321.9951 408.1606
340.2402 40.77091 320.146
279.6071 270.8156 473.4609
344.4105 42.7352 311.1012
274.0926 205.4013 484.9923
350.5944 45.88091 297.6034
352.5101 47.37218 293.2015
283.3256 277.9483 467.0626
358.3427 63.36901 280.6497
299.3676 308.0456 430.5953
295.2326 47.17419 430.4577
356.9189 60.1047 284.7896
274.2172 169.7274 485.8193
274.3183 144.7335 484.7867
343.1682 318.0531 328.6616
278.5865 83.8623 473.1416
335.0594 37.9492 337.1594
330.6165 321.0677 358.9506
361.9873 291.8503 283.6843
277.8704 88.50418 475.738
280.7717 78.8306 468.641
307.5624 31.3121 403.4206
300.1568 41.2171 421.4334
294.184 296.7857 445.9082
314.9243 28.4561 386.4745
278.2815 240.5391 482.1491
313.1723 323.6807 402.736
305.1046 314.1581 421.6629
364.3299 289.2959 279.9899
329.4238 321.906 364.453
322.538 324.1973 381.9075
279.8552 248.9085 480.9625
307.5809 316.6045 417.8457
334.3261 320.1544 354.6255
350.1611 315.3805 317.0786
359.0521 309.346 296.1935
332.1354 35.5133 349.5496
303.6581 309.8977 428.2855
282.4029 265.3502 477.4141
319.5592 324.1841 391.8213
292.0619 288.9156 455.8443
277.8239 123.2107 483.4121
311.263 320.0582 412.0267
342.6148 40.4424 326.8181
317.9792 323.913 396.6415
284.3509 270.0475 475.1515
358.0805 51.9309 291.5064
278.2405 130.5743 484.4827
304.5022 39.2675 418.5458
300.1174 302.1853 439.3337
319.448 29.334 382.8222
361.8412 306.1311 293.0569
339.0252 319.7531 348.0039
297.9168 50.35671 435.6188
356.0893 46.94489 297.4885
279.2995 206.7234 486.2894
363.6169 300.1887 290.0871
361.8895 63.0858 284.9649
279.3523 190.231 487.0954
278.9962 166.9697 487.053
315.5096 29.36121 394.9657
364.2995 62.8758 280.3088
280.5998 219.7133 485.5655
336.3102 37.2925 346.1914
365.4199 293.9787 287.2433
329.7971 322.2266 373.3679
283.2505 84.74088 474.8109
281.8983 93.32395 478.3959
359.9227 310.4977 301.5102
283.6741 254.8423 480.6386
311.0205 32.9297 407.0201
335.2088 319.889 360.761
296.2144 291.5978 453.1033
281.9981 230.362 484.6762
298.9197 296.0594 447.6458
313.3871 31.10131 402.9445
328.4479 322.6609 378.5422
318.5676 322.8337 402.2168
315.8038 321.4835 408.9322
327.805 31.9966 369.4102
282.1409 104.1965 481.1074
327.0513 322.9335 383.6584
289.5188 275.1619 471.296
282.2777 110.7615 482.4897
347.3128 318.0623 336.1456
293.5662 64.6127 454.2306
303.09 46.9603 431.1273
325.5896 323.0217 388.6706
336.4484 36.62121 351.8237
293.1951 281.8693 464.5705
369.1793 289.2203 284.6835
363.186 58.5584 289.9628
341.7133 38.9884 340.4191
287.1477 264.3696 478.9234
306.0954 43.3526 425.7038
315.8868 319.1786 413.9254
359.0739 312.6646 311.133
282.4059 151.2067 487.3386
371.8774 288.9556 280.2461
285.5321 88.93856 477.7588
322.6175 30.24111 387.4939
364.5719 308.6767 298.706
300.6496 53.65951 440.7193
289.12 269.2469 476.7645
291.7134 72.354 463.1926
344.5799 319.0094 347.5235
283.2947 132.0043 485.9305
362.1268 50.1331 295.4403
335.5866 320.264 369.7791
283.4897 182.261 488.2608
318.6278 30.522 398.9915
343.0553 319.0981 352.6731
366.4682 63.4287 287.105
334.5495 34.76489 361.98
284.8806 209.8937 487.4535
341.4317 318.9284 357.6577
314.571 34.57201 410.5835
288.5624 83.78011 475.0359
367.6025 305.0089 295.7941
339.8596 318.8209 362.6993
321.2952 320.9199 408.5326
289.9392 258.5144 481.2805
308.9401 303.8287 438.0668
360.8275 46.42529 305.1154
362.8141 47.65559 300.6598
296.5175 68.3143 459.1374
288.2891 236.4516 485.3205
371.4357 292.5673 290.0373
342.8598 38.71659 349.5297
286.5192 140.6647 487.5629
370.9001 63.6943 284.1686
367.5693 59.4028 292.2247
328.5537 321.6583 395.3259
301.6614 59.7796 449.173
290.2708 247.4997 483.8214
319.3149 317.114 417.7243
319.1858 33.00751 407.3755
287.7333 122.5665 485.8131
292.9041 266.0726 479.506
325.2966 320.9844 404.8287
290.1004 91.49157 479.8106
353.0606 317.3827 339.0161
366.956 53.48101 295.7572
315.496 310.6605 428.2372
374.5817 288.6124 287.0193
340.7202 318.5343 368.8031
350.1356 318.2651 347.0506
321.9788 31.81721 402.8132
294.7953 270.3944 476.9421
296.637 274.0037 473.781
364.6221 312.0196 313.7207
288.81 192.5461 489.2935
362.0514 313.5986 320.1651
348.6333 318.4338 352.2515
339.4266 319.1786 374.1652
369.1541 308.8746 303.2286
371.028 63.7022 289.2856
342.8945 38.3627 355.2708
289.0713 184.5041 489.529
357.9439 315.8478 331.1047
289.9115 116.2553 485.3525
348.3974 39.9859 343.6416
293.3025 84.74945 476.6371
378.1546 288.5196 283.1298
314.1185 43.2617 426.2631
327.915 31.84559 393.3578
324.8556 319.2144 412.5029
291.4582 220.996 488.0698
330.2469 32.1968 388.5693
297.9273 75.1467 467.2498
332.5026 32.7737 383.8364
317.2157 39.86799 420.6632
336.0215 320.2634 387.1522
290.5344 169.3865 489.8536
366.3322 47.41219 304.9831
292.0476 106.8236 484.0623
294.994 256.4633 482.9074
373.5504 303.7874 298.5482
334.5449 320.3858 392.1291
320.4641 36.64721 414.9141
304.6033 63.3845 454.1406
293.8596 237.1679 486.4723
301.7093 278.6565 469.5819
348.3863 39.8223 349.3815
296.4378 262.2815 481.6987
375.275 64.2188 286.6945
349.3956 317.927 358.2973
294.6749 89.42135 479.9311
323.8752 316.151 419.5818
331.4169 320.1098 401.835
323.9772 33.8436 408.8518
346.068 317.3928 368.1054
377.2848 291.2369 292.9417
294.4948 96.39827 482.1947
310.0411 55.2178 443.9263
310.6655 294.1279 451.819
371.3392 53.4546 298.3012
298.5898 267.4067 479.835
355.6636 317.4404 346.5461
344.5543 317.4544 373.1828
337.9039 34.59669 378.0105
300.4472 271.3694 476.9655
293.5304 129.3478 488.0347
354.1818 317.7303 351.7851
347.1962 39.52769 357.546
380.1378 287.9731 289.4179
318.5639 305.3113 436.6693
293.636 159.3926 490.3167
294.4417 195.6757 490.4259
354.9951 41.38061 341.2055
298.7517 83.9373 476.8011
308.5594 286.1979 461.6722
331.9849 319.0534 407.4043
296.3809 101.1894 483.8061
374.743 308.1768 305.7914
328.3589 317.3936 416.4055
301.0908 79.1514 472.0774
311.2397 290.7497 456.2793
294.8674 147.4412 489.9947
371.7829 48.56329 304.8838
299.3743 251.4839 484.9821
329.4195 33.57651 405.3764
377.3133 305.426 302.3476
296.4475 124.798 488.1136
317.211 49.26809 435.8757
377.9372 63.9872 292.4432
305.5223 276.1288 472.8513
299.9558 88.29372 480.3622
301.5342 260.2314 483.3185
312.9262 58.7201 448.9576
332.4575 317.7773 412.8467
375.7991 54.92961 300.1051
350.7077 316.3661 370.0384
300.5329 243.4443 486.8126
366.8082 45.3173 321.7009
303.3064 266.4545 481.3531
349.0811 316.1783 374.9671
300.2375 94.42561 482.8874
360.4658 316.8448 348.6932
350.4489 40.21911 362.1389
298.3738 141.7368 490.3233
308.9125 69.9654 462.5888
352.6867 40.7368 357.4276
347.6771 316.5901 380.1705
300.2005 224.6968 489.5423
329.5036 313.4516 424.2331
298.9066 178.584 491.7066
378.6998 61.269 297.6288
383.3742 290.1957 295.4916
382.2384 64.3817 289.4385
357.2808 41.3552 347.9586
346.3121 317.09 385.3852
356.4996 316.7953 361.3831
303.537 84.95592 478.3603
331.7977 315.4595 420.2512
325.619 306.8441 434.7047
385.7682 287.759 291.821
301.3578 103.8645 485.4823
344.8987 317.4329 390.5197
319.4754 295.6965 450.4749
341.3439 35.3905 388.5772
301.3029 211.7626 491.0349
374.2589 47.8247 311.4479
343.4233 317.605 395.511
307.518 270.0295 479.3029
382.3786 302.0957 302.7196
301.9439 217.0422 490.7046
380.4312 307.4514 308.4002
300.9825 156.5522 491.7881
341.0946 317.5132 402.833
357.2439 41.2861 353.735
382.5522 64.3669 294.4963
361.3489 316.7198 354.9787
331.2477 37.21609 415.9644
313.8335 281.7547 467.5483
304.8847 89.51605 481.8247
373.7416 312.4545 326.8495
333.8475 35.80189 411.597
319.1663 290.9075 456.81
309.0422 79.0089 472.8855
308.0425 265.3565 482.6748
354.4895 315.2233 374.3738
324.4587 299.4286 445.5627
303.4125 204.3321 491.9542
352.8485 314.9966 379.2673
378.0484 310.3479 319.2045
330.2245 40.7531 422.6068
355.8842 41.6156 362.0539
305.6539 94.75334 484.1093
311.6908 273.0868 476.8293
386.7955 292.4412 299.1074
325.4075 49.3258 436.3793
303.7382 147.0457 491.8334
383.1229 61.9923 299.8517
371.1294 314.3736 338.2497
307.5799 249.9405 486.9123
335.1807 313.4036 424.044
339.9674 316.0584 413.0819
304.2103 174.1435 492.8029
305.1127 118.3098 489.0074
308.4652 86.06575 479.9612
343.6923 36.16781 394.6242
382.4266 56.0239 303.3628
304.9798 189.2435 492.8466
307.6958 236.3298 489.428
380.6999 49.59469 309.137
386.0411 303.9876 306.435
335.06 310.6324 428.8352
353.6207 314.5824 385.2439
387.1247 64.63201 296.5879
362.8123 42.2119 353.5358
390.9138 287.3714 296.679
336.0965 38.1688 417.4095
365.0319 42.6705 348.883
385.1602 307.1379 311.6014
306.5913 140.0113 491.8979
340.3938 314.7005 418.4724
320.7558 63.2633 455.5123
345.3329 315.7522 407.2129
307.1003 128.0107 490.7763
340.0483 36.39909 408.9381
320.3004 283.9435 465.5391
309.8544 90.74146 483.3435
363.5685 315.6709 364.4451
325.6056 292.8987 454.6408
312.7807 264.3117 484.0141
309.6648 231.2352 490.5517
359.1419 314.307 376.3341
357.3991 313.8249 381.0986
326.2755 55.245 445.0766
314.58 268.5235 481.4883
309.0395 204.9772 493.0352
336.2485 40.5449 422.1571
370.0128 315.5625 352.9644
387.5795 62.7101 302.0068
309.8849 212.835 492.6632
319.9807 278.7562 471.5527
340.6877 312.9649 423.6964
340.3872 37.4637 413.9576
375.9501 313.7968 340.4858
350.1055 38.18011 391.1915
358.5703 42.48609 371.3418
395.3658 286.751 293.8071
313.9937 85.35542 480.0101
352.9808 314.6032 396.3226
337.1263 307.0929 434.4288
392.7259 291.4751 301.7961
386.5101 53.5604 307.3193
384.2135 49.2989 313.4217
312.1694 99.99685 486.7487
385.9475 308.8361 319.5645
391.2965 300.6019 306.7826
320.448 72.8812 467.1375
390.2172 305.1893 310.4861
340.735 310.5879 428.6366
315.8795 259.685 486.1392
391.7168 64.9611 298.6449
351.2233 314.4282 404.6495
370.8327 315.3705 359.1634
314.2668 236.3493 490.6177
311.8007 166.2215 494.2221
326.752 286.043 463.4579
377.0178 45.7313 334.9001
315.3996 245.6497 489.1922
315.2241 89.70124 483.5954
332.0446 294.7817 452.4011
314.7339 94.74692 485.8172
382.3435 47.56019 323.4709
318.3656 265.3871 484.2624
396.7113 286.6915 299.2336
361.952 312.7123 382.9266
320.1802 269.3389 481.3825
359.5312 312.5567 390.2641
375.5125 314.7797 352.4369
347.8718 312.933 418.6828
342.2969 40.495 421.6206
392.1276 63.1144 304.0637
362.0002 43.42031 375.1198
371.7026 43.64411 352.0964
365.976 43.55761 365.7474
315.0085 210.06 493.8319
315.214 110.6526 489.6228
314.5904 192.5451 494.6331
337.1574 48.7464 435.7277
380.7507 313.2436 342.6757
318.9475 86.4866 481.5688
368.8207 313.9748 372.2356
336.1354 297.0526 449.3294
394.7925 302.7652 310.4381
390.4439 51.769 311.2801
316.6269 218.531 493.3737
315.5106 143.3114 493.9249
342.4991 43.011 426.3009
351.7797 312.7315 414.8177
334.6516 55.4195 445.5544
347.6911 39.03889 413.9555
346.2483 310.1793 428.2978
355.6381 40.02859 395.5848
319.7359 248.9763 489.2758
317.5553 104.8922 488.8608
326.1105 275.6166 475.4425
366.2135 44.2246 371.1034
396.2667 65.13099 300.7546
398.5441 290.7937 304.3629
393.1471 307.0014 317.9038
321.263 259.2092 487.189
376.3867 314.7268 358.774
359.5469 312.2966 398.7425
316.9056 132.2681 493.1794
342.6327 304.0979 438.9412
389.5396 309.6627 327.7177
316.949 180.923 495.2673
330.517 65.2269 458.5846
382.5512 46.574 334.7238
358.0258 312.4269 403.7128
317.1251 159.8194 495.0592
320.3149 91.04185 485.0947
323.0729 264.2107 485.5509
402.859 286.0516 297.3981
323.7532 82.18136 477.5927
365.6498 311.4128 387.1641
324.8884 268.3248 482.8025
319.9955 99.37576 488.0019
318.6211 122.0417 492.1676
381.0248 313.9789 351.9605
351.3437 311.134 422.5861
328.6076 72.94101 467.7797
347.3106 41.53799 423.0114
320.8723 211.5728 494.7483
320.6698 202.6315 495.3038
400.0571 299.4247 310.7928
398.406 304.7951 315.1719
356.9911 311.4078 414.149
357.9971 40.9274 401.6474
349.5934 308.0312 432.0412
366.1919 310.4463 392.8388
328.6097 78.02571 473.4939
366.5728 44.7698 382.0323
368.6625 45.2878 377.206
373.5016 44.5736 365.7782
344.6498 300.3878 444.4665
329.9077 272.9008 478.5314
376.1052 44.36669 360.0189
399.6268 65.3129 305.2459
378.346 44.69561 355.333
332.5663 277.782 473.3957
403.8736 287.4748 304.6183
326.2889 258.9363 488.0137
402.0194 65.0186 300.4781
333.6882 69.101 463.5086
324.5105 235.9896 492.3694
339.621 289.9074 459.0237
322.2989 174.3231 496.1923
326.4289 252.8055 489.507
397.727 54.7112 312.5048
391.2675 48.52799 327.681
377.6183 313.344 370.5235
325.4362 92.41974 486.529
328.6807 265.2117 485.5855
373.9467 312.0108 379.85
357.1974 41.06959 409.2824
372.0986 311.2308 384.4687
339.2465 60.83599 453.1379
399.1677 306.3836 320.6954
325.1973 97.90291 488.4543
353.8488 308.7993 428.6726
407.8002 285.4633 299.7141
393.0563 310.3154 335.7826
332.7699 75.5439 470.9631
325.6766 227.1534 493.8342
352.4332 42.70441 424.3231
391.7063 311.3137 341.4797
350.5054 303.455 439.6082
383.4436 313.7499 361.8706
403.4663 301.8553 314.3339
347.1152 50.7633 438.641
324.8462 150.7014 495.9746
360.4919 309.6916 418.0993
329.0098 88.9357 484.5858
369.8164 309.0202 396.9646
407.2956 289.8233 308.25
368.2662 309.1363 401.9464
404.2077 65.531 307.2714
406.5648 65.2753 302.5649
387.4023 313.2726 357.8583
366.7386 309.3092 406.9252
402.964 61.1406 311.2274
332.4272 262.3521 487.5448
327.8174 197.8101 496.6553
331.4432 252.5401 490.268
327.7833 132.7732 495.0314
327.5534 167.9004 496.9584
381.3462 312.2429 374.8544
356.1748 306.0049 434.5516
360.0339 308.114 425.8093
373.8424 308.9505 393.1792
328.8008 115.3224 492.7582
335.1564 267.8382 483.9047
331.2465 239.9265 492.6874
328.5543 183.652 497.1458
353.9172 46.63839 431.8105
329.5657 209.2892 496.2652
403.5255 306.3444 324.4345
412.718 284.8421 302.0044
329.3993 122.4516 493.988
388.2878 46.4315 351.5671
356.3519 44.65229 427.7746
343.9847 283.8956 466.6043
330.8661 106.0856 491.3033
346.6174 288.2941 461.0957
356.1178 303.3167 439.3591
366.5033 308.4304 414.9597
408.6326 298.7312 314.6069
388.1256 313.0416 363.9245
407.3784 303.5152 318.2391
369.0525 44.9673 399.4426
385.4843 312.4437 371.1468
402.0557 51.12781 321.8254
395.0712 311.6449 349.1735
378.0316 309.3617 389.5984
384.4302 45.83459 364.181
373.4217 307.5485 401.0924
334.1354 90.26355 486.0455
334.6849 248.1718 491.5918
337.1065 83.51654 479.7826
412.5869 286.6931 308.3802
336.0984 258.2853 489.4319
408.6991 65.90831 309.4731
333.3177 100.6032 490.3852
393.7763 47.4795 345.67
392.1399 312.7482 359.9961
362.1497 44.09469 420.9983
400.1924 49.4482 331.8737
353.7177 53.5953 442.6353
375.7734 47.96069 390.1503
363.4468 306.2032 429.6511
345.631 68.5212 463.0766
338.9553 264.699 486.6506
333.1494 191.0142 497.6484
383.1719 310.2324 383.7425
341.6148 270.1079 481.9121
409.3366 304.7357 322.7326
349.3033 63.0561 456.0529
336.0098 95.59999 489.1594
359.3269 300.8319 442.9749
360.2103 46.74471 431.1915
413.3276 65.8524 305.7293
411.9864 301.3006 318.1097
417.6337 284.264 304.3114
366.3581 44.78899 417.1891
353.264 57.876 448.8619
343.7787 76.4023 472.2881
355.4456 293.8973 453.3221
369.1508 306.5538 421.2745
361.6561 302.9844 439.0367
413.953 295.4069 314.9595
392.8051 312.3607 365.9894
383.9623 47.5815 377.178
405.5099 51.01489 326.1514
387.8557 46.64191 368.0936
408.3832 53.21511 319.5954
378.7719 306.561 400.4906
415.8304 289.3545 311.9473
376.9992 306.0403 405.1642
336.9641 114.9723 493.8608
346.5966 274.4511 477.4619
336.2879 141.4362 497.0074
391.6577 46.67329 361.7756
398.3723 311.7719 356.8253
350.9836 282.2135 468.617
343.8451 81.6267 477.9919
338.2281 216.6573 496.7585
396.8321 312.0954 362.0856
411.7769 58.0838 316.8896
379.2983 49.16879 393.8769
366.8426 304.2435 433.477
381.293 49.2638 389.2323
343.6438 263.3664 487.8411
339.2589 109.1401 493.0765
342.6162 255.8122 490.8291
341.0404 239.3507 494.0175
346.2947 268.9032 483.2037
414.4461 303.7811 323.0383
408.8098 307.7414 336.7889
339.2417 201.1641 498.0529
338.5864 150.6518 497.8996
376.7775 305.2895 413.3097
338.8525 170.9604 498.5609
351.5656 278.5919 472.8575
343.2915 88.74351 485.1947
363.1627 50.0351 436.4778
420.475 284.0586 309.4644
368.8227 46.3708 423.0744
416.6195 66.5815 310.2552
417.0743 298.4197 318.2705
364.8782 300.5811 442.6859
341.4835 97.39725 490.5106
373.916 46.9834 411.5723
418.9426 66.3618 305.5024
423.3858 283.5019 303.8245
371.7267 304.5033 427.4826
339.9203 186.8518 498.6176
342.4043 230.7057 495.5305
396.552 311.3628 370.3986
411.9709 52.56791 323.7811
406.0272 309.8112 348.114
390.0372 308.8438 386.6128
380.5556 304.4934 409.2135
353.2982 70.32409 465.2377
340.7953 160.2426 498.5682
398.3208 47.61239 359.2137
356.5242 282.5317 468.1015
344.6947 93.24764 488.8607
421.4308 289.3711 314.2242
358.2709 285.4482 464.4215
403.0968 311.2186 358.9948
369.2275 301.6208 439.4248
382.8023 50.5133 397.6073
384.8014 50.54089 392.9808
342.633 126.6081 496.3272
389.7021 49.1071 381.7474
343.9149 218.5852 497.2132
416.3723 57.9632 318.8884
396.6094 47.49451 365.7771
342.9871 191.8088 498.8648
349.2196 264.0635 487.5985
384.5716 304.403 405.4455
390.3948 307.4063 392.0646
354.1089 73.8335 469.3907
345.3375 226.1231 496.4754
348.7011 259.2135 490.3362
371.3823 48.203 428.8842
347.4979 243.1139 494.0581
420.2197 302.6958 323.5402
417.8598 304.8636 329.6777
359.5965 65.4431 458.9081
422.2992 66.7629 309.9724
382.8151 50.3535 403.2273
425.7697 283.1411 310.3935
349.0958 253.3339 492.1464
346.2892 104.8714 493.0324
369.5271 50.22881 435.8223
346.989 99.22277 491.7417
428.2305 282.7348 306.0208
403.8524 311.1702 365.2051
411.6388 308.7487 346.6875
413.396 51.39811 332.5854
422.5638 298.5439 320.5524
346.3516 205.7524 498.5915
400.2547 310.2675 374.7425
384.0768 302.8592 413.2341
397.4687 309.1991 381.7081
364.7283 289.3569 458.9693
345.8143 142.2741 498.2152
369.0593 296.1495 449.0301
365.62 57.7295 447.9949
382.4356 302.7881 418.0723
376.5541 48.8159 422.8714
371.415 298.4314 445.1339
379.7161 49.3752 415.8846
401.6642 48.0791 363.671
422.3803 66.546 315.5478
426.5771 286.5423 314.2405
375.4474 301.0406 436.6181
346.951 169.5313 499.4643
409.3138 49.49949 347.3402
351.1665 90.85587 487.3431
350.0448 94.81508 490.2117
353.9068 262.711 488.7802
390.0395 303.7598 405.0218
355.8966 81.14231 477.5776
392.9915 305.4268 398.4039
348.7698 123.6378 496.6204
351.3593 232.9976 496.1214
348.7969 158.9243 499.4223
423.7427 303.3379 327.2568
380.3181 301.2198 430.5898
375.6825 299.2613 441.7965
386.2898 51.7082 406.9787
349.6365 130.2278 497.5279
388.6051 52.6359 402.0329
350.6939 109.7085 494.5391
371.4951 54.7751 443.0086
427.9702 66.96299 309.6777
416.8222 51.40289 336.9298
409.3621 310.5277 364.8089
423.3539 57.2582 321.8423
355.1519 256.768 491.7376
420.8995 53.3006 327.9309
390.3211 302.1663 410.3429
387.5768 301.1863 417.2142
368.8333 61.48919 453.0611
429.6233 289.7915 317.4951
351.5989 198.838 499.5119
385.9091 301.0534 422.0197
374.6022 295.8926 448.7303
360.6245 270.8047 481.2636
434.6278 281.8352 306.2524
427.9993 298.8316 322.7497
362.369 274.0067 477.7903
431.7552 283.7839 314.1872
427.8393 67.5026 315.5753
409.4301 49.0384 358.756
393.8145 52.5315 396.0205
414.0388 309.6135 357.9901
421.2317 306.3423 340.8761
352.6496 192.9343 499.8236
426.5472 63.2567 319.3989
402.6129 49.5419 375.8393
353.0825 179.1343 500.1027
359.5181 263.3145 488.4564
357.2118 90.57488 487.2042
355.5496 96.57352 491.4727
395.5248 303.2387 404.6383
376.7061 53.4519 440.1262
356.8346 241.9169 495.1574
353.5813 153.2646 499.6715
354.9419 213.2258 498.8119
428.8867 302.1946 326.9926
378.979 297.0258 445.4998
387.7341 52.4568 415.4532
358.3857 252.5018 493.1371
362.9431 79.4842 475.64
367.3189 278.0018 473.0651
355.7034 105.2617 494.1012
424.9367 305.1652 337.4996
398.0132 52.27979 392.347
420.2803 307.8602 350.412
374.8087 289.5636 457.7986
414.8446 309.8074 364.3842
393.8139 300.4543 414.3251
427.9969 56.8934 323.7103
426.3483 54.2741 327.787
434.6029 287.1796 317.4902
412.2036 309.4797 371.6408
405.6293 306.9152 387.8048
373.8515 286.0733 462.5804
361.4692 88.00656 484.6911
383.0715 297.2948 441.9372
357.1626 200.8049 499.9009
436.7863 281.6254 313.9192
374.1627 62.7927 454.4225
372.2698 281.8071 468.1928
433.5153 67.9206 315.2405
431.7683 65.566 319.3901
433.3817 299.3594 324.7873
410.1856 49.55209 370.5215
362.626 257.9266 491.7894
359.3183 221.9489 498.2649
435.7825 67.7529 310.5165
364.6451 264.6666 487.3181
378.3756 57.8733 446.9266
435.2383 293.6069 321.5625
393.219 298.6725 421.974
358.28 147.7721 499.7799
402.0128 303.2987 402.0746
382.2127 294.6188 449.1371
361.4244 95.9961 491.4993
362.5935 92.07086 488.6174
370.0009 75.1088 470.3736
441.3835 280.3871 309.136
360.5003 215.3825 499.0563
395.7299 55.5241 409.4935
361.2175 101.395 493.6754
426.9617 306.1636 345.7807
359.7993 138.0755 499.2105
360.2639 122.2701 497.5112
407.4782 51.3869 382.699
420.311 309.1063 363.8874
364.5909 249.9241 494.2112
439.6172 284.6756 317.3461
433.2223 58.857 323.8537
418.6118 309.0651 368.8711
386.2822 54.2108 435.961
391.9107 297.2324 432.1532
364.6113 243.7631 495.4366
369.9849 268.2135 483.6575
411.1231 306.4023 387.4309
435.4272 301.7874 329.6216
371.7241 271.4363 480.2066
374.4465 276.6053 474.2853
431.4697 304.5756 340.2284
438.1684 297.2269 324.5199
366.8305 89.50266 486.0668
442.2597 280.2713 314.6316
413.7 50.4426 374.4439
369.2654 262.0659 489.4731
399.4965 298.089 419.1454
396.6773 296.9238 425.9052
385.3984 292.0743 452.7339
428.9711 52.8901 339.8833
402.4896 299.8405 412.6061
365.7476 228.8355 497.8594
389.4738 294.7509 444.2398
364.067 182.9618 500.9496
446.6673 279.3027 308.7696
403.27 55.8226 404.2865
365.6375 208.464 500.0184
368.1389 93.74826 489.9612
429.7809 306.5858 351.986
367.1472 97.94172 492.7556
441.3819 68.4428 315.9954
426.5409 308.042 360.7237
372.0072 85.45136 481.8003
421.3586 50.55321 363.2965
429.1148 52.375 345.4782
397.0739 295.7245 431.3537
386.3696 59.1736 447.8112
424.9662 308.5149 366.0013
389.6663 292.8765 449.3729
390.8849 56.0487 437.3372
366.8082 115.2212 496.9141
437.9285 58.1131 325.6425
370.5203 253.3272 493.751
440.5784 300.8556 329.2896
395.0696 56.2515 428.1796
380.4774 278.277 471.8283
442.9245 295.0434 324.3484
368.5348 224.2104 498.6321
381.0073 70.8164 464.4088
374.4238 263.3629 488.2551
420.2818 50.70869 371.4418
441.8384 66.32499 321.3304
401.9567 295.7822 425.2667
445.8442 68.5937 312.374
391.236 57.4579 442.4243
438.4998 55.6203 330.7108
368.8668 176.9941 501.291
413.002 302.3125 401.3561
423.6282 307.2891 376.5369
369.384 123.5496 498.3304
378.7428 269.4318 481.939
451.9791 278.1945 308.4062
448.7986 280.4973 317.0062
371.2571 219.5311 499.3303
390.6942 288.5633 457.0434
445.9018 298.493 327.4729
373.1854 97.52098 492.6833
408.1586 297.4778 417.4276
391.6867 59.536 447.3059
394.9112 291.7128 448.7366
375.088 91.89048 488.1164
376.7851 259.7944 491.0697
371.6276 195.8774 501.0945
447.7084 292.93 324.0827
371.2103 136.8939 499.8778
431.185 307.5745 364.0373
377.4681 87.0252 483.1255
383.4556 274.2332 476.2987
397.6486 57.9999 434.1386
444.1587 301.3583 333.1055
375.0946 246.7841 495.4526
399.8181 58.2415 429.4925
424.0043 306.121 382.107
380.9435 80.90042 476.3098
409.1579 57.7777 408.8266
452.7758 277.548 314.1009
372.1469 155.9605 501.0828
374.7342 227.9322 498.4921
422.8335 51.9283 377.6437
405.3662 293.9036 429.1442
402.5827 292.8668 435.9551
448.0466 69.1983 319.2342
395.0507 289.6693 453.8
399.8662 292.0524 442.8051
377.8855 254.4765 493.7503
395.9412 59.3088 443.8241
373.5792 146.1547 500.6599
374.7913 110.3895 496.5381
443.9523 56.4832 330.5425
431.8757 307.491 369.0358
430.0445 307.008 373.8037
421.4299 303.3769 394.3392
390.6397 281.302 466.9293
406.5911 60.0411 420.7094
456.5812 277.1173 310.3778
382.128 264.1077 487.1658
409.578 59.248 413.9889
443.3454 303.5315 344.6485
377.9537 236.0945 497.4627
422.1982 53.41601 385.2071
376.6081 213.0047 500.2347
427.1865 51.8307 373.824
377.3948 104.1124 495.3542
396.3326 61.1545 448.8092
376.2455 127.3899 499.142
452.5392 69.2333 315.5315
387.8524 75.9861 470.1025
450.1789 299.7085 330.6987
400.3107 59.9812 440.0454
377.0806 198.0363 501.2599
452.6017 294.2697 325.8165
377.6396 206.7212 500.7781
379.4 97.27652 492.5603
381.4774 91.87946 487.837
456.6351 278.7533 317.3207
383.631 260.4831 490.314
398.2479 287.1204 457.3829
407.8006 291.5148 435.2316
440.533 305.7056 358.0043
438.0923 52.99089 355.3174
397.0587 64.18061 453.5726
390.2527 272.2198 477.9441
400.5849 61.1753 445.2314
438.2001 306.76 366.1051
445.3877 55.2987 339.3126
449.407 57.29309 330.3633
436.4448 306.6739 371.0258
408.0179 61.4072 429.1557
398.0929 284.1167 462.1203
383.8638 251.8625 494.7354
461.9735 275.8026 310.0733
394.9447 277.5063 471.167
407.1626 289.6868 442.8065
455.6416 297.6869 328.9463
390.3294 266.771 483.8639
459.0939 70.275 313.0584
452.2176 301.2976 338.8318
461.7972 277.6185 317.4122
403.5473 286.1503 456.834
411.1633 289.5027 439.0447
459.5239 289.8173 324.1817
383.5142 180.7967 501.8973
390.2143 261.1444 489.4161
420.2861 295.1773 419.6904
424.3696 297.8021 411.1078
443.6467 306.0065 365.6131
389.2944 254.9275 493.7358
440.9887 305.8026 372.9793
468.1578 270.5443 307.0432
403.534 283.5679 461.6874
449.8878 303.7925 353.1443
466.692 274.6468 312.1297
407.6434 286.3513 453.2502
410.486 287.552 446.5639
415.2992 289.8087 435.4815
459.8578 298.8013 332.0351
389.7018 243.0205 496.6601
405.7289 64.8898 451.68
461.4648 70.0054 319.7156
462.0896 294.0056 326.9708
439.4546 303.9545 383.206
414.5073 287.4364 442.8429
467.2364 276.1812 317.1694
392.5003 250.7691 495.1587
394.2421 257.613 492.0543
405.44 279.4568 467.1392
460.4767 299.9615 337.1682
437.9256 302.1853 391.2588
389.5899 191.1489 501.8431
465.8521 70.4934 316.1351
448.266 305.4156 367.736
391.4107 219.3882 500.009
390.8444 208.4448 500.9857
408.8785 282.7418 461.1886
397.1319 261.7164 488.3328
472.7467 272.8645 309.3785
471.3745 274.1275 314.0682
422.7823 290.5499 430.7984
466.0188 296.6605 329.7809
461.1533 300.727 342.453
470.1982 71.3168 313.4899
413.026 283.116 457.6836
420.0775 66.2871 432.572
416.8648 284.858 448.8265
421.8622 287.7267 437.9856
397.8456 253.795 494.0935
453.3501 304.6045 364.6035
469.0974 293.1596 327.2429
477.2302 271.197 307.615
466.5669 298.643 334.6377
438.6148 299.1513 401.542
407.1751 272.4451 475.5557
473.2852 277.5465 318.7088
412.0414 280.07 464.7503
400.7976 258.2783 491.1766
452.8352 304.6849 369.7546
470.1871 70.5327 319.6848
420.9685 285.016 445.2114
398.0396 225.3191 499.3905
397.0987 204.9164 501.2356
405.6074 265.7048 483.3818
472.2731 60.9679 317.7445
475.4507 74.9738 310.8733
397.2253 190.605 501.8939
399.567 233.4289 498.3274
397.9184 199.0955 501.5664
478.3355 272.3892 313.4587
398.9864 219.3997 500.0408
470.3108 64.957 325.0815
401.0663 243.5569 496.6606
475.252 60.3125 313.3166
397.9975 185.0365 502.0226
480.2912 277.3422 310.0973
475.6953 282.1002 321.3772
405.2042 260.5403 488.7142
458.6334 303.8583 364.2928
409.4304 268.1401 480.2238
473.9137 294.8256 328.77
471.8204 297.9536 334.2108
483.3794 276.2765 305.9585
415.1485 277.187 468.2521
435.6087 292.9356 420.6818
403.7144 251.1641 494.9596
475.9916 289.0007 325.3754
478.8583 277.6694 318.1549
479.0963 61.20379 309.3922
419.3699 280.3182 459.9089
423.2786 282.2582 451.1239
482.6981 282.2349 309.9463
426.3345 284.2061 444.714
463.9849 302.2965 356.2719
481.3044 282.7979 314.9198
429.4789 286.4618 438.4133
475.2917 57.6437 320.6044
402.4005 207.6511 501.0023
479.3648 56.7855 312.5658
406.9736 255.8767 492.5369
486.1083 281.2062 305.8994
419.4729 278.1936 464.9493
404.5898 231.2095 498.5921
404.4 101.702 494.3418
440.8952 294.3333 415.1467
460.537 303.5632 370.2408
488.8936 276.6774 301.8796
480.4177 284.2715 322.3952
474.9738 64.0173 326.7593
450.923 299.9762 393.264
456.7566 302.4462 379.6461
484.0205 62.78209 305.9867
433.7692 287.3326 435.0741
418.211 274.112 471.6884
477.9633 296.4291 331.7254
483.6044 57.3545 309.0508
415.6429 268.5215 478.8629
474.7817 298.701 340.3905
425.5678 279.4527 457.0179
487.7307 284.5911 309.5354
411.4391 258.2417 490.2614
484.1802 286.315 318.4551
428.5871 281.2556 450.5618
480.7197 290.6918 327.04
446.15 295.6184 409.5562
456.0955 300.7898 387.444
491.836 283.1977 301.9997
410.4329 252.0004 494.4137
409.4158 242.3444 496.7811
466.945 302.6125 362.6421
407.0249 201.52 501.3005
480.5961 56.8779 321.4519
408.8248 228.2323 498.9089
415.856 263.8807 484.0173
422.6391 275.4893 468.4987
489.0804 64.5839 302.8123
494.8955 280.3212 298.2026
409.5942 103.3749 494.8322
432.8645 282.0492 447.1839
408.5297 190.1295 501.7372
463.1503 302.0948 376.8818
489.6943 59.2224 304.9558
486.1809 293.4864 322.6995
480.813 62.15809 326.6964
488.7676 287.3985 316.7319
496.0837 285.1981 299.9323
493.5075 285.7763 306.13
413.4552 247.7428 495.5535
427.8228 276.5178 462.8616
483.4242 295.2029 331.4459
488.338 55.2531 310.6052
409.9233 179.2507 501.9065
430.8359 278.2681 456.3842
415.2694 254.6594 492.7124
499.3806 279.7771 294.4022
469.1626 302.5119 368.3728
417.6921 258.6995 489.0086
437.1603 282.945 443.854
480.8977 62.6054 331.6989
411.2739 168.6056 501.8424
425.7462 272.5615 471.9926
413.001 213.2679 500.3155
493.3164 286.7552 313.0429
487.3071 55.783 318.5963
483.9275 296.9862 336.4493
500.6223 285.9498 296.3721
415.1603 234.1047 497.9259
492.7433 55.0644 306.9652
435.0823 278.9735 452.9866
480.8051 298.7762 345.3187
491.0799 295.6038 321.2517
496.2259 63.1194 299.9582
492.5789 290.6263 317.4998
503.5305 282.3692 291.6477
488.9704 297.853 327.5264
460.8047 298.2638 394.6765
469.5373 301.664 374.0916
474.5613 301.6758 363.2745
418.6524 250.7331 494.4801
430.0246 273.3791 468.6345
497.1165 287.0869 309.7777
487.2848 56.3108 324.3523
446.7298 287.7666 430.1007
496.8469 58.1258 302.2173
416.0767 204.1458 500.835
427.6087 268.0727 477.3042
421.6085 255.2167 491.6376
507.8674 282.9635 288.4671
464.9953 298.6221 391.1048
484.4076 61.6573 335.8396
505.6066 287.5448 294.4045
501.3272 64.8537 296.8136
434.1659 273.6384 465.0762
481.1491 300.1276 355.7206
490.9255 297.2429 332.4909
495.3922 298.6025 321.9693
487.7154 297.2065 340.465
425.9761 260.1636 486.3323
498.3487 53.9284 306.3909
428.038 263.8964 482.0367
458.2011 293.2521 411.8026
503.6133 288.1557 304.0572
509.759 287.8332 290.1257
432.0766 269.6367 474.1788
475.9243 301.2125 371.2704
420.8783 219.4714 499.3811
512.3743 282.4471 284.6723
489.4407 57.5228 331.1696
438.3651 274.1451 461.6018
499.0889 297.594 318.7477
420.3891 184.3463 501.4173
424.2104 247.9452 495.0036
501.2615 292.7623 314.7771
496.1189 299.5307 327.2712
424.2531 242.9187 496.0399
458.355 291.3746 416.973
503.4099 55.3343 300.7527
506.535 67.9815 293.8859
423.2058 228.2332 498.2918
514.0335 287.9946 285.9148
505.4871 59.0029 297.6635
503.8988 289.7696 310.7628
473.3486 299.1758 383.8457
487.8647 61.3027 340.0828
427.8634 255.6554 490.4037
422.7448 195.4691 500.9303
510.7962 289.2371 295.9804
495.1253 55.5252 324.7786
493.6994 295.9767 338.4453
518.0508 284.5635 280.7425
503.8692 53.1761 305.918
434.0989 264.1981 480.5489
484.0887 300.4798 363.3359
437.4014 268.6532 473.6416
482.3037 300.6548 368.4237
487.6176 299.3677 355.7431
451.2498 281.9654 441.8263
440.535 270.8354 467.326
429.1636 250.751 493.6004
503.3535 300.1722 319.3343
511.8324 70.7324 291.0725
495.0845 56.3103 330.5928
510.5228 60.6753 294.3886
444.819 274.2503 459.0672
506.5116 294.717 313.5422
500.6747 54.19111 318.5588
518.6193 290.2813 285.621
510.1371 290.0576 305.9657
503.9465 53.3135 311.4898
427.9426 219.4999 498.9202
493.8106 297.1894 345.4395
522.4871 284.1418 276.8657
499.8926 299.9338 331.2234
509.941 54.6497 298.0185
521.4551 288.9377 279.8292
494.2959 58.6094 336.271
471.871 295.4486 399.1721
492.9537 64.2454 340.4134
482.643 299.7689 374.1123
491.2624 61.2865 344.3909
444.8014 271.6267 463.9599
513.7471 290.4983 301.958
432.1497 246.5132 494.7162
508.2108 299.808 316.0841
433.7521 253.2146 491.5752
429.4732 201.2703 500.1929
451.3204 277.1186 451.705
517.0991 73.6483 288.1119
510.4356 52.188 303.136
511.5527 293.2573 310.1373
515.6879 62.2893 291.3365
525.9769 288.6813 275.7235
432.2897 237.0073 496.4337
498.0955 295.42 342.3518
488.67 300.001 365.4868
506.99 301.3059 322.9991
514.7118 55.309 295.4333
501.0052 299.1516 337.6147
459.8438 283.7895 435.1846
441.9158 265.2535 477.189
433.1852 231.1728 497.163
505.421 301.4357 328.9164
464.0229 286.7653 426.7879
525.7581 291.8221 280.8643
510.5314 52.3121 308.6764
470.2068 290.8124 414.0094
498.449 296.8075 347.3203
431.984 179.1244 500.7177
514.7631 51.7639 299.5008
513.4924 298.5303 312.484
474.9603 61.9703 395.0875
499.6123 56.7288 336.3205
531.0012 287.3166 270.9768
497.2032 65.7582 342.7529
495.3265 298.5362 356.301
480.2678 296.2247 392.0494
437.0772 249.306 493.2942
516.5261 292.4615 306.3446
518.8093 291.6763 300.9061
450.1981 270.9194 463.4872
520.7824 64.3945 288.107
433.8089 195.6529 500.1068
530.621 291.8555 274.072
505.4827 300.1499 335.1936
519.7232 56.8564 292.1135
499.0885 59.4728 341.2952
435.5387 213.769 498.812
439.8479 253.6699 490.2839
510.6013 52.6034 314.2691
513.4583 302.2445 317.3327
447.9652 266.248 472.3994
518.9735 51.9061 296.0061
494.1197 299.27 365.0571
524.1387 71.124 284.9696
489.3411 298.2654 376.9522
535.4498 286.9061 267.0858
509.4246 53.32711 320.6412
534.9497 291.9475 269.8183
436.8385 201.5241 499.5247
454.549 272.0456 460.2254
504.5402 298.4361 342.4373
446.0185 261.9797 480.2613
444.0631 258.4689 484.7848
439.1056 237.0049 495.7727
439.9388 244.9952 494.2621
504.2183 292.7577 343.3523
526.6226 292.8389 290.4926
525.8685 66.0845 284.8123
518.7889 300.4323 311.2961
438.8083 109.5976 494.644
520.6664 295.5898 307.3656
514.3159 302.4677 322.839
523.8533 292.9277 299.8411
525.3368 60.022 287.2816
503.1286 296.0767 349.3396
499.9867 62.59549 348.656
504.2541 56.5449 338.281
510.9941 301.8631 332.3457
499.2159 298.4813 360.505
440.8102 225.3892 497.1189
539.5098 290.4598 265.0839
443.3019 249.8697 492.2452
529.2278 72.5105 281.5922
523.9904 51.93389 293.4286
518.5023 303.3294 316.3354
459.9775 274.1081 454.959
451.117 263.3808 475.93
508.9401 300.7081 340.0753
517.16 51.5349 311.4398
504.0692 58.4171 343.1258
533.7275 293.9882 282.418
522.4114 50.4457 299.9113
530.8617 66.7331 281.2943
507.0767 298.3765 346.8801
503.8705 297.2205 354.6181
497.6712 298.3315 369.4206
542.8616 288.8305 261.6932
489.8754 295.8454 388.0083
540.181 294.3243 268.4026
442.2542 213.851 498.1183
444.7093 242.899 494.1902
449.9945 258.6634 483.1574
474.8336 285.57 425.9702
531.2164 60.16169 283.3447
442.2901 184.8631 499.6423
525.6153 297.4849 306.1924
524.1393 302.2562 310.1717
447.7028 252.1727 489.9558
528.919 294.0934 298.7952
519.4097 303.3344 321.8452
521.4846 50.75239 307.7091
457.6697 266.4766 468.5996
544.2644 294.6874 264.0908
529.3945 52.9291 290.11
501.8283 298.2268 365.6048
505.0388 66.07 349.1322
546.7513 291.173 259.1983
508.0271 294.9688 351.4908
523.5928 304.2089 315.3885
514.192 53.70549 328.4554
532.4772 294.6742 294.7483
448.7068 247.0268 492.6125
456.4586 262.4101 475.413
447.4666 225.4365 496.3439
451.8253 254.272 487.2783
485.2585 290.1812 409.7371
470.7706 277.9613 444.3197
513.8919 300.3412 342.7245
533.3487 55.0103 286.9684
529.9483 49.3777 294.8816
529.1656 301.0823 306.6508
492.3175 293.8979 394.3448
519.6459 303.3975 329.853
505.6211 62.6026 353.9567
508.5328 296.7404 356.5446
509.1843 57.54171 345.8531
531.4047 296.6167 302.4411
512.2371 55.6606 338.933
549.635 295.6132 259.485
465.3662 270.8208 459.392
524.5225 304.1593 320.9213
448.3787 196.5465 498.5039
521.6225 51.57389 318.9138
469.7159 274.592 451.2861
460.8191 263.5901 472.1458
455.7717 256.2274 484.3086
526.9202 49.9984 307.2356
453.2606 249.5282 490.7019
529.3513 305.1698 312.0594
508.2098 297.5182 362.629
514.1754 299.5348 348.5447
535.0084 50.36951 289.3679
512.7928 293.0485 351.7076
519.3027 301.7939 337.1003
537.5316 295.8559 293.7067
449.4973 185.351 498.7973
452.3051 237.0613 494.1506
517.299 54.2103 334.2359
453.8505 244.0123 492.7075
521.658 52.2481 324.6078
533.064 305.0243 308.2819
474.0313 275.6351 448.0228
511.2243 61.0786 351.5961
532.2146 49.05929 301.2682
535.3051 48.6012 294.4451
461.2912 258.7349 479.113
457.4832 251.7371 488.2312
537.0073 298.6212 301.2447
518.5702 300.6353 345.3008
554.1961 297.4739 260.7139
480.4131 280.6327 435.6365
513.8207 57.2651 347.8521
513.4286 296.0699 358.6031
516.0393 297.8765 353.6865
524.9705 303.711 332.9143
466.5225 263.635 470.3974
487.7182 285.746 420.9137
455.8013 225.2294 495.226
527.762 304.1573 327.3618
543.2727 297.002 290.3231
455.3858 214.0188 496.383
537.9464 303.2506 303.9046
539.553 48.18291 290.8567
458.5969 246.6946 491.0826
541.1173 297.4712 297.2112
500.9377 293.1461 392.5819
511.1824 62.9781 359.3383
512.8881 66.257 355.4767
504.9042 294.7078 383.4875
461.4849 253.7088 485.3514
531.0964 304.9529 323.3351
456.5896 205.9446 496.8088
486.7789 282.973 428.1073
514.1196 296.5229 364.1247
476.1971 272.2911 453.7148
457.1402 200.1686 497.0832
456.6615 185.997 497.7793
536.0054 306.3415 314.1922
481.5736 276.7709 443.5113
516.1405 59.25409 353.3832
465.2567 255.4546 482.0731
509.095 294.8747 379.7922
473.9694 267.5149 462.5327
521.1842 299.8715 352.3817
468.8009 259.6643 475.4261
462.9905 249.0306 488.886
461.4394 240.0207 492.2254
540.1778 307.1073 307.7644
519.4851 56.45639 347.5341
548.9992 298.1866 286.9158
521.5622 55.2678 342.884
518.9165 296.0946 358.9452
535.4855 305.8828 319.9653
530.388 50.8991 322.633
533.562 49.73171 315.5661
471.6113 262.1209 471.1944
546.9195 298.4018 293.905
544.3467 302.6404 300.3203
461.6953 228.2384 493.9427
537.7182 48.5075 306.3004
528.8788 303.6225 337.8448
541.8255 47.5831 297.1547
500.3065 289.5187 405.452
516.5918 64.47899 359.4956
467.0808 251.1268 486.2306
519.7674 294.8647 364.101
497.3697 285.856 417.1065
466.0314 244.9735 490.233
546.5433 307.4861 303.1157
516.8152 63.1595 364.7064
489.0998 277.8248 438.9663
518.436 295.1313 369.9459
520.269 59.8692 357.1424
549.7861 301.3683 296.7994
552.694 299.4279 290.5487
523.9166 298.5298 358.9546
470.9514 253.0151 483.1704
473.2924 256.5489 478.2115
526.8721 300.7104 352.7121
529.7214 53.0572 336.4329
536.0618 304.7915 332.065
464.7115 176.1157 496.6573
501.6203 286.5085 413.6964
545.1337 47.2311 301.2506
550.2026 305.6944 299.5439
547.1911 46.7637 296.6765
476.198 259.1167 474.0693
506.7331 289.4837 402.8548
467.3476 219.9435 493.8678
556.9103 299.9538 284.1933
470.4183 247.3586 488.1229
534.1431 304.1743 338.9634
520.6979 66.74019 361.8942
516.7426 293.6986 380.3046
483.6415 268.3872 458.4106
466.8695 192.8603 495.8482
524.5282 57.599 355.0491
499.6528 283.1625 423.0571
471.0012 241.8338 490.0611
560.4413 300.5159 280.1678
543.206 48.1507 311.3478
500.4944 70.6558 413.8265
545.2411 47.5288 306.7571
483.2614 265.1849 463.5839
490.6874 273.6503 446.9183
524.8107 294.2251 366.9262
511.1017 65.8882 390.7737
557.7469 300.6323 289.4806
529.2616 300.7725 357.2193
549.0629 308.7525 310.5899
474.5565 249.4802 485.5353
555.3802 303.4474 295.5612
504.0347 284.4967 418.0319
477.6728 96.69642 473.9326
486.689 84.30158 452.0449
554.7782 308.5809 299.7493
474.3322 237.2449 490.2551
471.4231 185.5878 495.237
508.271 68.5849 403.2175
472.2279 202.9491 494.2944
475.5722 244.3891 488.2111
516.1851 290.8129 393.561
482.4336 91.94613 466.1057
525.1137 293.7016 372.8046
524.4194 65.1866 365.6961
498.4748 277.7174 436.0701
478.4769 251.4437 482.6009
539.3363 304.8844 340.2451
529.4879 297.4286 364.0636
472.4793 180.5169 495.1514
477.9102 101.0868 479.3902
565.498 301.6533 279.1009
476.3412 104.4602 483.4305
527.0303 59.8499 361.6115
485.1224 260.6969 469.4841
545.4435 48.5098 317.8814
522.8357 64.2562 372.3321
486.6725 88.27896 459.2729
493.7756 80.41615 442.0831
475.5446 228.6376 491.2288
532.2958 55.4886 350.1061
551.6171 46.4958 303.9724
563.4821 301.7628 286.093
534.8161 301.5669 354.2365
559.0639 307.8224 296.8452
554.6609 45.6023 297.1179
537.8786 303.1334 347.4755
491.6671 268.4286 456.1433
482.7156 96.07643 471.8722
482.3423 253.2614 479.51
552.9583 309.1226 314.4885
479.8666 246.6925 485.9771
