81.08875 26.47731 50.1865
81.06954 24.50931 49.7081
81.0003 14.3739 44.8074
80.99441 11.62079 42.4155
82.13317 64.8165 37.40829
81.60065 36.0372 51.06591
81.56564 33.1951 50.972
81.4121 16.57399 46.21731
82.36806 58.3708 44.3089
82.21 50.19089 48.7414
82.15786 47.01972 49.70939
82.03935 38.85463 50.91071
81.91268 28.39091 50.3812
81.83124 19.39702 47.6733
81.79914 10.29771 40.80631
82.71374 55.69321 46.0505
82.48019 41.6677 50.5746
83.37908 66.01551 35.13139
83.29487 63.31031 39.2193
83.24626 61.4949 41.3129
83.05972 52.75151 47.4941
82.92334 44.4856 50.0572
82.73747 30.29048 50.49029
82.60414 12.71701 43.0831
83.22408 37.25201 50.73011
83.18785 34.41423 50.74041
83.1011 26.7227 49.8293
83.05223 21.40319 48.28529
84.13278 64.4477 37.4532
83.47144 23.4051 48.8783
83.41528 14.97188 44.68159
84.38619 58.7089 43.5697
84.19897 48.8916 48.68469
84.15751 46.3556 49.4395
84.0527 39.11858 50.48589
83.96477 32.16651 50.4436
83.82557 16.79659 45.8191
83.80942 10.99011 41.08059
84.87469 62.2244 40.06019
84.75217 57.01831 44.67979
84.64454 51.44572 47.6952
84.49904 42.2512 50.0368
84.24287 19.26589 47.06159
85.37776 65.63671 35.2419
85.22349 60.09461 42.11791
85.10053 54.36399 46.2264
84.8113 35.62921 50.4026
84.61654 13.35829 43.1322
85.1379 29.23661 49.83149
85.11407 26.96279 49.41291
85.0916 24.6585 48.85069
85.06764 21.9785 48.01871
86.21075 66.46131 33.55581
86.123 63.71091 37.88659
85.78623 47.5969 48.70211
85.72761 43.80121 49.54989
85.58801 33.38268 50.1288
85.4307 15.95411 44.8412
85.42023 9.982792 39.46519
86.39847 58.714 42.9695
86.06683 39.3815 50.0025
86.88775 62.24361 39.4083
86.85105 60.809 40.92239
86.68552 53.04861 46.4059
86.63303 50.1393 47.6761
86.36609 31.11499 49.7206
86.2508 18.79611 46.3202
86.22403 11.61208 41.01551
87.37892 65.2739 35.1734
87.13895 55.67881 44.8509
86.95774 45.35791 48.9469
86.89761 41.2518 49.595
86.83792 36.83129 49.878
87.21206 34.59751 49.7448
87.10524 24.88932 48.3747
87.0812 22.20511 47.5453
87.03092 13.15883 42.22549
88.21147 66.09359 33.51299
88.02562 59.41599 41.79481
87.52668 26.85031 48.74189
87.44059 15.43301 43.8859
87.43371 9.774503 38.54151
88.51966 63.00341 37.90081
88.22137 48.83858 47.5937
88.1897 46.9236 48.1935
88.12759 42.80069 48.98621
87.98941 32.3345 49.39881
87.9532 29.11052 49.0045
87.86943 20.09499 46.4661
87.85563 17.97259 45.3818
88.78493 57.36091 43.14889
88.7226 54.34969 45.1207
88.67374 51.7334 46.3994
88.46751 38.36429 49.3661
88.23732 11.41488 40.11819
89.26843 60.8358 40.0026
88.70428 23.80702 47.64199
89.88826 67.8468 29.3591
89.85292 66.9615 31.3354
89.75054 63.77749 36.41409
89.35757 44.35959 48.3925
89.29781 40.2413 48.9978
89.23852 35.8026 49.2291
89.08962 21.74398 46.77039
89.0572 16.7897 44.2574
89.04606 13.7566 42.0042
90.01619 58.39309 41.9005
89.61347 33.55342 49.0175
89.57965 30.66101 48.7731
89.5346 26.4194 48.04221
89.44664 10.42849 38.56321
90.6042 65.3467 33.8089
90.51539 62.3013 37.91851
90.36735 56.01421 43.5048
89.87732 19.2436 45.3292
90.71076 53.02623 45.10851
90.63605 48.8075 46.8355
90.59003 45.92651 47.60461
90.52734 41.79418 48.43511
90.35999 28.34382 48.12519
90.25188 12.0314 39.9652
91.24941 59.44669 40.5089
90.86917 37.33468 48.6293
90.71383 23.34061 46.76601
90.66462 15.90562 43.0418
90.65959 8.926299 36.16621
91.74612 63.0696 36.4379
91.20399 31.8799 48.3672
91.13452 25.33412 47.23331
91.06217 14.34031 41.69181
92.25979 66.62041 30.89461
92.09125 60.87981 38.73441
91.95172 54.6779 43.71029
91.88387 51.0593 45.5015
91.75847 43.35332 47.7473
91.6993 39.2192 48.28681
91.63406 34.10861 48.30521
91.49978 20.88129 45.51469
92.58639 64.23199 34.5044
92.38942 56.35878 42.45019
92.2212 47.17889 46.67191
91.98415 29.56569 47.7373
91.95999 27.26888 47.3212
91.89039 19.08779 44.4915
92.46292 36.00022 48.0746
92.26878 13.02311 40.01579
92.26764 11.37492 38.38831
93.41897 65.0458 32.8408
93.23422 58.07981 40.731
93.12252 52.68922 44.2704
92.99123 44.92181 46.9355
92.92965 40.77381 47.65919
92.72133 22.51988 45.6959
92.68789 17.56969 43.2713
92.67366 9.569881 36.0855
93.75387 62.7456 35.8611
93.71487 61.2739 37.5255
93.4672 49.42041 45.47639
93.0809 15.2882 41.54201
94.25152 65.86991 31.187
93.9742 55.01631 42.6167
93.65114 34.34461 47.5473
93.60946 30.78338 47.2499
93.54802 24.83609 46.0823
93.51107 20.3731 44.4546
94.22495 46.50312 46.0591
94.16109 42.33598 46.9493
94.0906 37.21788 47.39019
93.88737 8.470383 34.052
94.99826 63.92121 33.6844
94.87234 59.1487 39.0369
94.7102 51.36621 44.2186
94.39361 28.7742 46.6135
94.37301 26.79011 46.23179
94.30789 18.8756 43.312
94.28607 13.59391 39.58771
94.28459 11.11302 37.1187
95.47882 66.3366 29.6731
95.2057 56.03769 41.33721
94.84018 32.67249 46.94021
94.73316 22.01661 44.59751
94.6994 16.6344 41.7482
95.83082 64.7348 32.0224
95.55416 53.34672 42.83941
95.47153 48.74861 44.8202
95.3944 43.9068 46.09449
95.32042 38.77711 46.8107
96.1479 61.7008 35.7396
96.10996 60.24159 37.32949
95.75075 40.68592 46.39301
95.66909 34.57841 46.71781
95.56265 24.69158 45.131
95.4957 12.62501 38.02541
95.49665 10.06672 35.2754
95.50322 8.2041 32.79151
96.23036 45.8219 45.3013
96.02338 30.3207 46.1033
96.99704 63.22369 33.45171
96.83515 56.73819 39.96781
96.50829 37.12248 46.3133
96.39822 27.65241 45.45869
96.33751 20.8303 43.3172
96.31927 17.95542 41.813
96.3069 14.92929 39.6678
97.48738 66.01422 29.03379
97.1954 54.69381 41.1794
97.11898 50.69559 43.2767
96.98334 42.25659 45.5977
96.70614 11.62812 36.36709
97.84073 64.4204 31.28019
97.68286 58.49391 38.05
97.41543 44.18122 45.05499
97.18765 25.92388 44.68679
97.16566 23.54669 44.0089
97.11236 9.814289 34.0436
98.13091 60.2926 36.06309
97.87504 47.7409 43.9586
97.7439 39.00891 45.60471
97.66221 32.5194 45.5327
97.51455 13.17912 37.4566
98.57358 61.77431 34.18989
98.36029 52.34721 41.8528
98.10042 35.43368 45.52111
97.92662 16.27379 39.77901
98.81772 55.04441 40.03431
98.65052 45.77508 44.07941
98.4279 28.84811 44.6761
98.34939 19.92419 41.8008
98.32212 11.38112 35.11791
98.32618 9.151396 32.45661
99.41398 62.9357 32.24429
99.25908 56.77029 38.5208
99.11969 49.6934 42.5719
98.85253 30.8114 44.78349
98.76804 22.0122 42.52969
99.87669 64.9091 29.2365
99.38929 41.21428 44.5004
99.33993 37.64951 44.8295
99.19416 24.75089 43.3253
99.1298 12.95441 36.28869
99.13919 8.0443 30.3908
100.3226 66.1653 26.8638
100.1083 58.5441 36.4975
99.82129 43.14828 43.97459
99.68234 32.7349 44.5054
99.62431 27.42308 43.72251
99.54754 17.59609 39.76171
99.53864 15.3028 38.09731
100.3732 52.01181 40.8383
100.2967 47.70678 42.62421
100.9528 60.0074 34.52431
100.8099 53.69752 39.6647
100.5768 39.5492 44.02409
100.5208 35.31408 44.20309
100.3427 11.06202 33.49639
100.3454 9.715912 31.86721
101.449 63.4045 30.25861
101.4056 61.8713 32.22169
101.2497 55.41139 38.27451
101.1446 50.0088 41.2596
101.0723 45.72719 42.7198
100.8594 29.6781 43.43809
100.7703 19.67668 40.3071
101.6928 57.1607 36.64289
101.225 25.94149 42.43851
101.2057 23.88519 41.8717
101.1892 21.7793 41.0305
101.1543 15.08662 36.9072
101.1508 12.6417 34.63981
102.2957 64.63499 27.871
101.8446 43.41891 42.7407
101.8113 41.1323 43.0859
101.7568 37.21618 43.47031
101.5612 9.015408 30.0789
102.3052 47.0187 41.6062
102.127 34.57251 43.2383
102.0921 31.59549 42.9956
102.0526 27.91008 42.38901
101.9689 16.92021 37.78461
102.9857 60.4369 32.67509
102.9311 58.25129 34.8738
102.7915 51.67481 39.46139
102.3642 12.01442 33.1222
102.3753 7.882384 27.897
103.4207 61.57499 31.07099
103.1588 49.6616 40.1299
102.8814 29.8669 42.22099
102.8186 23.37241 40.5945
102.7903 19.43499 38.80601
102.7695 14.04431 34.8829
103.8697 63.13311 28.75599
103.6397 53.71481 37.8007
103.4855 45.01879 41.37391
103.4033 39.43631 42.2941
103.3635 36.48072 42.4711
103.2086 21.56338 39.6104
103.1744 10.56319 30.92991
104.0809 55.44871 36.30529
103.9275 47.32409 40.416
103.8351 41.39068 41.80691
103.7266 33.15171 42.1056
103.644 25.38729 40.7754
103.5825 15.9274 35.94431
104.7167 64.36881 26.34519
104.5507 58.29391 33.6328
104.079 28.42191 41.155
105.042 61.64461 29.709
104.668 43.0088 40.95371
104.4006 18.1182 36.9076
104.3867 12.9548 32.6589
104.3924 9.392914 28.47141
105.3879 59.41209 31.90629
105.3188 56.5249 34.56399
105.2171 51.674 37.84101
105.1802 49.64763 38.7549
104.9669 35.40188 41.3878
104.9075 30.395 41.0307
104.8466 24.2286 39.59489
104.815 19.9286 37.69369
105.6697 54.07729 36.1136
105.5069 44.97179 39.96401
105.3967 37.3671 41.0696
105.3346 32.379 40.95951
105.2765 26.95942 40.06821
105.1985 14.8834 33.8597
105.1966 11.9521 30.96029
106.2693 62.08451 28.1695
105.9533 47.6281 39.00971
105.827 39.3359 40.7204
105.6379 22.01509 38.15539
105.6107 17.1825 35.34
106.7101 63.28681 26.15739
106.1054 28.94258 39.92799
107.0096 59.47041 30.50199
106.8497 52.363 36.2034
106.8038 49.97491 37.48171
106.6646 41.28807 39.8351
106.5663 33.97539 40.26179
106.4629 24.0654 38.4064
106.4301 19.35309 36.1743
106.4128 14.26449 32.28399
106.4126 11.27311 29.1754
106.4175 9.430108 26.8479
107.4445 60.6105 28.9094
107.3617 57.29088 32.23351
107.3121 55.1483 34.0694
107.1398 45.9361 38.5973
106.9951 35.957 40.05051
106.9469 31.93187 39.8038
107.5775 47.94243 37.669
107.5025 43.25673 38.9384
107.4263 37.9318 39.63251
107.2905 26.08099 38.40159
107.2294 16.93991 33.8721
107.2215 13.2935 30.7122
108.2887 61.80361 26.69109
107.6573 21.41189 36.3386
108.4424 50.99341 35.69321
108.1833 33.87141 39.0842
108.1193 28.08419 38.2898
108.0485 19.1319 34.7538
108.0346 10.93161 27.3325
109.0285 59.1751 29.0435
108.9334 55.17798 32.67461
108.8953 53.41652 33.9593
108.758 45.90359 37.3904
108.6664 39.8789 38.61369
108.6131 35.86068 38.7965
108.545 30.11161 38.3828
108.4882 24.19549 36.8613
108.4408 15.5499 31.7277
109.5184 62.26159 24.96381
109.4639 60.322 27.41471
109.3804 56.98359 30.78
109.2144 48.94101 36.0101
109.1152 42.87311 37.81101
108.8427 12.98341 28.9661
109.3186 26.58412 37.02451
109.273 20.84052 34.76511
109.2576 17.80608 32.8647
110.0495 50.30489 34.712
109.8528 37.8091 37.81089
109.7811 32.0633 37.69459
109.693 22.9842 35.44299
109.655 14.93728 30.16169
110.6933 60.7662 25.70309
110.5091 53.083 32.79731
110.3667 45.194 36.2519
110.2851 39.8066 37.32049
110.2309 35.76481 37.55119
110.149 28.58859 36.77741
110.1154 25.08551 35.8807
110.9943 56.66369 29.6302
110.945 54.5029 31.4194
110.8104 47.56149 35.2191
110.7294 42.4827 36.5635
110.4653 12.65162 27.08611
111.0147 33.67841 36.8602
110.8994 21.73692 33.8546
110.8841 19.10791 32.36701
110.8767 17.15258 30.9322
111.6511 49.26589 33.8109
111.4666 37.38591 36.55209
111.3807 30.2147 36.1177
112.1237 52.74731 31.56979
111.9752 44.47651 35.12101
111.7499 26.6861 35.0365
111.7314 24.54451 34.3179
112.6094 56.34468 28.3688
112.5598 54.1737 30.1736
112.4878 50.64842 32.4095
112.4254 47.19668 33.92239
112.3384 41.749 35.3734
112.3094 39.71359 35.63341
112.2506 35.29581 35.84559
112.1099 20.82431 32.2827
112.618 32.1843 35.34731
112.5053 18.85339 30.6821
113.26 48.56369 32.6696
113.0865 37.29251 35.1385
112.9856 28.67129 34.4224
112.9401 23.67762 32.93639
113.9157 59.77919 23.4735
113.7184 51.35128 30.86799
113.5911 44.0903 33.7368
114.1601 53.12588 29.3778
114.0347 46.48301 32.73669
113.949 41.0029 34.0472
113.92 38.95372 34.28571
113.8577 34.15578 34.3906
113.7683 25.7504 32.94991
113.7376 21.72118 31.262
114.4894 49.2495 31.2115
114.2226 30.65789 33.69679
114.707 37.19669 33.67591
114.5636 23.83771 31.49429
115.5132 58.70679 22.87801
115.201 43.35612 32.47771
115.0037 27.75949 32.37879
115.6511 46.10669 31.3127
115.5406 38.87021 32.8241
115.4949 35.4233 32.97471
115.4615 32.64638 32.8171
115.9804 41.2608 32.13221
116.328 37.09891 32.17161
116.2411 29.7642 31.64211
116.6984 34.29168 31.7459
117.2496 44.68131 30.26891
117.9682 38.39209 30.53759
117.9316 35.602 30.63029
118.3064 33.11881 30.1878
117.2821 59.92281 19.36501
115.9803 59.9572 20.93111
112.5378 59.25229 25.5539
111.3333 58.8859 27.2146
118.7691 58.3018 19.33581
117.1281 58.3468 21.44399
114.6279 57.61781 24.9971
120.1785 56.6813 19.2823
118.5675 56.7258 21.3822
117.0959 56.7654 23.211
113.7769 56.84781 26.77831
116.0982 55.99621 24.91319
121.4768 55.06169 19.189
120.0442 55.10059 20.9983
118.4187 55.1452 23.09129
114.7057 54.8419 27.51949
123.1674 53.81921 17.5375
117.7528 53.97281 24.9207
116.5032 53.606 26.5061
121.2282 52.68851 21.55389
119.6172 52.73279 23.634
123.0999 52.23792 19.2731
115.8011 52.03321 28.3353
123.9597 50.99231 16.5659
119.2757 51.15321 25.2447
117.7582 51.1887 26.6995
122.8515 50.26111 21.2701
121.0014 50.31079 23.56881
115.4176 50.44978 29.59681
123.9902 49.82379 19.37449
117.394 49.60501 27.96049
119.9436 49.14498 25.55349
122.1243 48.68799 23.0452
125.1208 48.2012 18.8853
116.0768 48.44141 29.88009
123.9395 47.83719 20.76539
119.027 47.9699 26.9185
120.9259 47.12632 25.3087
117.473 47.2126 29.0616
125.3825 46.55867 15.92991
126.4796 46.16829 17.83329
123.432 46.25839 22.2849
125.2102 45.4081 20.00971
122.4223 45.4927 24.25611
118.5173 45.5898 28.46989
120.0221 45.15367 27.0257
127.0542 44.1654 18.4823
123.9827 44.24288 21.8807
125.7257 42.99631 19.94769
121.5402 43.11898 25.9766
120.0257 43.15421 27.4054
118.3772 43.19471 29.14211
122.9379 42.67582 23.8474
116.807 42.83419 30.9387
124.4061 42.2365 22.1045
127.202 40.96281 18.95571
122.0673 41.10348 25.5527
120.6245 41.14222 27.34199
126.654 40.53172 15.96139
125.6947 40.60462 21.0031
117.4853 40.81729 30.54899
123.7431 40.2537 23.21731
119.1922 40.3755 28.8298
127.6628 38.94379 18.1867
125.0899 39.02208 22.1263
122.5846 39.08389 24.78841
121.4405 39.12061 26.6913
126.8838 38.52671 16.1114
126.6694 38.1734 19.7891
123.9445 37.84799 23.3506
120.2239 37.94738 27.9227
127.1496 36.52569 16.62269
127.5158 36.54861 18.84809
122.3317 36.68952 25.4084
126.1842 36.18931 20.9693
119.3618 36.36691 28.9721
120.9566 35.93039 27.5742
124.929 34.61921 22.4821
123.5038 34.65318 23.9041
119.6031 34.3574 28.76531
126.2585 33.37541 20.37911
127.0397 32.92387 16.9872
122.5626 33.07709 25.2354
121.2169 33.11512 27.05599
124.8958 32.61152 22.16789
125.7833 31.7164 15.3763
126.912 31.75181 19.34689
119.8213 31.9432 28.2194
123.6816 31.4379 23.36399
117.4299 31.20002 30.7118
125.2618 30.58889 21.009
120.9435 30.71257 26.9932
122.4976 29.8675 24.9321
126.8029 29.33129 17.978
124.0641 29.4151 22.2085
118.8048 29.5583 28.8884
125.7537 28.96619 19.8978
123.0491 28.24437 23.83721
121.178 28.29408 26.1174
119.6988 28.3291 27.56239
116.8048 27.99851 30.5406
118.0427 27.1633 28.98151
125.7167 26.52842 17.1821
125.0538 26.57032 19.9713
123.4285 26.62232 22.66969
121.6274 26.6715 24.9735
118.9035 25.93431 27.63601
116.9796 25.58029 29.63001
115.4972 25.6159 31.1262
123.6843 25.00102 21.44679
120.3609 25.0937 25.84779
124.8282 24.15889 19.2309
122.2153 24.2382 23.22099
117.7854 24.35159 28.2546
120.7848 23.4712 24.68739
119.282 23.5106 26.4677
124.0038 22.93631 16.7999
123.3343 22.99538 20.9897
116.0628 23.18662 29.6724
122.6294 22.13439 15.4715
121.2334 21.84439 23.1939
117.9954 21.52398 26.6788
119.2675 21.08937 25.1385
116.4383 21.1592 28.13879
123.0885 20.5501 17.46839
122.2662 20.6019 20.91131
114.8269 20.79511 29.59861
119.7624 19.45799 23.3092
117.0391 19.52681 26.3384
122.5687 18.96742 18.65491
120.5901 18.62579 21.6033
118.1641 18.6924 24.735
121.3004 18.16079 17.04429
114.0809 18.38752 28.6738
115.5309 17.9469 26.81309
121.3145 17.385 19.16659
118.0871 17.073 23.349
116.443 17.11371 25.1082
119.7079 16.62341 20.9142
113.8761 16.36821 27.24451
112.3979 16.40421 28.77499
116.5853 15.49279 23.80459
115.0199 15.529 25.26629
119.3338 15.01012 19.7347
117.6924 14.64981 21.48579
112.2977 14.3798 27.02631
110.7946 14.41619 28.56551
115.9448 13.8812 22.52111
113.4926 13.94501 25.3921
116.9219 13.04331 20.485
114.3852 12.2973 22.61201
113.0226 12.33241 24.17931
111.0395 11.161 24.83401
113.9416 10.6799 21.0395
111.7517 10.3285 22.9969
109.1301 9.985116 25.1826
112.8503 9.075281 19.8956
106.8763 8.406577 25.0643
110.6488 7.905093 20.437
118.8583 58.55631 16.66
117.3333 60.1293 16.53059
116.573 61.34469 18.0167
114.9746 61.9127 19.7528
114.2546 63.21409 18.34199
113.3503 61.9355 21.37399
113.4735 63.0113 15.7942
112.0993 61.47951 23.3272
112.2759 64.0035 19.2776
111.0471 63.90341 20.87261
111.1545 64.87361 16.1358
110.5632 62.8113 23.12219
109.9357 65.41221 19.5031
109.0806 64.83839 21.4157
109.2146 66.4833 17.25121
108.2239 64.2322 23.3282
108.0205 66.2508 15.531
107.5706 66.4029 20.05149
107.2582 67.41992 16.9917
106.7023 65.6579 22.3317
106.2204 64.6048 24.5754
106.0484 66.8571 15.20261
105.5811 66.96209 20.92709
105.2624 68.06031 18.703
104.3195 66.37821 23.22361
104.4915 67.97799 15.81709
103.4621 65.7571 25.12331
103.2066 67.753 21.4289
103.2994 68.86001 18.4136
102.415 66.2674 14.5656
101.9425 67.1179 23.7091
102.1199 68.7281 15.9194
101.6824 68.91949 19.5989
100.8224 68.3417 21.88879
100.5286 69.54449 18.08129
99.97291 67.87981 23.80209
99.72304 68.94271 15.9038
99.2708 69.14121 20.79491
98.31054 67.30451 26.0846
98.42335 68.721 22.7102
98.51781 69.54649 18.4343
98.09579 68.25191 14.89349
97.2898 69.5603 20.4252
96.91868 69.2393 16.70751
96.39256 68.6207 24.25529
96.09532 69.3281 18.7315
96.07442 67.92361 14.76711
95.50054 67.5848 27.27839
95.65778 69.4084 21.9671
94.89914 69.0577 17.02209
94.42136 68.3987 20.5258
94.00355 69.0003 24.26679
93.50366 67.8785 27.68449
93.23804 69.2479 22.2794
92.87576 68.90132 17.74891
92.36866 68.7882 25.7999
92.04642 69.07651 20.6008
92.06722 68.3443 15.98039
91.11758 68.3188 27.70239
91.19383 68.7601 23.3473
90.85438 68.6817 18.0573
90.42676 67.3712 14.90581
89.98033 69.077 25.3914
89.60854 68.8522 22.1137
89.13896 67.94471 23.95509
89.22352 68.55612 19.6148
88.72246 68.5697 27.6884
88.83973 68.06861 16.2449
87.45833 67.93311 29.97071
87.54246 68.5388 25.64031
87.59161 68.515 21.59379
87.21615 68.206 18.27221
86.7663 68.562 23.60629
86.2113 67.44631 31.47849
86.33008 68.77311 27.26389
86.41367 67.6664 16.095
85.47029 68.2023 29.56501
85.56677 68.224 21.8932
85.07521 67.49159 26.2069
85.18907 67.9727 18.98751
84.57727 67.1511 32.6072
84.74204 68.28281 23.91019
84.39747 67.6644 16.8612
83.46718 68.26171 29.52839
83.55444 67.87641 20.96319
83.0972 68.18101 26.6833
82.57898 67.3106 32.5859
82.71792 68.0072 24.21589
82.37647 67.34531 16.7412
81.9583 67.52349 18.814
81.43135 67.9526 30.6415
81.44662 67.7484 28.59209
81.52588 67.6131 21.67599
80.92954 66.80071 34.08991
81.13429 66.0958 14.79331
80.67393 67.84341 26.568
80.18789 67.5405 32.1631
80.30145 67.59979 23.27059
79.92341 67.34039 20.35989
79.95251 66.98801 16.6028
79.2874 66.33921 35.2024
79.38797 66.75521 28.7881
79.02203 67.908 30.5797
78.66246 67.5168 25.65311
78.69623 67.2701 21.94791
78.73154 67.0511 18.2261
78.72149 66.08321 15.1407
78.14978 67.1863 33.27601
77.83597 67.5405 27.66471
77.28586 66.4314 35.1713
77.36037 66.5147 29.5147
76.98634 67.6033 31.6972
77.06886 67.11501 23.10209
77.10312 66.8748 19.3785
76.72165 66.5361 16.42349
76.23002 67.1995 26.35241
75.87135 65.0883 14.4347
75.24156 65.95109 36.27679
75.31837 66.91781 33.98289
75.3968 67.293 29.18769
75.44319 66.99541 24.2635
75.47758 66.7589 20.54369
74.77087 65.03642 38.17779
74.96887 67.4687 32.0354
75.10137 66.5313 17.61571
74.11967 66.1819 30.60749
73.80725 66.87351 26.23911
73.85129 66.62579 21.7059
73.87449 66.471 19.2163
73.88155 65.6459 15.3334
73.23802 66.0024 36.2404
73.29815 66.726 34.31599
73.38331 67.0304 28.6936
73.4231 66.69889 24.16141
72.94801 67.26269 32.3638
72.27955 66.13691 17.04951
71.74966 66.84971 30.2504
71.79786 66.5887 25.327
71.83322 66.37101 21.6077
71.84639 64.9177 14.70791
71.27962 66.57001 34.6549
71.3657 66.68261 28.1841
70.91634 66.7306 32.2406
71.05266 66.07731 18.6546
70.00396 65.7056 36.94341
70.20833 66.2692 22.7782
70.25999 65.6327 16.06481
69.72822 66.6327 30.5769
69.77286 66.403 26.06289
69.82292 66.065 20.6784
69.13255 64.8021 38.84339
69.29068 66.71551 33.82221
69.3472 66.42111 28.09469
68.44678 65.43531 31.99621
68.62977 65.85272 18.9603
68.62825 64.84321 15.02369
68.04372 66.2348 35.34919
68.17809 66.08 23.92361
68.19857 65.9747 21.85361
67.58207 65.50631 37.2726
67.74719 66.20289 26.7977
67.30839 66.36971 30.4818
66.87707 66.5824 33.75059
67.02944 65.6209 17.63429
66.60521 65.67571 19.6989
66.01346 65.9413 36.0775
66.17013 65.8236 23.00799
66.22344 65.10989 15.84959
65.68212 66.2374 31.64509
65.70696 66.12261 29.18519
65.73797 65.92171 25.88479
64.73427 65.0069 38.3697
64.84718 66.2961 34.4774
64.97645 65.602 21.29249
64.54539 65.7254 24.1826
64.60196 65.40781 18.3562
64.59074 64.29841 14.80119
63.99179 65.722 36.41181
64.00301 65.0114 32.6519
64.08209 66.02131 30.3552
64.10603 65.8855 27.8856
63.35388 65.54961 22.47791
62.92187 65.65312 25.3621
62.97062 65.3885 20.37731
62.32413 64.9458 38.3119
62.42532 66.09599 34.80341
62.48369 65.8367 29.0661
62.59844 64.9132 16.13009
62.04988 65.8969 31.9207
61.69705 65.63589 26.96989
61.77717 65.1689 18.6507
61.33397 65.364 22.8062
60.67549 64.35651 39.4299
60.76409 65.4524 36.71491
60.77472 64.72741 32.9489
60.85904 65.74041 30.23919
60.95083 65.2049 20.70481
60.50628 65.47721 25.2742
60.5859 64.9929 16.92609
59.76446 64.1523 15.06199
59.27256 65.48551 27.70799
59.32117 65.2197 22.7309
58.66474 64.25861 39.3772
58.74236 65.2318 37.0511
58.81195 65.83451 33.87609
58.83831 65.64482 30.9957
58.9518 65.02549 19.37939
58.09408 65.2636 24.7684
58.17093 64.7164 16.39101
57.57923 65.65021 35.45219
57.73349 63.51261 14.45329
57.1568 64.58071 32.8483
57.32527 65.0001 20.98939
56.60942 63.5577 40.48119
56.8334 65.45551 30.10421
56.86159 65.29962 27.21131
56.29286 64.67371 38.15331
56.49614 65.0851 23.46259
56.54832 64.77581 18.025
55.56505 65.4811 35.3867
55.7355 63.78961 14.88
55.21316 65.4525 31.29421
54.83339 65.2613 28.7995
54.86858 65.14321 25.49401
54.92527 64.82401 19.65371
54.50128 64.8862 21.7257
54.54509 64.61391 17.1095
53.50418 64.87159 37.30321
53.53241 64.2982 32.72839
53.67975 65.02271 23.7962
53.17135 65.5513 34.5293
53.21058 65.3109 30.4096
53.32308 63.6767 14.79331
52.8324 65.1532 27.91521
52.85415 65.0738 25.8463
52.51471 64.7518 19.5796
52.53905 64.61111 17.05781
52.08737 64.8516 22.074
51.51426 64.99361 36.4604
51.58262 65.2522 32.002
51.20824 65.2809 29.9499
51.2596 64.9651 24.55321
51.32417 63.93319 15.2151
50.7589 65.4428 34.4623
50.86812 62.4426 13.6223
50.42324 65.1112 27.85271
50.50796 64.6254 19.0894
50.52974 64.5394 16.992
49.45484 64.31149 37.9671
49.56633 65.25031 32.7753
49.64217 65.0222 25.76171
49.67868 64.8188 22.00909
49.12147 65.0824 35.60409
49.19882 65.2092 29.8934
49.30283 63.4975 14.65081
48.46041 64.94071 23.6562
47.95291 65.38691 33.9853
48.01696 65.1291 27.79989
48.09297 64.6769 19.8701
48.11688 64.5269 17.3448
47.48013 64.64301 36.73939
47.52066 64.2146 31.7616
46.83243 64.9925 25.69041
46.39532 65.31 29.84509
46.4764 64.75399 21.09
46.50011 64.60111 18.56841
46.50502 63.82841 15.06841
45.90311 64.9015 35.5117
45.5516 65.1926 32.6785
45.65357 64.8649 23.16161
44.80119 65.21229 28.5614
44.82806 65.02521 25.6487
44.20381 63.58251 37.7703
44.47818 64.69859 20.2001
43.92246 65.10961 34.26899
43.9476 64.67921 30.51601
44.1062 64.5505 17.248
43.43916 62.55811 30.60229
43.65013 64.91691 23.1227
43.06177 64.43191 36.20979
43.30347 64.1052 15.4635
42.81632 65.1187 26.4419
42.39352 65.30881 28.93241
41.9004 64.88381 34.6045
41.97254 65.53349 31.4191
42.07736 64.7224 19.72951
42.10153 64.5774 17.2025
41.63022 65.055 24.75259
41.65083 64.94801 22.66589
41.03406 64.0887 36.53391
41.27921 63.49652 14.4427
40.8067 65.2554 27.24159
40.38336 65.3275 29.30051
39.87614 64.61111 34.9348
39.95691 65.43919 31.77029
40.06707 64.84731 20.5348
40.08657 64.71381 18.4298
39.63442 65.0519 23.8777
39.29685 64.2142 15.3833
38.79914 65.3297 27.6189
38.45368 64.9908 21.7673
37.90912 64.9955 33.3029
38.02375 65.25101 25.11369
38.08136 64.8379 18.82049
37.57743 65.59031 30.09841
37.67308 63.5909 14.3695
37.29819 64.58631 16.2468
36.80571 65.3777 26.75661
36.83696 65.1715 23.4181
36.86287 64.9585 20.47701
36.3388 65.2865 31.6678
35.99067 65.6466 28.83869
35.47822 64.61079 33.60769
35.67757 64.90719 18.774
35.24655 65.1487 22.1329
35.29634 64.6714 16.2133
35.27063 63.68861 14.3282
34.34602 65.3487 30.81089
34.37063 65.0081 27.46449
34.41897 65.3747 25.04961
33.48773 64.7193 32.75681
33.6566 65.134 20.84669
33.67557 64.98981 18.74021
33.28879 64.41709 15.2715
32.77237 65.5708 29.1646
32.80757 65.5576 26.28081
32.3211 65.0617 31.13459
32.43207 65.34261 23.3427
31.89922 63.5615 26.75849
31.45637 64.30051 33.0658
31.65445 65.21331 20.81239
31.68947 64.97 17.01841
31.66466 63.78651 14.25579
30.7943 65.7254 27.4975
30.81976 65.50771 24.5741
30.29523 64.7555 31.4566
30.34801 65.32021 29.4826
29.91274 63.75231 25.91251
30.07062 65.109 18.67349
30.08577 64.5524 15.21769
29.42063 63.7899 33.36391
29.64427 65.3407 21.6172
29.20124 65.6489 26.2115
28.82104 65.5504 24.12041
28.32413 65.0539 29.80819
28.4578 65.2657 19.91251
28.4813 65.10641 17.38229
27.45388 64.17739 31.7229
27.56594 65.4401 27.7894
27.51378 63.70689 25.0165
27.63927 65.4684 22.00681
26.80696 65.70309 25.3389
26.86661 65.2239 18.61599
26.87875 64.6034 15.14579
25.92423 64.99201 28.9191
25.42667 63.7372 31.61509
25.62167 65.65531 23.6488
25.64138 65.42051 21.11921
25.17804 65.52041 26.509
25.11936 63.757 24.13541
25.27175 65.10441 17.30071
24.45302 65.3052 19.40469
23.51268 64.79301 28.41991
23.6064 65.6759 24.43179
23.63385 65.495 21.4992
23.67539 64.9516 15.97451
23.02277 63.59151 30.71201
22.36737 65.3647 26.00439
22.34622 64.1671 22.89079
22.45971 65.2433 18.0925
22.44062 63.8514 14.03059
21.46035 64.04379 29.08561
21.20976 65.67991 23.5475
21.24088 65.358 19.7517
20.58486 62.9538 30.56429
20.29629 64.4359 27.4615
20.31559 63.5414 22.3123
20.46315 64.8924 15.8802
20.02882 63.7514 13.9467
19.62435 65.43641 20.97479
19.64897 65.19161 18.01179
19.02084 63.3705 28.92731
19.17621 65.3179 24.2646
18.28164 64.14841 26.95359
18.33371 63.8279 21.4798
18.45064 64.64371 15.3574
18.02586 65.2415 19.64979
17.59668 65.41421 22.58389
16.9802 62.64921 28.7708
17.23733 64.9863 17.4921
16.69904 64.2865 25.69219
16.29376 63.00572 20.85949
16.43191 64.263 14.80541
15.94862 64.8319 23.68781
16.01298 65.09531 19.5719
15.03655 63.2993 26.3242
14.35357 64.38389 21.0672
14.41205 64.62869 17.3493
13.89957 64.03901 23.91769
13.03845 61.9345 20.1596
13.19121 63.71351 15.0283
12.58862 62.3402 25.69149
12.77383 64.36239 18.93221
11.92917 64.1306 21.37969
11.43632 62.86581 23.65591
11.56065 63.4995 16.2082
11.11634 62.14611 14.2228
10.51036 60.8316 25.3945
9.899762 62.5381 16.81669
9.033181 60.7395 14.72771
119.7206 16.3776 16.70919
118.2549 13.3253 18.81661
116.3247 12.04097 17.4232
115.5634 10.94198 19.32919
114.0255 9.891805 17.5651
112.0991 8.230296 18.1663
110.4234 8.977202 22.32949
110.1579 6.855903 18.7954
109.7476 7.329491 16.84509
108.8922 7.61911 21.72939
108.8259 8.646009 23.50619
108.5626 6.485609 19.9551
107.4171 5.663005 17.84061
106.9169 6.898192 22.43769
106.5959 5.659906 20.24631
105.454 4.827914 17.73511
105.2774 7.252184 24.5216
104.9907 5.479482 21.4286
104.8188 8.105394 26.28779
104.2531 4.470882 19.68539
103.3397 5.995212 23.9265
103.0806 4.224805 17.2621
103.0266 4.664389 21.31501
102.479 6.8036 26.0828
101.7972 4.914103 22.9595
101.334 7.119385 16.4247
101.0992 3.443388 19.1516
100.6499 4.662899 17.3209
100.4878 6.387589 26.83321
100.262 3.809807 21.19741
100.1701 5.09092 24.60091
99.84653 4.974005 15.3656
99.24607 6.868718 28.5472
99.09932 3.256021 19.52709
98.63777 3.935007 22.81919
98.53732 5.376396 26.26669
98.30446 3.403691 17.5603
97.48156 3.317801 20.7334
97.26496 6.320593 28.86669
96.99781 4.299579 24.88691
96.78431 7.530478 31.1296
96.27787 3.847418 17.222
96.24937 3.561316 22.76871
95.75804 4.744498 26.57519
95.47769 3.384409 19.9495
95.2796 5.855588 29.1996
94.63098 3.632811 23.98519
94.26249 3.958193 17.6371
94.20717 4.362491 22.09191
94.03044 6.474493 30.9474
92.99771 3.930119 25.6438
92.93188 4.827288 28.21651
92.64842 3.948001 18.8347
91.98701 6.933687 32.6812
91.83344 3.648189 22.3922
91.68677 5.371479 29.94099
91.43144 3.959683 20.43711
91.03281 4.325417 17.68871
90.98292 4.265604 24.49641
90.7294 7.70968 34.48461
90.56487 4.167197 27.3031
90.04214 5.878804 31.6717
89.81983 4.260508 19.2811
89.80907 3.989515 22.44791
89.71293 4.806784 29.4413
89.40243 4.987595 16.5748
89.37688 4.101095 25.68281
88.77274 6.821183 33.90759
88.69647 8.02621 35.7988
88.20795 4.566101 18.12351
88.18583 4.153279 23.68189
88.06953 5.291907 31.1629
87.79603 4.411397 20.5078
87.33268 4.699317 26.59531
86.93178 4.3914 28.56779
86.80197 6.200103 33.3855
86.65769 8.453784 37.1425
86.57221 4.492608 22.53081
86.18602 4.981426 17.3786
86.08497 4.932193 30.69779
85.75281 4.45309 24.94411
85.54407 6.98152 35.1913
85.37032 4.812089 20.1669
84.89923 5.006579 27.87089
84.82439 5.708096 32.88989
84.65603 8.297292 37.5368
84.55119 4.769114 22.5769
84.15513 5.568204 16.65209
83.68192 7.252303 14.84109
83.73051 4.754303 24.9981
83.68995 4.745988 30.267
83.56886 6.445406 34.6821
83.39904 9.118197 38.969
83.35003 5.075005 20.2072
82.95681 5.220888 18.21651
82.91641 4.612294 27.4052
82.83857 5.372194 32.4257
82.53006 5.047706 22.6234
82.06171 5.364296 29.1633
81.90931 7.231799 36.5009
81.66422 7.46688 14.8671
81.71021 5.016116 25.04581
81.3292 5.348591 20.24899
81.1881 5.988804 34.19231
81.03785 8.292702 38.38891
80.93412 5.649892 17.47009
80.89337 4.985896 27.06979
80.85918 5.034921 31.1463
80.10752 5.447892 21.88021
80.09855 5.318788 23.8834
79.92977 6.777701 36.00501
79.75531 9.53531 40.33831
79.68435 6.832389 15.60181
79.7198 5.609182 19.0777
79.63108 5.79801 29.24921
78.62486 8.326379 38.8273
78.49914 5.688993 20.7056
78.47198 5.424497 25.9323
78.42388 5.374608 32.4464
77.70208 6.123213 17.13079
77.67972 5.708305 22.7336
77.64877 5.273399 29.57179
77.56893 6.066201 34.6369
77.49692 7.129309 36.9179
76.84822 5.596397 27.1861
76.77673 6.414411 31.00869
76.42345 7.923719 14.92281
76.48683 6.039796 19.1405
76.45496 5.745289 25.17751
76.40345 5.577085 32.90401
76.18758 8.759317 39.77111
75.49537 7.032422 36.90881
75.27974 6.3422 17.565
75.25555 6.020216 22.7858
75.22704 5.719391 28.43559
75.14885 6.236193 35.09489
74.86132 6.186602 20.78269
74.81633 5.594311 30.45751
74.5238 9.681222 41.244
74.42901 5.932716 26.43511
73.84246 7.752118 38.31559
73.63376 6.154893 24.0296
73.56354 6.281314 32.23011
73.25535 6.805 16.8166
73.25526 6.383923 19.59689
73.20561 6.001589 28.49181
73.13624 6.348906 35.12789
72.96816 8.863893 40.23249
72.40921 6.185499 26.48331
72.38951 5.954114 30.533
72.10049 9.909389 41.7321
72.0268 6.42961 22.44779
71.96414 5.987225 33.41471
71.48282 7.018713 36.92791
71.24289 6.736395 18.02541
71.20798 6.435899 24.48711
71.18507 6.206093 28.944
70.81179 7.672784 15.7084
70.82446 6.640998 20.8545
70.58407 8.47399 39.7428
70.44945 10.65051 42.7563
70.36642 6.146905 31.39721
69.98648 6.528584 26.13859
69.54551 6.190178 33.4654
69.46021 7.261512 37.405
69.32171 9.393302 41.2128
69.22518 7.071582 17.2594
69.20277 6.712881 22.49619
68.81105 6.953505 19.68159
68.7879 6.669877 24.53031
68.76372 6.523488 28.5985
68.44779 10.55592 42.7479
68.34824 6.366787 31.44659
67.91441 6.498096 34.77119
67.79395 8.170274 39.27521
67.57221 8.293209 15.3776
67.59115 7.017223 21.32119
67.56277 6.707875 26.99441
67.07089 7.580606 32.91789
67.05984 7.177798 36.98531
66.79989 7.223604 18.5007
66.77248 6.959913 23.7634
66.53389 9.048698 40.73289
66.33212 6.670294 30.6879
66.04456 10.46601 42.7433
65.94134 6.834415 28.2519
65.57099 8.130011 15.7667
65.58141 7.259873 20.13609
65.55446 6.984202 25.407
65.50366 6.612001 34.39251
65.4109 7.821498 38.3788
64.78784 7.450578 17.71879
64.71425 6.665019 32.3419
64.52708 9.05129 40.746
64.36159 7.26032 22.17931
64.33468 7.0433 27.0607
64.31814 6.871191 30.32079
63.89278 9.777811 14.32531
63.6086 10.93271 43.29081
63.55593 8.293596 15.7876
63.56585 7.432011 20.16319
63.54295 7.200716 24.62751
63.48348 6.807891 34.8551
63.11599 7.08091 28.71561
63.01119 7.726488 37.95519
62.88016 9.715614 41.7475
62.36603 7.596103 18.55549
62.29735 7.019279 31.18041
61.93639 7.408289 23.4344
61.83083 7.954595 33.4283
61.54704 7.483718 21.3998
61.51577 7.289079 26.6998
61.45377 7.124213 35.7582
61.34588 8.61719 39.8297
61.22571 10.5204 42.78751
61.14971 8.199898 16.186
60.69719 7.288096 28.76019
60.32024 7.433412 24.6727
60.27761 7.146207 32.0389
59.94069 7.748691 19.80419
59.92781 7.568923 22.6438
59.85996 7.090089 34.51461
59.81255 7.622001 37.11709
59.70204 9.223607 40.8141
59.13937 8.273003 16.1965
58.83608 10.23552 42.3141
58.69671 7.477102 26.7397
58.32277 7.746694 21.4438
58.27778 7.445005 29.209
58.26153 7.203696 32.8864
58.15654 8.33678 38.9493
57.93064 7.876006 19.4158
57.90345 7.602302 24.70571
57.8362 7.292686 35.3954
57.69102 9.306488 40.84501
57.53671 8.03971 17.39411
57.06005 7.401881 31.27261
56.70524 7.799206 22.68511
56.68344 7.604626 26.7671
56.59178 7.814911 37.1747
56.31447 7.9025 20.6503
56.18448 8.483198 33.556
56.12781 8.694408 39.4578
56.03717 10.10039 41.8779
55.86517 7.596103 28.83121
55.51749 8.466092 16.22289
55.49055 7.760195 24.32561
55.11938 8.038905 18.62331
54.69712 7.889417 22.2923
54.64477 7.480589 31.7115
54.62684 7.391987 34.5999
54.57966 7.918087 37.2072
54.27238 7.725594 26.3824
54.11437 8.822498 39.49749
53.90513 7.991222 20.25701
53.85097 7.618604 29.66949
53.61853 10.3026 41.9388
53.50388 8.662608 15.8391
53.3848 8.362082 33.12899
53.11024 8.14828 18.231
53.08045 7.863012 23.9362
52.6104 7.516382 35.0506
52.29079 7.981685 21.4894
52.25779 7.755903 27.21891
52.16333 8.077797 37.2535
52.09749 9.017614 39.5516
51.83895 7.598904 30.5018
51.59883 10.5499 42.0073
51.49802 8.098689 19.4556
51.10398 8.264896 17.4294
51.06662 7.818219 25.1701
50.64008 7.747707 28.8765
50.61635 7.461695 33.8015
50.45165 9.660807 40.54539
50.27198 7.971403 23.1366
49.85164 7.7835 26.81831
49.7688 7.946101 36.4031
49.70859 8.779374 38.67289
49.48025 8.068201 21.0965
49.43018 7.614491 30.5143
49.08637 8.721885 15.84931
49.09236 8.117196 19.0517
48.97552 8.384016 32.31959
48.78966 10.61019 41.61349
48.25657 7.895199 24.7778
48.0642 9.39661 39.6574
47.84564 7.771519 26.82269
47.49104 8.224783 17.83811
47.46626 7.965204 22.7306
47.42755 7.661698 29.70171
47.40564 7.52571 33.41299
47.36199 7.985679 36.0058
47.04991 9.481815 14.70889
47.07471 8.084294 20.69239
46.5573 8.642402 31.96131
46.49618 8.875486 38.29101
46.40898 10.2176 40.6923
46.24762 7.817117 25.5962
45.82804 7.735906 28.47791
45.77475 7.827786 34.72941
45.4777 8.661297 15.84481
45.48204 8.149114 18.65089
45.46605 7.965294 21.9121
45.10643 11.89631 42.3512
45.05292 7.885304 23.9601
44.9051 8.791891 37.02119
44.84487 9.623823 39.3029
44.63556 7.762609 26.8316
44.6191 7.523505 30.51719
44.06002 10.34391 32.287
44.2088 7.38698 32.56971
43.88341 8.205679 17.4298
43.87119 8.072701 19.87469
43.56557 10.86411 40.8517
43.44336 7.783589 25.18609
43.05705 7.924882 22.323
43.02611 7.657704 28.06039
42.66399 8.809892 15.45419
42.56454 7.820484 34.7438
42.49398 8.789388 37.4541
42.2124 7.561413 30.1187
42.19984 7.431475 32.5871
41.80214 10.1954 13.9686
41.87035 8.023587 19.46041
41.47897 8.139399 17.4242
41.44438 7.760403 24.3627
41.03064 7.690785 26.41769
40.65536 7.868198 21.90809
40.61913 7.578192 28.46941
40.60976 7.32669 31.3278
40.26887 8.502987 15.8297
40.15629 7.887599 34.3512
40.08343 8.900699 37.06959
40.01212 10.00517 38.9892
39.80284 10.0559 13.9537
39.46412 7.930604 19.8625
39.44183 7.744519 23.9529
39.07713 8.023408 17.4122
39.033 7.580993 25.99271
38.6519 7.808206 21.90371
38.61867 7.461218 28.4563
38.60865 7.283 30.913
38.57248 7.663605 33.06371
38.25103 8.842883 15.0505
38.11863 8.353916 35.28979
37.63641 9.580192 37.6448
37.44404 7.637618 23.52929
37.06067 7.84522 19.8549
37.0196 7.1578 29.65249
36.67178 7.974473 17.40871
36.63282 7.494388 25.57269
36.62333 7.368711 27.6196
36.58615 7.462201 31.7855
36.25755 8.530227 15.42559
36.12557 8.220014 34.4356
35.8475 7.654218 22.2992
35.33185 8.977917 28.31121
35.25722 9.22021 36.3185
34.6634 7.764188 19.02589
34.63791 7.455406 24.33349
34.62554 7.323293 26.79101
34.58947 7.396308 30.9501
34.25827 8.389887 15.41039
34.21675 7.158992 28.83451
34.12803 8.1709 33.59869
33.84661 7.606504 21.88459
33.25358 10.34659 28.5508
33.2617 9.133515 35.46929
32.66859 7.783381 17.3891
32.63505 7.383523 24.3277
32.6253 7.26339 26.374
32.5659 7.657883 31.4223
32.25466 7.596312 20.2401
31.85602 8.281407 15.3992
31.81613 7.081298 28.41541
31.28155 8.816329 34.1557
31.2112 9.904799 36.0554
31.06152 7.634608 18.6033
31.04658 7.430521 21.86501
30.93449 8.898017 26.64571
30.63583 7.243005 24.3112
30.56982 7.580516 30.58389
30.2683 7.760195 16.5683
29.44936 7.460115 20.6375
29.3935 7.299272 28.87629
29.23336 9.545294 34.72799
28.58041 9.843406 13.52091
28.66242 7.588414 17.77929
28.641 7.2633 22.66981
28.63118 7.144598 24.7142
28.53904 7.979003 31.0808
28.25256 8.120802 15.3826
27.44832 7.415322 20.22341
27.26159 10.18828 26.03
27.3969 7.232097 28.04221
26.8412 9.431479 33.4536
26.63112 7.142482 23.89359
26.4989 8.556691 31.61259
26.22885 8.573798 14.61489
26.26078 7.529912 17.3642
25.44094 7.369605 20.63221
25.4094 7.113186 26.37179
25.36482 7.656721 28.53701
24.63179 7.125614 23.0709
24.47441 10.01471 24.33811
24.51367 8.334425 30.3259
24.44915 9.315488 32.18061
24.25388 7.659493 16.56149
23.79667 9.165403 13.8596
23.84274 7.417796 19.407
23.40272 7.176218 25.97439
23.0309 7.226286 21.8523
22.93979 7.982996 28.60159
22.45794 10.26639 23.96339
22.23977 7.988391 15.37099
21.7427 8.717087 22.90021
21.38983 9.144989 13.85809
21.43346 7.383195 19.81771
21.39114 7.332799 25.5913
21.28586 8.786884 29.58189
21.04276 7.547913 17.37219
20.5291 8.159217 27.8067
19.83266 7.912186 15.7744
19.82046 7.285891 21.4552
19.65091 10.349 23.1462
19.81442 7.094292 23.4904
19.43013 7.505176 18.6023
19.36987 7.613418 25.64199
18.85124 9.359178 29.2716
18.50712 8.515027 27.4559
18.20692 8.490679 14.6092
18.23137 7.651297 16.9771
17.81632 7.362214 20.6451
17.64049 10.54722 22.3431
17.80377 7.233796 23.10319
16.95666 7.838604 24.85441
16.79175 10.36781 29.4538
16.61317 7.592706 19.0296
16.47939 8.98051 27.1218
16.20862 8.208719 15.4008
15.62614 10.82089 21.54939
15.35838 9.372321 13.8849
15.40888 7.845488 17.41581
15.362 7.820395 23.6111
14.59108 7.767496 19.88119
14.17817 7.681487 21.9366
13.69809 10.5572 13.1869
13.69893 8.803097 24.59711
13.35828 9.124395 14.68369
13.38288 8.219001 17.4651
12.55841 8.330283 19.5471
12.51881 8.594689 22.9031
12.0054 10.36629 25.68269
11.52349 12.7249 20.56
11.33398 9.156195 16.7567
11.32324 8.681712 21.256
10.83295 10.01331 23.95371
10.49118 10.17678 15.2202
10.09456 9.465513 19.28729
9.79187 15.14968 20.8925
9.673458 10.15639 17.2967
9.193182 12.17529 14.19701
9.2282 10.3153 21.9087
125.9978 43.70278 15.84031
126.3928 34.41211 15.4765
126.1646 28.51638 16.17689
125.5136 37.82239 14.74659
124.582 48.50009 16.0854
124.9562 41.91932 14.67329
125.0435 39.8623 14.59371
124.4891 43.95818 14.48421
124.0071 46.00072 14.4767
124.4726 34.00761 14.54711
124.6155 29.89021 14.77779
124.703 25.359 15.8833
124.0045 36.04748 14.3695
123.0467 49.41719 14.7365
123.7584 31.9226 14.44
123.9059 27.455 14.7825
122.5228 51.496 15.2221
123.0631 40.12131 14.0824
123.1387 38.06871 14.144
122.5136 44.20951 13.9156
122.5894 42.15702 13.97611
121.616 53.55802 15.47721
122.0334 46.24781 13.88851
122.5098 33.58912 14.145
122.652 29.82619 14.2138
121.5521 48.28831 13.8723
122.4284 25.01142 14.34089
121.0665 50.33359 13.9064
121.5976 36.63429 13.99541
120.358 55.23479 15.29269
121.0436 40.72189 13.8842
121.5464 27.73309 13.97729
121.7227 20.0651 15.5033
120.9749 32.15861 13.9184
120.4939 34.19149 13.90159
119.0848 56.9266 15.28591
119.3858 52.3307 13.8157
119.5696 47.86232 13.7144
119.7541 43.06709 13.7625
120.5483 21.83938 14.2507
119.2755 45.1048 13.71561
119.536 38.26058 13.81861
119.6168 36.2091 13.81591
119.8403 30.3978 13.87571
120.0096 25.95129 13.9416
120.0869 23.8963 13.98441
120.207 18.6522 15.0339
119.0561 40.29652 13.7883
119.532 27.98709 13.8822
118.1133 54.00681 13.80721
118.2799 50.2128 13.5939
117.4252 58.59199 15.0961
117.6088 56.07959 14.05881
118.4784 34.4474 13.8208
117.5958 47.43239 13.4528
118.1694 32.03588 13.83729
117.4002 41.59921 13.72631
117.8463 29.96531 13.8616
117.9798 26.54519 13.872
118.0692 24.50099 13.76179
118.2618 18.63432 14.2244
118.2615 14.61601 16.15711
116.5861 52.55249 13.49789
116.9195 43.63823 13.703
117.1278 38.15901 13.78959
117.2061 36.10518 13.81911
117.803 20.7026 13.9212
115.6334 61.4126 15.96621
116.4504 45.67489 13.54119
115.407 59.86359 14.5596
115.5504 57.7186 13.83729
115.9497 48.73481 13.2726
116.4974 34.02218 13.6449
115.3122 54.2297 13.5064
115.4715 50.7749 13.219
116.17 31.6019 13.8891
116.319 27.83829 13.8762
116.5582 22.38661 13.5709
116.7308 16.48089 14.2976
115.4353 40.14679 13.8472
116.2754 18.56202 13.94549
116.3479 13.18359 15.6408
114.8529 44.252 14.07449
114.9367 42.19019 14.0399
115.1478 36.69971 14.0976
115.6693 24.74969 13.4639
114.3994 46.96351 13.39689
115.0228 29.4795 14.17419
113.3725 61.15159 14.2141
113.7867 52.44019 13.3367
113.9124 49.00962 13.44781
114.462 33.57729 14.1419
115.0377 20.26018 13.50281
113.0767 58.6974 14.0909
113.1924 56.58671 13.69059
113.3049 54.48931 13.3234
114.8046 14.3086 14.2905
114.782 11.30679 16.0072
113.3827 40.75101 14.0515
113.4603 38.6905 14.09261
113.9771 26.36802 13.69479
114.1114 22.94391 13.6977
114.3459 16.39411 13.9769
112.8626 43.8269 14.0121
113.887 18.4693 13.67019
111.6984 62.5051 14.3517
112.2578 50.98968 13.04661
112.3944 46.5466 13.50939
112.9356 31.44738 14.14721
111.7709 53.03961 13.09359
111.911 48.5931 13.5169
112.3766 35.54949 14.0902
112.4545 33.4891 14.12781
112.665 27.99561 14.19349
112.839 24.59878 13.69791
111.0799 59.27869 13.62421
111.1827 57.18159 13.375
111.2821 55.09519 13.1627
112.6459 20.1627 13.2717
112.8122 14.22929 14.0879
112.8596 11.35212 14.8896
111.3322 41.69988 14.0643
112.3374 16.2912 13.98219
111.0244 39.2768 14.0713
111.1031 37.21469 14.09951
111.7222 22.84878 13.4335
109.7605 62.0185 13.6788
110.2614 50.57239 13.0545
110.3578 46.81828 13.67821
111.6656 9.058204 15.8283
109.1908 64.53979 14.51179
109.7842 52.61621 12.98621
110.0634 43.37069 14.0148
110.5393 30.99617 14.1407
110.6172 28.93382 14.17889
110.7788 25.8758 13.6732
111.1051 18.36711 13.291
111.2562 12.75548 14.13921
109.1033 58.84349 13.3988
109.2084 56.7457 13.1225
109.2968 54.67039 13.0391
109.976 35.1009 14.1349
110.0556 33.03861 14.1533
110.7793 14.8201 14.05729
109.083 48.83152 13.5369
110.2009 20.71962 13.37621
108.9757 40.22517 14.06281
109.7145 22.75249 13.42469
108.6649 37.80019 14.10781
109.5496 16.9087 13.3287
107.3168 62.97201 13.5766
107.3972 60.889 13.594
107.8375 50.82652 13.04691
107.9355 46.39098 13.97881
108.0165 44.32308 13.98179
108.7515 25.7656 13.91131
109.3258 9.812591 14.55341
107.2823 54.93658 12.93969
107.7058 41.8967 14.02541
108.168 29.85549 14.16029
108.2496 27.79349 14.1525
108.65 19.27021 13.3525
108.8467 12.62968 14.13749
107.6057 33.9643 14.13999
107.6869 31.90121 14.1381
108.1678 21.30961 13.34821
108.3749 15.07041 13.81309
106.0246 64.6999 13.7849
106.3656 57.67372 12.99249
106.567 52.5015 13.0146
106.6729 48.06438 13.8506
107.1242 36.0113 14.12371
107.6558 23.31829 13.72279
108.1347 7.131276 15.6422
106.5674 40.12549 14.03461
106.6456 38.05983 14.07009
107.5275 17.15007 13.3355
107.3266 10.4689 14.08
104.9105 62.888 13.51699
105.021 60.7673 13.18499
105.4425 49.71951 13.339
105.5265 46.2968 13.9561
105.6009 44.229 14.03899
105.6813 42.16018 14.0501
106.1862 29.0761 14.16381
106.2694 27.01348 14.13721
106.6299 19.5159 13.3322
104.8808 54.5099 12.98511
105.6244 33.18819 14.13721
105.7046 31.12298 14.14751
106.4441 13.2533 13.69189
104.0176 64.9626 13.5956
104.359 57.6021 12.9593
105.1423 35.2363 14.12649
105.5345 24.90008 14.29649
105.7395 21.52961 13.4111
105.9733 15.68922 13.35809
106.1746 6.738482 15.19561
104.1405 51.41911 13.68029
104.5837 39.3534 14.05799
104.6602 37.2858 14.1152
103.8403 48.3061 13.92579
105.0949 17.72228 13.281
102.9864 61.39281 13.1586
103.0829 59.2944 12.9879
103.2212 55.83259 12.9604
103.5445 45.52829 13.95641
103.6228 43.4581 13.99401
104.1924 28.6408 14.14819
104.4447 23.16612 13.6949
104.8912 11.0394 14.06081
104.9728 8.947906 14.0679
103.6275 32.75448 14.1591
104.4139 13.1123 13.9809
102.5075 53.3913 13.01859
103.1104 35.83949 14.0788
103.4846 26.1938 14.13789
103.8181 19.3761 13.33681
101.6818 63.13279 13.51289
102.1398 50.66588 13.90229
102.4964 41.33969 14.0225
102.5865 38.92511 14.0809
102.9204 30.30827 14.13891
103.3049 21.38531 13.7251
103.5685 15.5732 13.29461
103.7666 6.609706 15.1771
101.543 57.509 12.99229
101.8562 47.53932 13.95151
102.3842 23.37658 14.1837
102.6825 17.59767 13.3146
100.2946 66.9841 13.8616
100.4127 64.8319 13.45231
100.6249 60.26101 13.05361
100.8399 54.72099 13.0869
101.5685 34.0462 14.1111
101.8234 27.49678 14.14141
102.4943 10.93411 13.8966
102.5639 8.81922 14.0615
100.7564 44.7281 13.98821
100.8368 42.65532 14.00079
101.0846 36.09758 14.1214
101.2599 31.61469 14.1317
102.0484 13.42669 13.2312
100.0649 52.32301 13.873
100.1478 50.24302 13.86
100.5641 39.18662 14.08099
101.2718 21.2605 14.0408
101.8232 5.488185 14.87641
99.34326 61.9688 13.14281
99.83477 47.80802 13.93621
100.9753 19.19859 13.73629
101.1414 15.78963 13.34409
99.13495 57.42308 12.9537
100.2965 25.35221 14.15871
100.3784 23.28279 14.15171
98.80514 55.00689 13.2267
99.2931 40.8636 14.05489
99.42233 37.4096 14.134
99.73097 29.47172 14.174
99.81259 27.4024 14.1703
97.91503 66.5323 13.6514
98.01531 64.4065 13.4469
98.20132 60.1959 13.19611
98.69514 46.03228 13.9624
99.17062 33.59562 14.1239
99.24918 31.52412 14.15861
99.84736 17.4247 13.6196
100.035 12.2064 13.8319
98.38587 43.59561 13.9935
99.26538 20.80419 14.19051
99.7137 9.720203 14.03439
99.79685 7.622895 14.02549
97.61665 53.27397 13.82871
97.69586 51.19392 13.86011
97.77405 49.11589 13.9018
97.89761 35.2692 14.1232
98.29982 24.9109 14.182
98.3822 22.83981 14.1702
98.77537 14.26771 13.48199
96.476 62.60981 13.44921
96.67154 57.39501 13.5639
96.73768 55.32419 13.75
97.41649 37.32502 14.0976
97.73626 29.03539 14.17059
97.81934 26.96541 14.1494
96.16584 60.16029 13.4978
96.68588 45.9544 13.9644
96.85575 41.45679 14.04829
96.93365 39.3821 14.09261
97.175 33.16211 14.1301
97.25293 31.0888 14.1727
97.8087 17.2832 14.01131
98.21339 6.062982 14.4538
95.56317 65.37981 13.4391
96.375 43.5163 14.0163
97.27348 20.3633 14.15491
97.65449 11.75868 13.63091
97.7688 4.4125 15.7606
95.60927 53.20042 13.8059
