194.8534 94.51059 68.81199
195.0122 100 68.81199
195.7884 105.5435 71.82453
194.4451 116.9193 71.82453
191.6244 128.48 71.82453
187.2386 139.9445 71.82453
181.2717 151.0005 71.82453
173.791 161.3273 71.82453
164.9491 170.624 71.82453
149.6519 182.1026 71.82453
138.5272 187.8738 71.82453
121.2471 193.5666 71.82453
115.4819 194.6914 71.82453
104.1468 195.859 71.82453
104.1468 4.141001 71.82453
115.4819 5.308642 71.82453
121.2471 6.433418 71.82453
138.5272 12.12624 71.82453
149.6519 17.89743 71.82453
160.0869 25.19557 71.82453
169.5275 33.87836 71.82453
177.713 43.72534 71.82453
184.4506 54.45624 71.82453
189.63 65.75671 71.82453
193.2264 77.30689 71.82453
195.2936 88.80752 71.82453
196.1226 111.2898 74.84072
194.0374 122.8905 74.84072
190.4097 134.5412 74.84072
185.1853 145.9399 74.84072
178.389 156.7642 74.84072
170.1323 166.6968 74.84072
160.6096 175.4552 74.84072
155.4536 179.3215 74.84072
144.5398 185.9256 74.84072
133.0921 190.9501 74.84072
127.2691 192.8623 74.84072
109.8568 196.2801 74.84072
98.61342 196.7734 74.84072
92.99267 196.5293 74.84072
87.2722 195.9428 74.84072
81.48066 194.995 74.84072
75.65001 193.6701 74.84072
69.81521 191.9559 74.84072
64.01369 189.8443 74.84072
58.28477 187.3318 74.84072
52.66892 184.4203 74.84072
47.20699 181.1166 74.84072
41.93922 177.4336 74.84072
36.9044 173.3891 74.84072
32.13891 169.0064 74.84072
27.67591 164.3136 74.84072
23.5445 159.3428 74.84072
19.76918 154.1297 74.84072
16.3693 148.7126 74.84072
13.35881 143.1314 74.84072
10.74622 137.4269 74.84072
8.534519 131.6398 74.84072
6.721547 125.8097 74.84072
5.300349 119.9747 74.84072
4.259645 114.1702 74.84072
3.584443 108.4292 74.84072
3.256655 102.781 74.84072
3.256655 97.21902 74.84072
3.584443 91.57084 74.84072
4.259645 85.82978 74.84072
5.300349 80.02535 74.84072
6.721547 74.19028 74.84072
8.534519 68.3602 74.84072
10.74622 62.57308 74.84072
13.35881 56.86861 74.84072
16.3693 51.28742 74.84072
19.76918 45.8703 74.84072
23.5445 40.65721 74.84072
27.67591 35.68642 74.84072
32.13891 30.99359 74.84072
36.9044 26.61093 74.84072
41.93922 22.56644 74.84072
47.20699 18.88336 74.84072
52.66892 15.57974 74.84072
58.28477 12.66816 74.84072
64.01369 10.15571 74.84072
69.81521 8.044092 74.84072
75.65001 6.329885 74.84072
81.48066 5.00503 74.84072
87.2722 4.057227 74.84072
92.99267 3.470688 74.84072
98.61342 3.226607 74.84072
109.8568 3.719917 74.84072
127.2691 7.137707 74.84072
133.0921 9.049898 74.84072
144.5398 14.07438 74.84072
155.4536 20.67847 74.84072
165.5142 28.76165 74.84072
174.4329 38.13923 74.84072
181.9787 48.55582 74.84072
187.9975 59.70799 74.84072
192.4215 71.27229 74.84072
195.2667 82.93351 74.84072
196.6216 94.40825 74.84072
196.7833 100 74.84072
197.3545 105.6342 77.8558
195.9892 117.1959 77.8558
193.1224 128.9456 77.8558
188.6649 140.5976 77.8558
182.6005 151.8343 77.8558
174.9974 162.3299 77.8558
166.0111 171.7787 77.8558
150.4637 183.4449 77.8558
139.1571 189.3104 77.8558
121.5944 195.0963 77.8558
115.7351 196.2395 77.8558
104.2146 197.4262 77.8558
104.2146 2.573764 77.8558
115.7351 3.760493 77.8558
121.5944 4.903665 77.8558
139.1571 10.68956 77.8558
150.4637 16.5551 77.8558
161.0693 23.97257 77.8558
170.6642 32.79731 77.8558
178.9835 42.80529 77.8558
185.8314 53.71163 77.8558
191.0954 65.19686 77.8558
194.7506 76.93587 77.8558
196.8516 88.62453 77.8558
197.4821 111.4495 80.86515
195.3675 123.2143 80.86515
191.6885 135.0297 80.86515
186.3901 146.5897 80.86515
179.4977 157.5671 80.86515
171.1243 167.6402 80.86515
161.4669 176.5224 80.86515
156.238 180.4435 80.86515
145.1698 187.141 80.86515
133.5602 192.2365 80.86515
127.6549 194.1757 80.86515
109.9962 197.6419 80.86515
98.59381 198.1421 80.86515
92.89356 197.8946 80.86515
87.09218 197.2998 80.86515
81.21872 196.3386 80.86515
75.30561 194.995 80.86515
69.38828 193.2565 80.86515
63.5047 191.115 80.86515
57.69475 188.5671 80.86515
51.99947 185.6143 80.86515
46.46029 182.2639 80.86515
41.11801 178.5288 80.86515
36.01198 174.4271 80.86515
31.17909 169.9824 80.86515
26.65296 165.2232 80.86515
22.46312 160.1821 80.86515
18.63439 154.8953 80.86515
15.18642 149.4016 80.86515
12.13337 143.7414 80.86515
9.48382 137.9563 80.86515
7.240838 132.0873 80.86515
5.402228 126.1748 80.86515
3.960921 120.2572 80.86515
2.905502 114.3706 80.86515
2.220748 108.5484 80.86515
1.888311 102.8203 80.86515
1.888311 97.17969 80.86515
2.220748 91.45162 80.86515
2.905502 85.62936 80.86515
3.960921 79.74283 80.86515
5.402228 73.82523 80.86515
7.240838 67.91269 80.86515
9.48382 62.04372 80.86515
12.13337 56.25856 80.86515
15.18642 50.59843 80.86515
18.63439 45.10469 80.86515
22.46312 39.81786 80.86515
26.65296 34.77678 80.86515
31.17909 30.01758 80.86515
36.01198 25.57292 80.86515
41.11801 21.47122 80.86515
46.46029 17.73605 80.86515
51.99947 14.38571 80.86515
57.69475 11.43294 80.86515
63.5047 8.884957 80.86515
69.38828 6.743467 80.86515
75.30561 5.00503 80.86515
81.21872 3.661423 80.86515
87.09218 2.700231 80.86515
92.89356 2.105376 80.86515
98.59381 1.85786 80.86515
109.9962 2.358137 80.86515
127.6549 5.824274 80.86515
133.5602 7.763496 80.86515
145.1698 12.85904 80.86515
156.238 19.55655 80.86515
166.4408 27.75404 80.86515
175.4857 37.26427 80.86515
183.1382 47.8282 80.86515
189.2422 59.1381 80.86515
193.7287 70.86597 80.86515
196.6141 82.69212 80.86515
197.9883 94.32916 80.86515
198.1522 100 80.86515
198.5248 105.7019 83.86436
197.1431 117.4026 83.86436
194.2419 129.2935 83.86436
189.7308 141.0856 83.86436
183.5934 152.4574 83.86436
175.899 163.0792 83.86436
166.8046 172.6415 83.86436
151.0703 184.448 83.86436
139.6278 190.384 83.86436
121.854 196.2395 83.86436
115.9242 197.3964 83.86436
104.2652 198.5974 83.86436
104.2652 1.402585 83.86436
115.9242 2.603589 83.86436
121.854 3.760493 83.86436
139.6278 9.615948 83.86436
151.0703 15.552 83.86436
161.8035 23.05863 83.86436
171.5137 31.98946 83.86436
179.933 42.11774 83.86436
186.8631 53.15519 83.86436
192.1905 64.77848 83.86436
195.8896 76.65861 83.86436
198.0159 88.48779 83.86436
198.4547 111.5638 86.84918
196.319 123.4459 86.84918
192.6033 135.3792 86.84918
187.2521 147.0546 86.84918
180.2909 158.1414 86.84918
171.8339 168.3151 86.84918
162.0802 177.2859 86.84918
156.7991 181.2461 86.84918
145.6205 188.0104 86.84918
133.895 193.1568 86.84918
127.9308 195.1153 86.84918
110.096 198.6161 86.84918
98.57978 199.1213 86.84918
92.82266 198.8713 86.84918
86.96339 198.2706 86.84918
81.03133 197.2998 86.84918
75.05923 195.9428 86.84918
69.08286 194.187 86.84918
63.14058 192.0241 86.84918
57.27266 189.4507 86.84918
51.52056 186.4685 86.84918
45.9261 183.0847 86.84918
40.53053 179.3123 86.84918
35.37355 175.1697 86.84918
30.49245 170.6807 86.84918
25.92116 165.874 86.84918
21.6895 160.7826 86.84918
17.82258 155.443 86.84918
14.34021 149.8945 86.84918
11.25671 144.1779 86.84918
8.58072 138.335 86.84918
6.315364 132.4075 86.84918
4.458396 126.4359 86.84918
3.002724 120.4593 86.84918
1.936762 114.514 86.84918
1.245177 108.6337 86.84918
0.9094164 102.8485 86.84918
0.9094164 97.15155 86.84918
1.245177 91.36634 86.84918
1.936762 85.48598 86.84918
3.002724 79.54071 86.84918
4.458396 73.56408 86.84918
6.315364 67.59255 86.84918
8.58072 61.66502 86.84918
11.25671 55.82214 86.84918
14.34021 50.10554 86.84918
17.82258 44.55698 86.84918
21.6895 39.21741 86.84918
25.92116 34.12602 86.84918
30.49245 29.31934 86.84918
35.37355 24.83034 86.84918
40.53053 20.68772 86.84918
45.9261 16.91528 86.84918
51.52056 13.53151 86.84918
57.27266 10.54929 86.84918
63.14058 7.975882 86.84918
69.08286 5.813016 86.84918
75.05923 4.057227 86.84918
81.03133 2.700231 86.84918
86.96339 1.729442 86.84918
92.82266 1.128665 86.84918
98.57978 0.8786678 86.84918
110.096 1.383944 86.84918
127.9308 4.884659 86.84918
133.895 6.84323 86.84918
145.6205 11.98961 86.84918
156.7991 18.75394 86.84918
167.1037 27.03322 86.84918
176.2388 36.63834 86.84918
183.9677 47.30767 86.84918
190.1325 58.73041 86.84918
194.6638 70.57529 86.84918
197.5781 82.51944 86.84918
198.9659 94.27258 86.84918
199.1315 100 86.84918
199.5709 105.7624 92.75978
199.0566 111.6345 92.75978
198.1747 117.5874 92.75978
196.9078 123.5892 92.75978
195.2426 129.6046 92.75978
193.1694 135.5955 92.75978
190.6836 141.5219 92.75978
187.7855 147.3422 92.75978
184.481 153.0145 92.75978
180.7818 158.4969 92.75978
176.7049 163.749 92.75978
172.273 168.7327 92.75978
167.5139 173.4129 92.75978
162.4597 177.7584 92.75978
157.1463 181.7428 92.75978
151.6126 185.3447 92.75978
145.8994 188.5484 92.75978
140.0486 191.3438 92.75978
134.1022 193.7263 92.75978
128.1015 195.6968 92.75978
122.0861 197.2614 92.75978
116.0933 198.4306 92.75978
110.1577 199.219 92.75978
104.3105 199.6444 92.75978
98.5711 199.7273 92.75978
92.77878 199.4758 92.75978
86.88369 198.8713 92.75978
80.91537 197.8946 92.75978
74.90675 196.5293 92.75978
68.89385 194.7628 92.75978
62.91523 192.5867 92.75978
57.01144 189.9976 92.75978
51.22418 186.9971 92.75978
45.59552 183.5926 92.75978
40.16696 179.7972 92.75978
34.97846 175.6292 92.75978
30.06751 171.1128 92.75978
25.46827 166.2767 92.75978
21.21076 161.1542 92.75978
17.32019 155.782 92.75978
13.81653 150.1995 92.75978
10.71417 144.4479 92.75978
8.021822 138.5693 92.75978
5.742608 132.6056 92.75978
3.874301 126.5975 92.75978
2.409725 120.5844 92.75978
1.337244 114.6028 92.75978
0.6414339 108.6864 92.75978
0.3036246 102.8659 92.75978
0.3036246 97.13413 92.75978
0.6414339 91.31355 92.75978
1.337244 85.39725 92.75978
2.409725 79.41563 92.75978
3.874301 73.40246 92.75978
5.742608 67.39442 92.75978
8.021822 61.43066 92.75978
10.71417 55.55206 92.75978
13.81653 49.80051 92.75978
17.32019 44.21803 92.75978
21.21076 38.84581 92.75978
25.46827 33.7233 92.75978
30.06751 28.88723 92.75978
34.97846 24.37079 92.75978
40.16696 20.20284 92.75978
45.59552 16.40735 92.75978
51.22418 13.00288 92.75978
57.01144 10.00243 92.75978
62.91523 7.413289 92.75978
68.89385 5.237213 92.75978
74.90675 3.470688 92.75978
80.91537 2.105376 92.75978
86.88369 1.128665 92.75978
92.77878 0.5242064 92.75978
98.5711 0.2726823 92.75978
104.3105 0.3556371 92.75978
110.1577 0.7810354 92.75978
116.0933 1.569389 92.75978
122.0861 2.738579 92.75978
128.1015 4.303171 92.75978
134.1022 6.273723 92.75978
140.0486 8.656209 92.75978
145.8994 11.45156 92.75978
151.6126 14.65529 92.75978
157.1463 18.25724 92.75978
162.4597 22.24164 92.75978
167.5139 26.58714 92.75978
172.273 31.26729 92.75978
176.7049 36.25098 92.75978
180.7818 41.50312 92.75978
184.481 46.98553 92.75978
187.7855 52.65777 92.75978
190.6836 58.4781 92.75978
193.1694 64.40448 92.75978
195.2426 70.3954 92.75978
196.9078 76.41076 92.75978
198.1747 82.41257 92.75978
199.0566 88.36554 92.75978
199.5709 94.23757 92.75978
199.7375 100 92.75978
199.8227 105.777 98.56734
199.3071 111.6639 98.56734
198.4229 117.6319 98.56734
197.1529 123.6489 98.56734
195.4834 129.6795 98.56734
193.405 135.6855 98.56734
190.9129 141.6269 98.56734
188.0075 147.4619 98.56734
184.6946 153.1485 98.56734
180.986 158.6448 98.56734
176.8988 163.9102 98.56734
172.4558 168.9065 98.56734
167.6846 173.5985 98.56734
162.6176 177.955 98.56734
157.2908 181.9494 98.56734
151.7431 185.5605 98.56734
146.0155 188.7723 98.56734
140.1499 191.5748 98.56734
134.1885 193.9633 98.56734
128.1726 195.9388 98.56734
122.1419 197.5073 98.56734
116.134 198.6795 98.56734
110.1834 199.4698 98.56734
104.3214 199.8963 98.56734
98.56749 199.9795 98.56734
92.76052 199.7273 98.56734
86.85053 199.1213 98.56734
80.86711 198.1421 98.56734
74.8433 196.7734 98.56734
68.8152 195.0024 98.56734
62.82147 192.8208 98.56734
56.90274 190.2251 98.56734
51.10085 187.2171 98.56734
45.45796 183.804 98.56734
40.01567 179.9989 98.56734
34.81405 175.8204 98.56734
29.89068 171.2926 98.56734
25.27983 166.4443 98.56734
21.01154 161.3088 98.56734
17.11114 155.923 98.56734
13.59862 150.3264 98.56734
10.48841 144.5603 98.56734
7.78926 138.6669 98.56734
5.504279 132.688 98.56734
3.631248 126.6648 98.56734
2.162954 120.6364 98.56734
1.087783 114.6397 98.56734
0.3902152 108.7084 98.56734
0.05154908 102.8731 98.56734
0.05154908 97.12689 98.56734
0.3902152 91.29158 98.56734
1.087783 85.36032 98.56734
2.162954 79.36359 98.56734
3.631248 73.33521 98.56734
5.504279 67.31198 98.56734
7.78926 61.33313 98.56734
10.48841 55.43967 98.56734
13.59862 49.67358 98.56734
17.11114 44.07699 98.56734
21.01154 38.69119 98.56734
25.27983 33.55572 98.56734
29.89068 28.70742 98.56734
34.81405 24.17956 98.56734
40.01567 20.00107 98.56734
45.45796 16.19597 98.56734
51.10085 12.78291 98.56734
56.90274 9.774869 98.56734
62.82147 7.179177 98.56734
68.8152 4.997595 98.56734
74.8433 3.226607 98.56734
80.86711 1.85786 98.56734
86.85053 0.8786678 98.56734
92.76052 0.2726823 98.56734
98.56749 0.02052486 98.56734
104.3214 0.1036882 98.56734
110.1834 0.5301669 98.56734
116.134 1.32051 98.56734
122.1419 2.492657 98.56734
128.1726 4.061206 98.56734
134.1885 6.036727 98.56734
140.1499 8.425241 98.56734
146.0155 11.22767 98.56734
151.7431 14.4395 98.56734
157.2908 18.05056 98.56734
162.6176 22.04502 98.56734
167.6846 26.40152 98.56734
172.4558 31.09351 98.56734
176.8988 36.08978 98.56734
180.986 41.35521 98.56734
184.6946 46.85148 98.56734
188.0075 52.53806 98.56734
190.9129 58.37312 98.56734
193.405 64.31448 98.56734
195.4834 70.32055 98.56734
197.1529 76.35112 98.56734
198.4229 82.3681 98.56734
199.3071 88.33613 98.56734
199.8227 94.223 98.56734
199.9897 100 98.56734
98.56868 199.8963 104.3219
92.76655 199.6444 104.3219
86.86147 199.0389 104.3219
80.88303 198.0605 104.3219
74.86423 196.6929 104.3219
68.84114 194.9234 104.3219
62.85239 192.7436 104.3219
56.93859 190.1501 104.3219
51.14153 187.1445 104.3219
45.50333 183.7343 104.3219
40.06557 179.9324 104.3219
34.86827 175.7574 104.3219
29.94902 171.2333 104.3219
25.34197 166.389 104.3219
21.07724 161.2578 104.3219
17.18008 155.8765 104.3219
13.67049 150.2846 104.3219
10.56287 144.5233 104.3219
7.865956 138.6347 104.3219
5.582875 132.6608 104.3219
3.711408 126.6426 104.3219
2.244337 120.6193 104.3219
1.170053 114.6275 104.3219
0.4730657 108.7012 104.3219
0.1346901 102.8707 104.3219
0.1346901 97.12928 104.3219
0.4730657 91.29883 104.3219
1.170053 85.3725 104.3219
2.244337 79.38075 104.3219
3.711408 73.35739 104.3219
5.582875 67.33917 104.3219
7.865956 61.3653 104.3219
10.56287 55.47673 104.3219
13.67049 49.71544 104.3219
17.18008 44.1235 104.3219
21.07724 38.74218 104.3219
25.34197 33.61099 104.3219
29.94902 28.76673 104.3219
34.86827 24.24263 104.3219
40.06557 20.06762 104.3219
45.50333 16.2657 104.3219
51.14153 12.85546 104.3219
56.93859 9.849919 104.3219
62.85239 7.256395 104.3219
68.84114 5.076631 104.3219
74.86423 3.30711 104.3219
80.88303 1.939496 104.3219
86.86147 0.9611234 104.3219
92.76655 0.3556371 104.3219
98.56868 0.1036882 104.3219
199.5709 105.7624 107.2402
199.0566 111.6345 107.2402
198.1747 117.5874 107.2402
196.9078 123.5892 107.2402
195.2426 129.6046 107.2402
193.1694 135.5955 107.2402
190.6836 141.5219 107.2402
187.7855 147.3422 107.2402
184.481 153.0145 107.2402
180.7818 158.4969 107.2402
176.7049 163.749 107.2402
172.273 168.7327 107.2402
167.5139 173.4129 107.2402
162.4597 177.7584 107.2402
157.1463 181.7428 107.2402
151.6126 185.3447 107.2402
145.8994 188.5484 107.2402
140.0486 191.3438 107.2402
134.1022 193.7263 107.2402
128.1015 195.6968 107.2402
122.0861 197.2614 107.2402
116.0933 198.4306 107.2402
110.1577 199.219 107.2402
104.3105 199.6444 107.2402
104.3105 0.3556371 107.2402
110.1577 0.7810354 107.2402
116.0933 1.569389 107.2402
122.0861 2.738579 107.2402
128.1015 4.303171 107.2402
134.1022 6.273723 107.2402
140.0486 8.656209 107.2402
145.8994 11.45156 107.2402
151.6126 14.65529 107.2402
157.1463 18.25724 107.2402
162.4597 22.24164 107.2402
167.5139 26.58714 107.2402
172.273 31.26729 107.2402
176.7049 36.25098 107.2402
180.7818 41.50312 107.2402
184.481 46.98553 107.2402
187.7855 52.65777 107.2402
190.6836 58.4781 107.2402
193.1694 64.40448 107.2402
195.2426 70.3954 107.2402
196.9078 76.41076 107.2402
198.1747 82.41257 107.2402
199.0566 88.36554 107.2402
199.5709 94.23757 107.2402
199.7375 100 107.2402
98.57479 199.4698 110.1844
92.79743 199.219 110.1844
86.91756 198.6161 110.1844
80.96464 197.6419 110.1844
74.97154 196.2801 110.1844
68.97416 194.5181 110.1844
63.01099 192.3477 110.1844
57.12243 189.7652 110.1844
51.35012 186.7725 110.1844
45.73599 183.3768 110.1844
40.32144 179.5911 110.1844
35.14634 175.4339 110.1844
30.24807 170.9292 110.1844
25.66071 166.1056 110.1844
21.41417 160.9963 110.1844
17.53367 155.6379 110.1844
14.03905 150.0699 110.1844
10.9447 144.3332 110.1844
8.259302 138.4698 110.1844
5.985966 132.5214 110.1844
4.122487 126.5289 110.1844
2.661689 120.5312 110.1844
1.591986 114.5651 110.1844
0.8979723 108.664 110.1844
0.5610421 102.8585 110.1844
0.5610421 97.14153 110.1844
0.8979723 91.33597 110.1844
1.591986 85.43495 110.1844
2.661689 79.46878 110.1844
4.122487 73.47113 110.1844
5.985966 67.47861 110.1844
8.259302 61.53024 110.1844
10.9447 55.66682 110.1844
14.03905 49.93012 110.1844
17.53367 44.36205 110.1844
21.41417 39.00371 110.1844
25.66071 33.89442 110.1844
30.24807 29.07084 110.1844
35.14634 24.56605 110.1844
40.32144 20.40887 110.1844
45.73599 16.62317 110.1844
51.35012 13.2275 110.1844
57.12243 10.23479 110.1844
63.01099 7.652341 110.1844
68.97416 5.481882 110.1844
74.97154 3.719917 110.1844
80.96464 2.358137 110.1844
86.91756 1.383944 110.1844
92.79743 0.7810354 110.1844
98.57479 0.5301669 110.1844
198.4547 111.5638 113.1508
196.319 123.4459 113.1508
192.6033 135.3792 113.1508
187.2521 147.0546 113.1508
180.2909 158.1414 113.1508
171.8339 168.3151 113.1508
162.0802 177.2859 113.1508
156.7991 181.2461 113.1508
145.6205 188.0104 113.1508
133.895 193.1568 113.1508
127.9308 195.1153 113.1508
115.9955 197.8325 113.1508
104.2843 199.0389 113.1508
104.2843 0.9611234 113.1508
115.9955 2.167492 113.1508
127.9308 4.884659 113.1508
133.895 6.84323 113.1508
145.6205 11.98961 113.1508
156.7991 18.75394 113.1508
167.1037 27.03322 113.1508
176.2388 36.63834 113.1508
183.9677 47.30767 113.1508
190.1325 58.73041 113.1508
194.6638 70.57529 113.1508
197.5781 82.51944 113.1508
198.9659 94.27258 113.1508
199.1315 100 113.1508
198.5248 105.7019 116.1356
197.1431 117.4026 116.1356
194.2419 129.2935 116.1356
189.7308 141.0856 116.1356
183.5934 152.4574 116.1356
175.899 163.0792 116.1356
166.8046 172.6415 116.1356
151.0703 184.448 116.1356
139.6278 190.384 116.1356
121.854 196.2395 116.1356
110.0509 198.1765 116.1356
98.58611 198.6795 116.1356
92.85466 198.4306 116.1356
87.0215 197.8325 116.1356
81.11589 196.8661 116.1356
75.1704 195.5151 116.1356
69.22068 193.7671 116.1356
63.30488 191.6139 116.1356
57.46312 189.052 116.1356
51.73666 186.083 116.1356
46.16714 182.7144 116.1356
40.79562 178.9587 116.1356
35.66163 174.8346 116.1356
30.80229 170.3656 116.1356
26.25137 165.5803 116.1356
22.03858 160.5116 116.1356
18.18891 155.1959 116.1356
14.72206 149.672 116.1356
11.65229 143.9809 116.1356
8.98823 138.1641 116.1356
6.732962 132.263 116.1356
4.884294 126.3181 116.1356
3.435089 120.3681 116.1356
2.373895 114.4493 116.1356
1.685387 108.5952 116.1356
1.351124 102.8358 116.1356
1.351124 97.16424 116.1356
1.685387 91.40482 116.1356
2.373895 85.55068 116.1356
3.435089 79.63191 116.1356
4.884294 73.68192 116.1356
6.732962 67.73701 116.1356
8.98823 61.8359 116.1356
11.65229 56.01907 116.1356
14.72206 50.32795 116.1356
18.18891 44.80412 116.1356
22.03858 39.48836 116.1356
26.25137 34.41966 116.1356
30.80229 29.63441 116.1356
35.66163 25.16541 116.1356
40.79562 21.04126 116.1356
46.16714 17.28564 116.1356
51.73666 13.91695 116.1356
57.46312 10.94802 116.1356
63.30488 8.386096 116.1356
69.22068 6.232871 116.1356
75.1704 4.484913 116.1356
81.11589 3.133951 116.1356
87.0215 2.167492 116.1356
92.85466 1.569389 116.1356
98.58611 1.32051 116.1356
110.0509 1.823536 116.1356
121.854 3.760493 116.1356
139.6278 9.615948 116.1356
151.0703 15.552 116.1356
161.8035 23.05863 116.1356
171.5137 31.98946 116.1356
179.933 42.11774 116.1356
186.8631 53.15519 116.1356
192.1905 64.77848 116.1356
195.8896 76.65861 116.1356
198.0159 88.48779 116.1356
197.4821 111.4495 119.1349
195.3675 123.2143 119.1349
191.6885 135.0297 119.1349
186.3901 146.5897 119.1349
179.4977 157.5671 119.1349
171.1243 167.6402 119.1349
161.4669 176.5224 119.1349
156.238 180.4435 119.1349
145.1698 187.141 119.1349
133.5602 192.2365 119.1349
127.6549 194.1757 119.1349
115.8375 196.8661 119.1349
104.242 198.0605 119.1349
104.242 1.939496 119.1349
115.8375 3.133951 119.1349
127.6549 5.824274 119.1349
133.5602 7.763496 119.1349
145.1698 12.85904 119.1349
156.238 19.55655 119.1349
166.4408 27.75404 119.1349
175.4857 37.26427 119.1349
183.1382 47.8282 119.1349
189.2422 59.1381 119.1349
193.7287 70.86597 119.1349
196.6141 82.69212 119.1349
197.9883 94.32916 119.1349
198.1522 100 119.1349
197.3545 105.6342 122.1442
195.9892 117.1959 122.1442
193.1224 128.9456 122.1442
188.6649 140.5976 122.1442
182.6005 151.8343 122.1442
174.9974 162.3299 122.1442
166.0111 171.7787 122.1442
150.4637 183.4449 122.1442
139.1571 189.3104 122.1442
121.5944 195.0963 122.1442
109.9316 197.0103 122.1442
98.60291 197.5073 122.1442
92.93953 197.2614 122.1442
87.17567 196.6704 122.1442
81.3402 195.7154 122.1442
75.46534 194.3805 122.1442
69.58628 192.6533 122.1442
63.74076 190.5257 122.1442
57.96838 187.9942 122.1442
52.30995 185.0605 122.1442
46.80659 181.7318 122.1442
41.49887 178.0208 122.1442
36.42587 173.9457 122.1442
31.62423 169.5298 122.1442
27.12738 164.8013 122.1442
22.96464 159.7929 122.1442
19.16068 154.5402 122.1442
15.73501 149.082 122.1442
12.70171 143.4585 122.1442
10.06929 137.7108 122.1442
7.840818 131.8798 122.1442
6.0141 126.0055 122.1442
4.582121 120.1262 122.1442
3.533526 114.2777 122.1442
2.853206 108.4931 122.1442
2.522914 102.8021 122.1442
2.522914 97.19793 122.1442
2.853206 91.50691 122.1442
3.533526 85.72231 122.1442
4.582121 79.87385 122.1442
6.0141 73.99453 122.1442
7.840818 68.12024 122.1442
10.06929 62.28923 122.1442
12.70171 56.54149 122.1442
15.73501 50.91797 122.1442
19.16068 45.45976 122.1442
22.96464 40.20713 122.1442
27.12738 35.19865 122.1442
31.62423 30.47023 122.1442
36.42587 26.05432 122.1442
41.49887 21.97916 122.1442
46.80659 18.26815 122.1442
52.30995 14.93947 122.1442
57.96838 12.00581 122.1442
63.74076 9.474313 122.1442
69.58628 7.346673 122.1442
75.46534 5.619472 122.1442
81.3402 4.284559 122.1442
87.17567 3.329566 122.1442
92.93953 2.738579 122.1442
98.60291 2.492657 122.1442
109.9316 2.989701 122.1442
121.5944 4.903665 122.1442
139.1571 10.68956 122.1442
150.4637 16.5551 122.1442
161.0693 23.97257 122.1442
170.6642 32.79731 122.1442
178.9835 42.80529 122.1442
185.8314 53.71163 122.1442
191.0954 65.19686 122.1442
194.7506 76.93587 122.1442
196.8516 88.62453 122.1442
196.1226 111.2898 125.1593
194.0374 122.8905 125.1593
190.4097 134.5412 125.1593
185.1853 145.9399 125.1593
178.389 156.7642 125.1593
170.1323 166.6968 125.1593
160.6096 175.4552 125.1593
155.4536 179.3215 125.1593
144.5398 185.9256 125.1593
133.0921 190.9501 125.1593
127.2691 192.8623 125.1593
115.6166 195.5151 125.1593
104.1828 196.6929 125.1593
104.1828 3.30711 125.1593
115.6166 4.484913 125.1593
127.2691 7.137707 125.1593
133.0921 9.049898 125.1593
144.5398 14.07438 125.1593
155.4536 20.67847 125.1593
165.5142 28.76165 125.1593
174.4329 38.13923 125.1593
181.9787 48.55582 125.1593
187.9975 59.70799 125.1593
192.4215 71.27229 125.1593
195.2667 82.93351 125.1593
196.6216 94.40825 125.1593
196.7833 100 125.1593
195.7884 105.5435 128.1755
194.4451 116.9193 128.1755
191.6244 128.48 128.1755
187.2386 139.9445 128.1755
181.2717 151.0005 128.1755
173.791 161.3273 128.1755
164.9491 170.624 128.1755
149.6519 182.1026 128.1755
138.5272 187.8738 128.1755
121.2471 193.5666 128.1755
109.7718 195.4498 128.1755
98.62538 195.9388 128.1755
93.0531 195.6968 128.1755
87.38197 195.1153 128.1755
81.64037 194.1757 128.1755
75.86001 192.8623 128.1755
70.07553 191.1629 128.1755
64.32404 189.0694 128.1755
58.64452 186.5787 128.1755
53.07711 183.6922 128.1755
47.66228 180.4171 128.1755
42.43994 176.7658 128.1755
37.44854 172.7562 128.1755
32.72416 168.4113 128.1755
28.29964 163.7589 128.1755
24.20387 158.831 128.1755
20.4611 153.6629 128.1755
17.09053 148.2925 128.1755
14.10603 142.7594 128.1755
11.51596 137.1041 128.1755
9.323334 131.3669 128.1755
7.525994 125.5871 128.1755
6.117052 119.8024 128.1755
5.085318 114.048 128.1755
4.415943 108.3565 128.1755
4.090971 102.757 128.1755
4.090971 97.243 128.1755
4.415943 91.64354 128.1755
5.085318 85.95199 128.1755
6.117052 80.19761 128.1755
7.525994 74.41287 128.1755
9.323334 68.63307 128.1755
11.51596 62.89586 128.1755
14.10603 57.24058 128.1755
17.09053 51.70752 128.1755
20.4611 46.33712 128.1755
24.20387 41.16899 128.1755
28.29964 36.24107 128.1755
32.72416 31.58873 128.1755
37.44854 27.24384 128.1755
42.43994 23.23423 128.1755
47.66228 19.58293 128.1755
53.07711 16.30779 128.1755
58.64452 13.42133 128.1755
64.32404 10.93054 128.1755
70.07553 8.837124 128.1755
75.86001 7.137707 128.1755
81.64037 5.824274 128.1755
87.38197 4.884659 128.1755
93.0531 4.303171 128.1755
98.62538 4.061206 128.1755
109.7718 4.550247 128.1755
121.2471 6.433418 128.1755
138.5272 12.12624 128.1755
149.6519 17.89743 128.1755
160.0869 25.19557 128.1755
169.5275 33.87836 128.1755
177.713 43.72534 128.1755
184.4506 54.45624 128.1755
189.63 65.75671 128.1755
193.2264 77.30689 128.1755
195.2936 88.80752 128.1755
194.3635 111.0832 131.188
192.3165 122.4716 131.188
188.7552 133.9091 131.188
183.6264 145.0992 131.188
176.9545 155.7254 131.188
168.8489 165.4762 131.188
159.5005 174.0743 131.188
154.4388 177.8699 131.188
143.7248 184.3532 131.188
132.4865 189.2857 131.188
126.7701 191.1629 131.188
115.3308 193.7671 131.188
104.1063 194.9234 131.188
104.1063 5.076631 131.188
115.3308 6.232871 131.188
126.7701 8.837124 131.188
132.4865 10.71431 131.188
143.7248 15.64684 131.188
154.4388 22.13009 131.188
164.3152 30.06533 131.188
173.0707 39.2713 131.188
180.4785 49.49727 131.188
186.3871 60.44534 131.188
190.7301 71.79802 131.188
193.5233 83.24583 131.188
194.8534 94.51059 131.188
195.0122 100 131.188
193.8159 105.4294 134.192
192.5003 116.5709 134.192
189.7377 127.8935 134.192
185.4423 139.122 134.192
179.5982 149.9503 134.192
172.2715 160.0645 134.192
163.6118 169.1697 134.192
148.6295 180.4119 134.192
137.7339 186.0643 134.192
120.8095 191.6399 134.192
109.5706 193.4843 134.192
98.65368 193.9633 134.192
93.19615 193.7263 134.192
87.64179 193.1568 134.192
82.01842 192.2365 134.192
76.35709 190.9501 134.192
70.69172 189.2857 134.192
65.05866 187.2354 134.192
59.4961 184.7959 134.192
54.04333 181.9689 134.192
48.74 178.7612 134.192
43.62519 175.185 134.192
38.73657 171.258 134.192
34.10947 167.0026 134.192
29.77607 162.446 134.192
25.76462 157.6196 134.192
22.09892 152.5579 134.192
18.79777 147.2981 134.192
15.87472 141.8789 134.192
13.33798 136.3401 134.192
11.19049 130.721 134.192
9.430183 125.0603 134.192
8.050246 119.3946 134.192
7.039754 113.7587 134.192
6.384163 108.1844 134.192
6.065889 102.7002 134.192
6.065889 97.29978 134.192
6.384163 91.81561 134.192
7.039754 86.24126 134.192
8.050246 80.60537 134.192
9.430183 74.93974 134.192
11.19049 69.27896 134.192
13.33798 63.65989 134.192
15.87472 58.12106 134.192
18.79777 52.70194 134.192
22.09892 47.44212 134.192
25.76462 42.38041 134.192
29.77607 37.55396 134.192
34.10947 32.99741 134.192
38.73657 28.74201 134.192
43.62519 24.81495 134.192
48.74 21.23884 134.192
54.04333 18.03115 134.192
59.4961 15.20411 134.192
65.05866 12.76462 134.192
70.69172 10.71431 134.192
76.35709 9.049898 134.192
82.01842 7.763496 134.192
87.64179 6.84323 134.192
93.19615 6.273723 134.192
98.65368 6.036727 134.192
109.5706 6.51571 134.192
120.8095 8.360101 134.192
137.7339 13.9357 134.192
148.6295 19.58804 134.192
158.8497 26.73592 134.192
168.0958 35.23991 134.192
176.1127 44.88413 134.192
182.7117 55.39406 134.192
187.7844 66.46184 134.192
191.3067 77.77417 134.192
193.3314 89.03799 134.192
192.1966 110.8287 137.1824
190.1966 121.9556 137.1824
186.7171 133.1304 137.1824
181.706 144.0636 137.1824
175.1873 154.4458 137.1824
167.2679 163.9727 137.1824
158.1341 172.3733 137.1824
153.1887 176.0817 137.1824
142.7207 182.4161 137.1824
131.7405 187.2354 137.1824
126.1554 189.0694 137.1824
114.9788 191.6139 137.1824
104.012 192.7436 137.1824
104.012 7.256395 137.1824
114.9788 8.386096 137.1824
126.1554 10.93054 137.1824
131.7405 12.76462 137.1824
142.7207 17.58387 137.1824
153.1887 23.91825 137.1824
162.8383 31.67126 137.1824
171.3928 40.66584 137.1824
178.6304 50.65698 137.1824
184.4034 61.35366 137.1824
188.6467 72.44564 137.1824
191.3757 83.63057 137.1824
192.6753 94.63664 137.1824
192.8304 100 137.1824
191.4312 105.2914 140.154
190.149 116.1497 140.154
187.4566 127.1845 140.154
183.2703 138.1275 140.154
177.5748 148.6806 140.154
170.4344 158.5376 140.154
161.9948 167.4115 140.154
147.3933 178.3679 140.154
136.7747 183.8766 140.154
120.2806 189.3104 140.154
109.3273 191.1079 140.154
98.68791 191.5748 140.154
93.3691 191.3438 140.154
87.95593 190.7887 140.154
82.47551 189.8919 140.154
76.95809 188.6382 140.154
71.43673 187.0161 140.154
65.94686 185.0179 140.154
60.52569 182.6404 140.154
55.21153 179.8852 140.154
50.04301 176.7591 140.154
45.05822 173.2739 140.154
40.29387 169.4466 140.154
35.78438 165.2994 140.154
31.56113 160.8587 140.154
27.65166 156.1549 140.154
24.07914 151.2219 140.154
20.8619 146.0958 140.154
18.01316 140.8144 140.154
15.5409 135.4164 140.154
13.44801 129.9401 140.154
11.73243 124.4232 140.154
10.38758 118.9016 140.154
9.40278 113.409 140.154
8.763848 107.9763 140.154
8.453658 102.6316 140.154
8.453658 97.36841 140.154
8.763848 92.02366 140.154
9.40278 86.591 140.154
10.38758 81.09838 140.154
11.73243 75.57677 140.154
13.44801 70.05988 140.154
15.5409 64.58364 140.154
18.01316 59.18561 140.154
20.8619 53.90425 140.154
24.07914 48.77812 140.154
27.65166 43.84508 140.154
31.56113 39.14132 140.154
35.78438 34.70059 140.154
40.29387 30.55336 140.154
45.05822 26.72614 140.154
50.04301 23.24092 140.154
55.21153 20.11477 140.154
60.52569 17.3596 140.154
65.94686 14.98211 140.154
71.43673 12.98392 140.154
76.95809 11.36181 140.154
82.47551 10.10813 140.154
87.95593 9.211248 140.154
93.3691 8.656209 140.154
98.68791 8.425241 140.154
109.3273 8.89205 140.154
120.2806 10.68956 140.154
136.7747 16.12343 140.154
147.3933 21.6321 140.154
157.3537 28.59826 140.154
166.3648 36.88609 140.154
174.178 46.28515 140.154
180.6092 56.52793 140.154
185.5529 67.31437 140.154
188.9858 78.33915 140.154
190.9589 89.31665 140.154
189.6184 110.5259 143.1017
187.6743 121.3416 143.1017
184.2921 132.2039 143.1017
179.4211 142.8314 143.1017
173.0848 152.9232 143.1017
165.3868 162.1837 143.1017
156.5084 170.3494 143.1017
151.7013 173.9542 143.1017
141.526 180.1114 143.1017
130.8529 184.7959 143.1017
125.424 186.5787 143.1017
114.5599 189.052 143.1017
103.8998 190.1501 143.1017
103.8998 9.849919 143.1017
114.5599 10.94802 143.1017
125.424 13.42133 143.1017
130.8529 15.20411 143.1017
141.526 19.88861 143.1017
151.7013 26.04583 143.1017
161.0811 33.58205 143.1017
169.3963 42.32509 143.1017
176.4315 52.03684 143.1017
182.0431 62.43438 143.1017
186.1677 73.21618 143.1017
188.8204 84.08833 143.1017
190.0837 94.78662 143.1017
190.2344 100 143.1017
188.6331 105.1294 146.0202
187.3902 115.6555 146.0202
184.7802 126.3525 146.0202
180.722 136.9607 146.0202
175.2008 147.1909 146.0202
168.2789 156.7462 146.0202
160.0976 165.3485 146.0202
145.943 175.9696 146.0202
135.6493 181.3097 146.0202
119.6599 186.5773 146.0202
109.0419 188.3198 146.0202
98.72806 188.7723 146.0202
93.57203 188.5484 146.0202
88.32451 188.0104 146.0202
83.0118 187.141 146.0202
77.66323 185.9256 146.0202
72.31084 184.3532 146.0202
66.98897 182.4161 146.0202
61.73371 180.1114 146.0202
56.58217 177.4405 146.0202
51.57182 174.41 146.0202
46.73958 171.0315 146.0202
42.12103 167.3214 146.0202
37.74955 163.3011 146.0202
33.65554 158.9963 146.0202
29.86571 154.4364 146.0202
26.40252 149.6543 146.0202
23.28373 144.6851 146.0202
20.52217 139.5654 146.0202
18.12557 134.3325 146.0202
16.09672 129.0239 146.0202
14.43365 123.6758 146.0202
13.12996 118.3232 146.0202
12.17529 112.9986 146.0202
11.55592 107.7323 146.0202
11.25522 102.5511 146.0202
11.25522 97.44895 146.0202
11.55592 92.26775 146.0202
12.17529 87.00135 146.0202
13.12996 81.67682 146.0202
14.43365 76.32418 146.0202
16.09672 70.97613 146.0202
18.12557 65.66748 146.0202
20.52217 60.43463 146.0202
23.28373 55.31489 146.0202
26.40252 50.34565 146.0202
29.86571 45.56357 146.0202
33.65554 41.00375 146.0202
37.74955 36.69893 146.0202
42.12103 32.67861 146.0202
46.73958 28.96851 146.0202
51.57182 25.58995 146.0202
56.58217 22.55946 146.0202
61.73371 19.88861 146.0202
66.98897 17.58387 146.0202
72.31084 15.64684 146.0202
77.66323 14.07438 146.0202
83.0118 12.85904 146.0202
88.32451 11.98961 146.0202
93.57203 11.45156 146.0202
98.72806 11.22767 146.0202
109.0419 11.68019 146.0202
119.6599 13.42269 146.0202
135.6493 18.69027 146.0202
145.943 24.03036 146.0202
155.5986 30.78335 146.0202
164.3339 38.81754 146.0202
171.9079 47.92897 146.0202
178.1423 57.85828 146.0202
182.9348 68.31463 146.0202
186.2626 79.00203 146.0202
188.1753 89.64358 146.0202
186.6305 110.175 148.9042
184.7513 120.6301 148.9042
181.4818 131.1303 148.9042
176.7733 141.4034 148.9042
170.6482 151.1588 148.9042
163.2068 160.1106 148.9042
154.6245 168.004 148.9042
149.9776 171.4886 148.9042
140.1416 177.4405 148.9042
129.8243 181.9689 148.9042
124.5764 183.6922 148.9042
114.0745 186.083 148.9042
103.7698 187.1445 148.9042
103.7698 12.85546 148.9042
114.0745 13.91695 148.9042
124.5764 16.30779 148.9042
129.8243 18.03115 148.9042
140.1416 22.55946 148.9042
149.9776 28.51141 148.9042
159.0447 35.79637 148.9042
167.0827 44.24793 148.9042
173.8834 53.63589 148.9042
179.3078 63.68679 148.9042
183.2949 74.10913 148.9042
185.8592 84.61881 148.9042
187.0803 94.96044 148.9042
187.226 100 148.9042
185.4264 104.9438 151.7484
184.2284 115.089 151.7484
181.7128 125.3991 151.7484
177.8015 135.6235 151.7484
172.48 145.4835 151.7484
165.8085 154.6931 151.7484
157.9232 162.9842 151.7484
144.2807 173.221 151.7484
134.3595 178.3679 151.7484
118.9486 183.4449 151.7484
108.7147 185.1244 151.7484
98.77408 185.5605 151.7484
93.80459 185.3447 151.7484
88.74694 184.8261 151.7484
83.62645 183.9882 151.7484
78.47139 182.8168 151.7484
73.31265 181.3012 151.7484
68.18333 179.4343 151.7484
63.1182 177.2129 151.7484
58.15305 174.6387 151.7484
53.32398 171.7179 151.7484
48.66657 168.4615 151.7484
44.21512 164.8857 151.7484
40.0018 161.0108 151.7484
36.05591 156.8617 151.7484
32.4032 152.4669 151.7484
29.06531 147.8578 151.7484
26.05937 143.0684 151.7484
23.39771 138.1339 151.7484
21.08782 133.0904 151.7484
19.1324 127.9738 151.7484
17.52949 122.8192 151.7484
16.27295 117.6602 151.7484
15.35283 112.5283 151.7484
14.75586 107.4525 151.7484
14.46605 102.4588 151.7484
14.46605 97.54124 151.7484
14.75586 92.54751 151.7484
15.35283 87.47165 151.7484
16.27295 82.33976 151.7484
17.52949 77.18079 151.7484
19.1324 72.02623 151.7484
21.08782 66.90964 151.7484
23.39771 61.86613 151.7484
26.05937 56.93162 151.7484
29.06531 52.14216 151.7484
32.4032 47.5331 151.7484
36.05591 43.13827 151.7484
40.0018 38.98919 151.7484
44.21512 35.11433 151.7484
48.66657 31.53846 151.7484
53.32398 28.28214 151.7484
58.15305 25.3613 151.7484
63.1182 22.78708 151.7484
68.18333 20.56574 151.7484
73.31265 18.69877 151.7484
78.47139 17.18321 151.7484
83.62645 16.01185 151.7484
88.74694 15.17387 151.7484
93.80459 14.65529 151.7484
98.77408 14.4395 151.7484
108.7147 14.87564 151.7484
118.9486 16.5551 151.7484
134.3595 21.6321 151.7484
144.2807 26.77897 151.7484
153.587 33.28764 151.7484
162.0063 41.03115 151.7484
169.3063 49.81292 151.7484
175.3151 59.38299 151.7484
179.9342 69.46102 151.7484
183.1415 79.76174 151.7484
184.9851 90.01828 151.7484
183.2404 109.7768 154.5476
181.4347 119.8228 154.5476
178.2932 129.912 154.5476
173.7689 139.7832 154.5476
167.8835 149.1568 154.5476
160.7333 157.7583 154.5476
152.4869 165.3428 154.5476
148.0219 168.691 154.5476
138.5707 174.41 154.5476
128.6572 178.7612 154.5476
123.6146 180.4171 154.5476
113.5237 182.7144 154.5476
103.6223 183.7343 154.5476
103.6223 16.2657 154.5476
113.5237 17.28564 154.5476
123.6146 19.58293 154.5476
128.6572 21.23884 154.5476
138.5707 25.58995 154.5476
148.0219 31.30899 154.5476
156.7341 38.30885 154.5476
164.4575 46.42968 154.5476
170.9921 55.45026 154.5476
176.2043 65.10784 154.5476
180.0353 75.12232 154.5476
182.4993 85.22073 154.5476
183.6726 95.15765 154.5476
183.8126 100 154.5476
181.8209 104.7352 157.2967
180.6736 114.4522 157.2967
178.2642 124.3271 157.2967
174.5179 134.12 157.2967
169.421 143.5639 157.2967
163.0311 152.3848 157.2967
155.4786 160.3259 157.2967
142.4119 170.1307 157.2967
132.9093 175.0604 157.2967
118.1489 179.9231 157.2967
108.3469 181.5317 157.2967
98.82582 181.9494 157.2967
94.06607 181.7428 157.2967
89.22187 181.2461 157.2967
84.31749 180.4435 157.2967
79.37999 179.3215 157.2967
74.43898 177.8699 157.2967
69.52615 176.0817 157.2967
64.67479 173.9542 157.2967
59.9192 171.4886 157.2967
55.29393 168.691 157.2967
50.83309 165.5721 157.2967
46.56951 162.1472 157.2967
42.53401 158.4359 157.2967
38.75466 154.4619 157.2967
35.25611 150.2526 157.2967
32.05909 145.838 157.2967
29.18001 141.2507 157.2967
26.6307 136.5244 157.2967
24.4183 131.6938 157.2967
22.54539 126.7931 157.2967
21.01014 121.8561 157.2967
19.80664 116.9149 157.2967
18.92534 111.9996 157.2967
18.35357 107.138 157.2967
18.07599 102.355 157.2967
18.07599 97.64501 157.2967
18.35357 92.86204 157.2967
18.92534 88.00041 157.2967
19.80664 83.0851 157.2967
21.01014 78.14387 157.2967
22.54539 73.20685 157.2967
24.4183 68.30621 157.2967
26.6307 63.47556 157.2967
29.18001 58.74931 157.2967
32.05909 54.16199 157.2967
35.25611 49.74745 157.2967
38.75466 45.53811 157.2967
42.53401 41.56414 157.2967
46.56951 37.85282 157.2967
50.83309 34.42787 157.2967
55.29393 31.30899 157.2967
59.9192 28.51141 157.2967
64.67479 26.04583 157.2967
69.52615 23.91825 157.2967
74.43898 22.13009 157.2967
79.37999 20.67847 157.2967
84.31749 19.55655 157.2967
89.22187 18.75394 157.2967
94.06607 18.25724 157.2967
98.82582 18.05056 157.2967
108.3469 18.4683 157.2967
118.1489 20.07688 157.2967
132.9093 24.93959 157.2967
142.4119 29.86925 157.2967
151.3253 36.10323 157.2967
159.3893 43.51992 157.2967
166.3812 51.93106 157.2967
172.1364 61.09722 157.2967
176.5606 70.74991 157.2967
179.6326 80.61589 157.2967
181.3983 90.43956 157.2967
179.4609 109.3329 159.9905
177.7372 118.9227 159.9905
174.7383 128.5539 159.9905
170.4195 137.9768 159.9905
164.8012 146.9248 159.9905
157.9757 155.1358 159.9905
150.1037 162.376 159.9905
145.8414 165.5721 159.9905
136.8194 171.0315 159.9905
127.356 175.185 159.9905
122.5424 176.7658 159.9905
112.9097 178.9587 159.9905
103.4578 179.9324 159.9905
103.4578 20.06762 159.9905
112.9097 21.04126 159.9905
122.5424 23.23423 159.9905
127.356 24.81495 159.9905
136.8194 28.96851 159.9905
145.8414 34.42787 159.9905
154.1581 41.10992 159.9905
161.5309 48.86202 159.9905
167.7687 57.47303 159.9905
172.7442 66.6921 159.9905
176.4014 76.25188 159.9905
178.7534 85.89177 159.9905
179.8735 95.37751 159.9905
180.0071 100 159.9905
177.8328 104.5044 162.6241
176.7413 113.7478 162.6241
174.4493 123.1414 162.6241
170.8857 132.4569 162.6241
166.0372 141.4404 162.6241
159.9588 149.8314 162.6241
152.7744 157.3855 162.6241
140.3446 166.7124 162.6241
131.3052 171.4017 162.6241
117.2643 176.0274 162.6241
107.9401 177.5576 162.6241
98.88306 177.955 162.6241
94.35531 177.7584 162.6241
89.74723 177.2859 162.6241
85.0819 176.5224 162.6241
80.38508 175.4552 162.6241
75.6849 174.0743 162.6241
71.01153 172.3733 162.6241
66.39664 170.3494 162.6241
61.87285 168.004 162.6241
57.47304 165.3428 162.6241
53.22963 162.376 162.6241
49.17388 159.1179 162.6241
45.33508 155.5875 162.6241
41.73994 151.8073 162.6241
38.41192 147.8031 162.6241
35.37074 143.6037 162.6241
32.63199 139.24 162.6241
30.20694 134.7441 162.6241
28.10238 130.1489 162.6241
26.32076 125.4872 162.6241
24.86034 120.7908 162.6241
23.7155 116.0904 162.6241
22.87717 111.4147 162.6241
22.33326 106.79 162.6241
22.06921 102.2402 162.6241
22.06921 97.75981 162.6241
22.33326 93.20997 162.6241
22.87717 88.5853 162.6241
23.7155 83.90959 162.6241
24.86034 79.2092 162.6241
26.32076 74.51283 162.6241
28.10238 69.85107 162.6241
30.20694 65.25587 162.6241
32.63199 60.76 162.6241
35.37074 56.39628 162.6241
38.41192 52.19691 162.6241
41.73994 48.19274 162.6241
45.33508 44.41248 162.6241
49.17388 40.88206 162.6241
53.22963 37.62405 162.6241
57.47304 34.65719 162.6241
61.87285 31.99598 162.6241
66.39664 29.65058 162.6241
71.01153 27.6267 162.6241
75.6849 25.92569 162.6241
80.38508 24.54484 162.6241
85.0819 23.4776 162.6241
89.74723 22.71412 162.6241
94.35531 22.24164 162.6241
98.88306 22.04502 162.6241
107.9401 22.4424 162.6241
117.2643 23.97257 162.6241
131.3052 28.59826 162.6241
140.3446 33.28764 162.6241
148.8236 39.21774 162.6241
156.4945 46.27293 162.6241
163.1456 54.27408 162.6241
168.6203 62.99346 162.6241
172.8288 72.17565 162.6241
175.751 81.56073 162.6241
177.4307 90.90556 162.6241
175.3105 108.8454 165.1926
173.6768 117.9344 165.1926
170.8346 127.0625 165.1926
166.7413 135.9932 165.1926
161.4166 144.4739 165.1926
154.9476 152.2559 165.1926
147.4867 159.1179 165.1926
143.4471 162.1472 165.1926
134.8963 167.3214 165.1926
125.9272 171.258 165.1926
121.365 172.7562 165.1926
112.2354 174.8346 165.1926
103.2772 175.7574 165.1926
103.2772 24.24263 165.1926
112.2354 25.16541 165.1926
121.365 27.24384 165.1926
125.9272 28.74201 165.1926
134.8963 32.67861 165.1926
143.4471 37.85282 165.1926
151.3293 44.18585 165.1926
158.317 51.53305 165.1926
164.229 59.69429 165.1926
168.9447 68.43183 165.1926
172.4108 77.49229 165.1926
174.64 86.62867 165.1926
175.7016 95.61896 165.1926
175.8282 100 165.1926
173.4831 104.2527 167.6916
172.4526 112.9795 167.6916
170.2887 121.8481 167.6916
166.9242 130.643 167.6916
162.3468 139.1245 167.6916
156.608 147.0466 167.6916
149.8251 154.1785 167.6916
138.09 162.9842 167.6916
129.5558 167.4115 167.6916
116.2995 171.7787 167.6916
107.4963 173.2233 167.6916
98.94548 173.5985 167.6916
94.67076 173.4129 167.6916
90.3202 172.9668 167.6916
85.9156 172.2459 167.6916
81.48125 171.2383 167.6916
77.04375 169.9347 167.6916
72.63155 168.3287 167.6916
68.27456 166.418 167.6916
64.00358 164.2036 167.6916
59.84965 161.6911 167.6916
55.84338 158.8901 167.6916
52.01428 155.8142 167.6916
48.39002 152.481 167.6916
44.99579 148.912 167.6916
41.85376 145.1316 167.6916
38.98253 141.1669 167.6916
36.39684 137.0471 167.6916
34.1073 132.8025 167.6916
32.12036 128.4641 167.6916
30.43831 124.0628 167.6916
29.0595 119.6289 167.6916
27.97863 115.1912 167.6916
27.18716 110.7768 167.6916
26.67365 106.4106 167.6916
26.42435 102.115 167.6916
26.42435 97.885 167.6916
26.67365 93.58943 167.6916
27.18716 89.22321 167.6916
27.97863 84.8088 167.6916
29.0595 80.37109 167.6916
30.43831 75.93717 167.6916
32.12036 71.53593 167.6916
34.1073 67.19754 167.6916
36.39684 62.95292 167.6916
38.98253 58.83306 167.6916
41.85376 54.86838 167.6916
44.99579 51.08798 167.6916
48.39002 47.51897 167.6916
52.01428 44.18585 167.6916
55.84338 41.10992 167.6916
59.84965 38.30885 167.6916
64.00358 35.79637 167.6916
68.27456 33.58205 167.6916
72.63155 31.67126 167.6916
77.04375 30.06533 167.6916
81.48125 28.76165 167.6916
85.9156 27.75404 167.6916
90.3202 27.03322 167.6916
94.67076 26.58714 167.6916
98.94548 26.40152 167.6916
107.4963 26.77668 167.6916
116.2995 28.22134 167.6916
129.5558 32.58853 167.6916
138.09 37.01584 167.6916
146.0951 42.61454 167.6916
153.3373 49.27545 167.6916
159.6167 56.82947 167.6916
164.7854 65.06156 167.6916
168.7587 73.73061 167.6916
171.5177 82.59121 167.6916
173.1035 91.4138 167.6916
170.8131 108.3172 170.1165
169.277 116.8634 170.1165
166.6045 125.4463 170.1165
162.7557 133.8438 170.1165
157.7489 141.818 170.1165
151.6662 149.1353 170.1165
144.6509 155.5875 170.1165
140.8525 158.4359 170.1165
132.8123 163.3011 170.1165
124.3788 167.0026 170.1165
120.0891 168.4113 170.1165
111.5047 170.3656 170.1165
103.0815 171.2333 170.1165
103.0815 28.76673 170.1165
111.5047 29.63441 170.1165
120.0891 31.58873 170.1165
124.3788 32.99741 170.1165
132.8123 36.69893 170.1165
140.8525 41.56414 170.1165
148.264 47.51897 170.1165
154.8344 54.42741 170.1165
160.3934 62.10127 170.1165
164.8274 70.31703 170.1165
168.0865 78.83641 170.1165
170.1826 87.42718 170.1165
171.1808 95.88058 170.1165
171.2999 100 170.1165
168.7984 103.9815 172.4632
167.8337 112.152 172.4632
165.8078 120.4553 172.4632
162.6577 128.6895 172.4632
158.3721 136.6303 172.4632
152.9992 144.0473 172.4632
146.6487 150.7245 172.4632
135.6617 158.9689 172.4632
127.6716 163.1139 172.4632
115.2604 167.2027 172.4632
107.0184 168.5552 172.4632
99.0127 168.9065 172.4632
95.0105 168.7327 172.4632
90.9373 168.3151 172.4632
86.81349 167.6402 172.4632
82.66184 166.6968 172.4632
78.50723 165.4762 172.4632
74.37632 163.9727 172.4632
70.29709 162.1837 172.4632
66.29839 160.1106 172.4632
62.40928 157.7583 172.4632
58.65842 155.1358 172.4632
55.07342 152.2559 172.4632
51.68021 149.1353 172.4632
48.50237 145.7938 172.4632
45.56065 142.2544 172.4632
42.87246 138.5425 172.4632
40.45161 134.6853 172.4632
38.30804 130.7113 172.4632
36.44776 126.6495 172.4632
34.87294 122.5288 172.4632
33.58204 118.3776 172.4632
32.57009 114.2228 172.4632
31.82907 110.0898 172.4632
31.34829 106.0019 172.4632
31.11488 98.01983 172.4632
31.34829 93.9981 172.4632
31.82907 89.91024 172.4632
32.57009 85.77725 172.4632
33.58204 81.62245 172.4632
34.87294 77.47121 172.4632
36.44776 73.35055 172.4632
38.30804 69.28873 172.4632
40.45161 65.31471 172.4632
42.87246 61.4575 172.4632
45.56065 57.74557 172.4632
48.50237 54.20618 172.4632
51.68021 50.8647 172.4632
55.07342 47.74406 172.4632
58.65842 44.86423 172.4632
62.40928 42.24173 172.4632
66.29839 39.88942 172.4632
70.29709 37.81626 172.4632
74.37632 36.0273 172.4632
78.50723 34.52375 172.4632
82.66184 33.30316 172.4632
86.81349 32.35981 172.4632
90.9373 31.68494 172.4632
95.0105 31.26729 172.4632
99.0127 31.09351 172.4632
107.0184 31.44477 172.4632
115.2604 32.79731 172.4632
127.6716 36.88609 172.4632
135.6617 41.03115 172.4632
143.1565 46.27293 172.4632
149.937 52.5092 172.4632
155.8161 59.58164 172.4632
160.6553 67.28893 172.4632
164.3753 75.40531 172.4632
166.9584 83.70104 172.4632
168.4431 91.96118 172.4632
165.9974 107.7516 174.7278
