# .PCD v.5 - Point Cloud Data file format
VERSION .5
FIELDS x y z
SIZE 4 4 4
TYPE F F F
COUNT 1 1 1
WIDTH 1739
HEIGHT 1
POINTS 1739
DATA ascii
155.3818 39.67686 44.37461
160.4628 38.28664 41.21259
201.4227 19.94152 50.3498
200.4013 20.33849 48.42609
190.0962 26.4333 46.62728
176.7733 32.65072 44.75892
202.4484 19.44263 48.69682
192.1468 25.45566 43.3158
191.1237 25.89447 44.98529
189.0598 27.17967 42.8049
182.906 30.15871 43.71491
173.7086 33.85718 44.39059
176.2596 32.91829 41.97559
173.1972 34.07283 41.62171
167.5888 36.04902 40.11041
165.0451 36.81798 44.37453
166.0621 36.52008 42.6662
184.9555 29.20784 44.00072
180.8544 31.15888 41.61301
197.8214 21.94722 45.2494
199.8841 20.68872 45.62008
195.242 23.54301 43.8787
188.0345 27.66819 44.46068
165.5529 36.68375 39.9116
201.944 19.49639 45.9725
204.6165 18.67701 46.9186
157.9195 39.0457 40.07238
200.9128 20.12099 43.98611
190.0862 26.66713 41.15579
186.4882 28.59498 41.48388
183.9275 29.75787 42.0348
202.9694 19.00442 44.3176
198.8484 21.41828 43.6047
179.3204 31.80076 40.517
174.2149 33.75817 39.91801
176.7601 32.95429 37.46578
195.7508 23.3878 41.22391
193.6878 24.65261 40.8515
181.877 30.73246 39.94
159.4379 38.76431 37.46438
199.8727 20.9523 40.14042
194.7119 24.193 39.18758
196.7766 22.88706 39.5714
185.4534 29.30487 37.6716
187.506 28.28021 37.9779
169.1096 35.7113 37.51779
167.0699 36.43669 37.294
161.4744 38.11325 37.6676
157.4048 39.33818 37.28229
205.0068 18.33333 42.7241
184.4359 29.61243 39.37742
180.8484 31.29919 37.96962
178.8038 32.13675 37.7149
175.7437 33.23729 35.57348
169.6221 35.47038 34.8866
166.566 36.47829 34.57299
165.0322 37.11606 37.08288
160.9698 38.17261 34.94179
192.1403 25.60635 39.66948
191.1018 26.40254 37.63589
173.1911 34.21272 36.17609
164.0212 37.27223 35.22572
203.9934 18.54749 40.8507
200.8976 20.47319 38.48189
202.4518 19.36449 39.7065
195.7364 23.72099 37.52732
193.1589 25.27417 37.97069
179.8281 31.67183 36.05261
172.6819 34.37717 31.61889
164.0202 37.29547 31.61451
167.0741 36.33912 31.91379
198.83 21.84523 36.27771
197.7959 22.53683 34.27279
196.7679 23.08978 35.91079
186.9932 28.52834 35.2
189.0464 27.49039 35.50988
181.8732 30.82169 36.3107
169.1121 35.6536 32.12658
160.4566 38.42963 26.75429
201.9287 19.85193 36.8627
194.1919 24.60576 36.36441
192.134 25.75267 36.02451
186.4743 28.91732 30.58091
184.4281 29.79274 33.92059
181.8683 30.93405 30.8727
181.3574 31.14004 33.51349
174.7207 33.67312 33.63919
178.2919 32.36515 33.14009
175.2293 33.52292 30.98291
206.0177 18.17871 35.5691
204.4978 18.49211 38.1684
165.5467 36.82924 29.05741
202.4397 19.64439 34.2223
179.8223 31.80731 27.0035
203.9843 18.7564 35.38612
195.2196 24.06181 34.72391
196.2477 23.50922 33.0857
192.1252 25.95628 30.5613
190.5798 26.8621 29.3926
171.6601 34.78552 29.69211
168.5948 36.00646 29.31988
158.4197 39.08832 24.74663
205.0044 18.38781 33.69722
203.4665 19.12011 32.57638
198.3079 22.30878 31.638
195.7289 23.89599 30.26971
193.6714 25.03241 31.73497
200.363 21.22761 28.35509
188.5259 27.9174 29.07801
169.6201 35.51598 27.6646
176.7583 32.99655 26.64003
178.7971 32.29136 25.0558
172.1665 34.68562 25.21971
166.563 36.54886 25.54181
206.0155 18.22818 31.95071
201.401 20.44339 30.38549
202.9399 19.68766 27.90812
203.9749 18.97539 29.91861
186.9856 28.70531 26.13941
184.4255 29.85371 28.49671
184.9339 29.70709 24.03721
182.3735 30.86401 22.78742
179.8191 31.88051 23.37861
163.0015 37.63188 26.10281
191.6024 26.43628 24.11482
167.0661 36.52568 21.04819
162.4875 37.90743 23.31743
164.0114 37.49908 20.74429
195.2031 24.44549 23.80398
175.7319 33.50998 22.88181
169.1048 35.82318 23.06798
206.0111 18.33035 28.3179
177.7751 32.70532 23.1275
173.6919 34.24324 20.85361
172.6724 34.59818 22.5462
200.3562 21.3833 24.7075
187.4953 28.52888 23.49052
176.7534 33.11057 19.39911
204.9931 18.65132 26.4152
203.963 19.25094 24.4357
189.5488 27.48371 23.8024
184.417 30.04999 19.43079
185.9559 29.29391 22.36059
180.8364 31.57629 21.67201
179.3025 32.21507 18.77451
170.123 35.49982 19.56439
161.9775 38.0897 18.75532
206.0046 18.48061 24.67182
182.3709 30.9226 19.1665
195.1975 24.57429 20.16377
172.9688 34.57285 17.21498
126.5329 44.98578 16.43759
110.9293 45.87872 15.10549
203.9562 19.40889 20.78742
157.6957 39.37299 17.25739
150.2998 41.08883 16.8905
115.9567 45.73013 15.2061
204.9848 18.8433 22.7575
168.0483 36.21919 17.54141
166.0672 36.67761 17.62259
164.1088 37.30769 17.43758
162.1461 38.2324 16.15289
159.952 38.48602 16.81989
148.2747 41.47608 16.7599
112.401 46.3254 13.77329
86.6076 43.89508 13.66171
207.5028 18.35413 21.4327
200.8644 21.24299 20.24618
188.0031 28.39507 19.02741
179.8505 32.16011 16.7312
177.402 33.16541 16.04459
175.1154 33.80496 17.17341
171.0021 35.25449 17.3513
193.9874 25.33413 17.9624
190.9767 26.86478 18.8753
184.2511 30.24812 17.22601
181.8098 31.36356 16.56649
82.05804 43.50061 12.5978
79.45076 42.31734 13.00782
74.93802 41.50237 12.4456
201.2601 21.19095 17.9545
199.319 22.2698 18.1888
197.2326 23.23217 19.01919
195.9309 24.29272 17.73739
69.26138 39.94126 12.41487
71.78032 41.37893 11.92331
62.57048 37.89116 12.22241
58.49011 36.61032 12.32031
52.32148 34.49519 11.70269
42.26021 72.33693 72.44489
39.00601 64.22694 72.85002
46.65549 72.02502 75.92091
39.55275 59.04789 75.06359
36.87381 64.34239 70.91472
39.17222 68.05559 71.54331
38.0522 57.86343 74.28038
38.08408 74.47888 67.90549
40.85035 73.0619 70.9855
38.89866 61.34481 73.77779
38.57604 51.71556 76.7644
37.09304 50.52007 75.92818
35.65274 51.26412 74.56061
35.25303 59.30073 71.29958
35.09622 55.46619 72.57792
35.61039 49.32452 75.09109
33.51736 51.38148 72.63488
37.84168 69.71462 69.64332
35.6617 67.89394 68.25492
34.06569 46.20148 74.84382
32.39653 57.82504 69.09579
32.67564 46.91429 73.32459
33.88581 59.99954 69.71148
34.82877 65.38691 68.51521
32.61964 44.98322 73.8962
32.5251 42.09305 74.78541
32.26956 54.95502 70.08269
33.50016 66.06169 66.81091
31.69362 38.60248 75.24279
29.63994 40.63506 72.66799
30.6056 47.97418 71.00049
30.49563 45.09361 71.93619
29.92631 62.00768 64.51902
31.83127 60.06701 67.54211
34.36548 69.53152 66.2514
30.75436 51.81373 69.7464
29.42414 52.48971 68.0469
28.43172 58.85382 64.1205
29.57377 55.34573 66.99148
27.15361 46.79353 67.73701
28.08469 52.18829 66.5766
28.07893 35.55651 72.87258
26.71669 36.25221 71.26972
28.31003 42.29356 70.76621
27.72905 44.54524 69.25988
24.40913 55.98689 60.1252
26.88902 54.7467 64.06862
27.122 58.5341 62.56062
30.78041 65.48436 63.99339
28.92504 67.39457 60.8207
28.06723 63.92021 61.35753
25.92964 32.73399 71.5932
26.28062 42.34559 68.52099
27.97059 62.01423 62.05159
24.5877 33.41712 69.92888
26.37932 44.25032 67.82058
26.64432 49.98357 65.8133
29.16682 71.1766 59.28621
27.75275 68.95567 58.4437
24.30291 42.36574 66.12
24.04455 36.62832 68.10731
24.44275 65.72165 55.15492
24.18435 61.9498 56.73951
25.42408 51.57442 63.58081
24.28847 54.0957 60.89169
23.8088 29.89401 70.2278
22.72566 36.3142 66.57502
22.53643 31.51692 68.15249
21.51725 37.89772 64.3068
25.23606 47.75919 64.95318
25.36854 61.36419 58.87932
26.35886 66.72241 57.54018
25.30659 69.19219 54.59991
26.75316 72.37579 55.14309
23.92833 47.43828 63.3873
24.04506 49.33191 62.63259
21.12564 28.31108 67.5014
22.44635 28.62401 69.0282
18.93306 40.90477 58.94119
18.4341 38.3196 59.3892
20.9969 40.11185 62.61781
22.3341 41.3974 63.8935
22.7125 48.0435 61.3429
23.39274 59.41744 56.87532
22.312 60.92186 54.22229
21.07894 60.10665 52.4399
21.6598 64.43419 50.99139
23.09122 64.17562 53.80741
21.33455 45.80028 60.39152
21.45853 47.68939 59.6149
23.20925 56.58222 58.03272
22.67144 66.01818 51.89592
20.01247 32.78429 64.3419
18.95362 36.24101 61.21999
22.32463 52.1415 58.85172
19.70053 22.16579 67.4977
20.5182 42.3003 60.80332
19.76158 20.16241 67.71639
18.42975 22.80487 65.61899
18.41377 20.84912 66.07002
19.82882 27.98356 65.90259
17.36178 28.23288 62.12181
20.49119 53.09887 55.25821
18.7592 32.42983 62.61179
19.44495 43.48273 58.47871
19.48288 45.25031 57.52781
18.99662 48.02568 55.2375
20.49155 51.3093 56.16581
17.48201 34.91212 59.3254
17.1403 20.50699 64.4007
17.17439 18.52031 64.70081
15.91197 18.17138 62.99821
16.60933 23.71056 62.54229
16.55806 31.48843 59.2297
15.77496 24.40519 60.79072
15.68653 26.24531 59.98269
14.86585 22.76237 59.77029
14.87976 18.81046 61.18798
164.7935 36.40277 84.9919
20.02238 17.27534 41.31311
17.42513 15.57351 41.4122
21.67376 18.29089 40.73912
14.91158 13.81911 41.6258
15.78294 14.38613 49.4855
12.60324 12.32363 49.66581
11.21177 11.29873 44.70652
11.72767 11.6858 47.46741
10.03248 10.73231 46.53049
9.419357 10.20242 44.68921
7.394029 10.19032 47.10808
10.26247 11.21302 49.0858
208.725 23.62187 21.98678
208.7142 22.27033 19.429
208.9328 24.32645 19.7885
209.1395 26.62094 21.46399
209.1912 29.85824 32.71079
208.6397 24.21774 28.50509
209.4194 30.19847 27.4083
209.3167 26.91199 19.2478
209.6418 28.89378 18.65149
209.5233 29.60933 20.9094
209.6997 31.50846 21.8417
208.5494 21.23452 21.35009
208.354 19.68796 19.98699
209.4714 30.347 24.6923
209.8684 33.40502 22.76599
210.0053 31.96151 19.3789
210.0805 34.61493 19.4847
208.0804 19.65011 24.07041
210.1805 36.36826 22.13642
210.1846 37.19081 24.59249
210.3604 37.61573 19.77649
210.4552 39.31839 21.46772
210.7074 42.26066 20.77562
210.5939 43.92822 24.17541
210.5978 40.13051 19.32371
209.773 33.2414 25.43679
210.3334 40.8528 27.62949
207.8761 19.11516 29.2244
210.8706 46.05801 21.05701
211.0217 50.80242 21.00721
207.9549 18.11321 27.04018
210.1802 40.66886 30.23982
209.9174 35.95049 28.78758
210.9276 48.86682 21.54598
210.7362 48.66959 24.11649
210.5704 51.1399 29.91369
210.502 43.76579 26.84993
208.3231 24.66739 36.1672
208.1638 21.95312 32.80082
208.7309 27.66414 35.6375
209.457 33.62621 34.48471
210.4019 45.43812 30.26378
211.1057 55.52329 20.8872
210.8998 56.2724 23.12398
211.1052 58.3709 19.65562
210.9675 60.10152 21.9205
210.9847 62.01018 21.3013
211.0631 60.38399 19.62093
210.3334 45.28381 32.96271
210.8247 59.92122 24.54159
210.7536 65.53932 23.94119
210.8994 64.76922 21.6417
209.857 36.75051 31.17639
209.8217 38.44536 34.6581
210.7154 60.63892 28.26458
210.6996 56.82797 29.52239
210.7864 68.4699 21.63449
210.606 68.21145 25.60171
207.4511 22.26419 40.0489
207.7099 24.25737 39.68209
207.7114 18.58587 34.40729
208.0544 21.78461 35.4569
210.5179 57.45531 34.5549
210.5594 55.69733 32.46489
210.5549 60.45253 30.86731
210.6998 71.43737 19.33429
208.3285 27.39311 37.9875
209.6456 36.48109 35.11122
210.5152 49.15268 31.87829
210.4971 48.32537 29.40759
207.6066 19.58431 36.57252
207.7247 26.10023 40.44572
208.8567 31.38317 37.26509
209.006 34.22428 37.85059
207.3229 19.43548 38.69149
208.2395 30.08569 39.7093
209.3549 37.20052 37.2594
209.698 40.1745 36.6621
210.0677 44.10918 35.7742
210.3648 48.01847 34.81022
210.2318 46.06928 35.30842
210.4494 54.57718 35.43907
210.2935 64.8572 34.54229
210.3605 61.07534 35.88659
208.9801 37.89039 39.31969
209.1379 41.68577 39.5954
206.8889 21.93732 42.23192
207.0078 24.76783 42.78561
207.7855 30.74778 41.68671
207.5397 28.75919 42.06711
208.3185 34.73968 40.96931
209.7364 44.81442 37.87979
209.9226 46.78221 37.43729
209.5288 48.4168 39.159
210.0273 50.55906 37.65759
206.0915 25.20312 45.66532
206.7659 30.19566 44.7771
208.0702 32.7502 41.347
207.4102 32.389 43.42788
207.6217 34.36572 43.01181
210.2006 56.26256 37.31242
205.8772 19.7363 45.08221
208.3712 37.54712 41.4539
208.5002 41.33238 41.69959
208.6926 43.30243 41.26349
208.3044 45.89034 42.67249
210.0526 54.30813 37.79489
210.1115 59.02041 37.6488
209.1438 58.48641 40.79339
209.3778 62.37347 39.76348
209.2662 60.43185 40.2841
207.1553 35.97493 44.65771
207.6961 43.70959 44.0594
208.7048 49.83581 41.81671
209.0846 53.77413 40.93921
209.9909 62.71835 37.63369
209.7882 65.43626 37.85151
210.0644 70.35477 35.16188
208.2931 53.36679 42.88259
208.6018 56.32878 42.24938
208.1097 59.83181 43.23143
204.8619 21.78849 48.10682
205.8484 28.79311 46.90751
206.8342 47.01812 46.04018
207.1584 49.98548 45.42318
209.8639 67.36548 37.2934
204.4225 19.86856 48.9859
207.3558 40.73657 44.65961
208.2654 61.78887 42.75689
209.0289 69.73203 39.62079
208.9312 66.8437 40.47447
209.4167 71.83541 38.00359
203.7744 22.16388 50.8076
208.7805 63.93702 41.2727
208.0426 71.09411 42.10889
207.0796 68.72417 44.51019
208.1762 66.4493 42.45609
202.9546 19.95094 52.56179
207.3511 72.62452 43.51959
191.6581 26.74152 69.77561
186.9307 27.51429 70.8724
179.3885 32.01259 78.76971
118.4634 46.44818 94.24162
116.587 45.85965 93.75712
47.96423 32.614 83.69711
15.29701 16.25229 62.46069
186.1823 28.7527 73.1914
175.0455 33.552 81.11301
123.5359 45.76398 93.91221
50.60566 33.3984 81.46742
23.91721 19.90868 11.63322
15.71015 14.76533 58.83428
13.18792 14.80378 60.19118
8.309437 10.74327 49.17699
3.949879 6.844115 27.8042
150.2339 40.40648 89.39919
154.4871 39.53667 88.58851
152.4123 39.70159 88.04721
156.1498 38.78666 87.77869
160.9539 37.77898 86.60799
16.59006 15.50348 60.71869
11.71298 14.30101 58.54329
181.7067 29.76758 73.4404
183.6749 29.10871 73.30969
182.7019 29.60993 75.20708
184.6433 28.53591 71.39471
11.62448 12.10059 52.13141
26.23987 21.11388 38.86771
6.047829 9.220076 41.71312
5.138634 8.634579 39.67661
114.4112 46.31753 13.80318
135.2609 43.90271 15.1881
40.42577 29.31942 11.1368
37.32869 27.87013 11.04972
32.09931 24.92548 11.71461
33.20585 26.49296 10.32779
4.491738 6.68217 21.98058
19.43482 16.64973 11.5076
17.61838 15.46837 12.30821
14.90077 13.65973 11.11388
4.960416 6.901694 15.77678
9.55203 9.591651 11.6061
7.758817 8.28929 12.52741
5.924402 7.201803 13.2345
151.6962 39.87874 81.71269
154.1693 39.25408 80.70362
161.5672 37.05169 82.96421
157.128 38.36639 84.11169
167.4765 35.14821 82.59022
164.5208 36.08287 82.773
158.615 38.03993 81.37059
159.1029 37.81093 85.79612
162.0677 37.01813 78.48981
166.9963 35.49672 76.40451
162.5541 36.76517 84.69909
159.6003 37.73029 79.52049
168.4626 34.85055 80.74301
171.4116 33.81218 80.5347
170.4366 34.28222 82.42428
156.1486 38.76818 80.61561
157.1363 38.49448 78.77442
173.8674 32.91978 79.45949
174.8478 32.5327 77.59029
175.842 32.3614 79.3536
163.0571 36.76976 74.86528
159.1179 38.04411 75.11592
173.8726 33.00066 75.9002
170.925 34.06013 77.90342
177.7958 31.47901 77.37821
175.8346 32.24511 75.7457
168.9611 34.78558 78.05058
169.9445 34.44548 76.193
160.1028 37.72743 73.26409
178.7722 31.03007 75.49372
171.9116 33.77051 76.0583
155.6606 38.99486 76.18952
177.7938 31.4482 73.7913
172.4102 33.70644 71.57639
179.7539 30.66386 73.62971
180.7367 30.31404 71.76971
175.3488 32.50707 73.11788
168.4744 35.03288 73.62962
169.4641 34.79166 71.79639
164.0486 36.55542 71.24913
158.1318 38.34213 73.3839
154.6731 39.27119 74.45222
181.7158 29.90771 69.89568
179.7608 30.77151 70.077
185.1359 28.3807 68.67999
174.8666 32.82471 70.50401
160.6047 37.71449 70.58451
154.6813 39.39916 70.90452
183.1843 29.29623 67.08428
178.7907 31.3176 68.40619
170.9456 34.37979 69.03422
167.9938 35.37501 65.6527
167.0069 35.6604 67.4969
166.0137 35.84899 72.8963
172.9051 33.58627 68.8704
175.3618 32.70848 64.21959
164.0524 36.61479 67.6845
159.6171 37.99016 68.84688
156.6567 38.85199 69.01181
157.6484 38.64081 67.186
186.1132 27.94613 66.79901
160.5991 37.62795 66.98388
155.6657 39.07407 67.26098
188.0575 26.91777 64.7876
179.7715 30.93661 64.74891
174.8738 32.93652 66.95229
185.137 28.39757 65.1049
182.7019 29.61059 62.67989
181.7231 30.02162 64.55499
170.9441 34.35619 65.44918
162.0856 37.29452 64.24108
164.5508 36.54886 64.9918
156.1654 39.02848 64.57332
157.1577 38.82582 62.74959
154.1907 39.58632 64.67912
179.2836 31.16639 62.1132
172.9095 33.65416 63.51832
169.9636 34.74111 63.73858
166.0309 36.11512 62.22421
164.0583 36.7067 62.33841
160.1115 37.86243 64.34938
168.0003 35.4758 60.30881
158.1475 38.58555 60.91669
161.1051 37.67998 62.5307
163.0773 37.0828 60.62561
155.1762 39.2781 62.82932
154.6933 39.58536 60.21279
157.1627 38.90378 59.18971
158.1496 38.61828 55.55591
206.126 18.69912 19.20903
205.1634 19.36186 17.56689
203.2007 20.10561 17.71858
189.6155 27.69161 17.57762
186.7095 29.39571 16.16061
169.0522 36.19732 15.76239
158.7007 39.36852 15.4826
156.7235 39.88601 15.57839
153.7517 40.57146 15.69971
151.2985 41.50499 14.9954
47.17807 32.68827 11.177
48.77937 34.13351 10.66282
45.10556 31.73108 10.9089
42.03502 30.88708 10.65281
129.9046 44.92987 14.6029
124.9138 45.48747 14.66072
121.9116 45.70211 14.66581
119.9093 45.83241 14.66611
95.24745 45.3567 13.26311
90.6697 44.52552 13.881
88.63863 44.21003 13.7713
55.95768 36.3148 11.31272
53.91621 35.83838 11.1632
117.4267 46.31002 13.8492
108.3731 46.22526 13.68481
106.3611 46.20452 13.64779
104.344 46.10569 13.5915
98.27912 45.59858 13.37069
93.22003 45.09778 13.16738
84.67475 45.101 12.1378
77.44151 42.06843 13.06742
63.69882 39.42872 11.3059
89.72249 45.42602 12.29769
73.49661 43.25391 11.5065
23.27446 69.43847 50.87632
24.28343 71.02413 51.7838
19.84202 63.83242 47.58811
20.96259 68.93249 46.55349
22.89709 71.25677 48.91691
23.45857 73.80624 48.3982
24.36852 72.76459 50.7797
18.5565 49.87998 53.34899
20.20306 62.02335 49.566
19.04029 64.81202 45.08442
19.11446 56.0102 51.01842
19.54645 54.16055 52.91611
18.51673 43.64021 56.5719
18.35432 57.86039 48.0136
19.18351 57.75989 50.03241
18.77253 67.46198 42.54699
19.76012 69.95453 43.02469
17.70767 50.88658 50.89849
17.97026 59.68268 46.06178
18.52289 69.20697 40.44321
18.68337 70.90445 39.35379
17.49579 41.16679 56.1319
16.80394 49.24072 49.87201
16.68986 45.72762 51.81688
17.86075 64.9261 41.9836
16.44792 59.806 41.8705
16.50488 35.09761 57.4739
16.52668 37.76909 56.08732
16.59996 41.30573 54.18852
16.1782 54.59274 44.89928
17.11222 58.01065 44.98371
15.74316 59.83533 39.711
16.35386 63.25109 38.68279
15.6258 28.96417 58.68939
15.58013 31.6744 57.3791
16.49858 33.31191 58.38901
15.12157 33.53919 55.5115
15.32123 41.47668 51.19988
17.30707 67.5527 38.29142
17.99594 70.9237 37.1747
16.91054 69.19439 34.87548
14.26051 26.50077 57.16062
13.87679 22.95477 57.93232
15.20511 36.17544 54.05512
14.74216 47.69672 45.72049
14.99285 52.92077 42.71311
16.6199 66.67717 36.56602
16.10148 66.59962 34.1959
17.24309 71.68771 33.1375
14.67328 29.13548 56.81008
15.27945 39.71143 52.15508
14.38213 38.06181 51.12129
15.55186 56.36628 41.74319
14.79935 55.52829 40.09178
14.26844 56.35263 37.28181
15.87352 64.941 35.36159
13.80426 30.15382 54.38238
13.90345 35.46489 51.54639
14.46546 39.80328 50.11919
14.5764 43.31828 48.17781
15.60165 65.61656 32.25869
16.46077 69.07739 32.4277
16.08928 68.02084 30.3455
13.61255 18.4455 59.02278
14.28862 16.45578 60.64451
13.80564 31.94232 53.47291
15.20859 60.66163 36.9052
13.53098 20.28162 58.20709
12.96189 28.47273 53.28658
12.67468 32.92323 49.86319
12.77596 35.54906 48.38681
13.40415 41.63898 45.97682
13.92656 45.10553 45.0483
12.55944 43.35041 41.58938
13.15276 43.38498 43.87492
13.66917 46.85498 42.95319
17.5294 73.83229 28.49561
17.32318 72.34885 31.11482
18.18772 75.61906 29.79958
12.14861 21.40678 54.88172
12.96039 24.00012 55.5582
12.95517 25.79249 54.65609
12.11526 36.44783 45.7235
15.32224 63.98763 33.48261
15.09616 62.32787 34.64621
15.67868 66.98658 28.30741
16.85737 71.34636 29.13919
12.20824 18.68857 56.17622
11.75383 26.81376 51.126
11.8681 31.22164 48.72689
10.74813 28.61751 46.92069
11.60143 32.9764 46.6423
12.60222 48.50627 37.33912
12.74549 46.82232 39.56321
13.95672 52.05811 39.90421
13.58635 54.57939 36.00469
14.79928 62.83034 30.09349
12.81681 16.73759 57.8742
13.65771 14.30721 57.92001
12.70819 50.23493 36.3113
15.35439 65.38345 29.58208
11.72501 23.25172 52.97449
11.43315 36.46411 43.53851
10.97812 33.8536 43.93679
14.10141 58.75732 33.1524
16.07338 68.1745 23.99689
16.72757 71.04577 26.32982
11.49099 16.04099 55.3928
10.59948 24.22936 49.3587
10.83502 30.35701 45.9145
11.98827 39.91182 42.573
13.76577 57.6802 31.0297
14.82862 63.52063 28.12821
10.25177 17.08413 51.9056
10.97919 38.13882 40.18751
12.16037 48.38468 34.88231
12.49698 50.87567 33.1398
12.95639 53.48356 32.73651
16.59938 69.28702 19.53799
15.26949 64.11941 19.3311
10.95528 20.63407 52.25047
10.21949 20.68127 50.12611
11.89343 45.85386 36.54611
13.50239 57.45609 28.37119
10.00567 25.98436 46.16579
9.808084 28.59433 43.54918
10.27379 35.48438 39.39068
11.45097 40.73967 39.77031
10.96364 40.64424 37.36499
13.24063 55.81702 29.57511
12.87941 54.37953 24.52499
14.38559 61.42278 25.1027
13.83487 58.30468 21.17482
12.77633 53.91903 28.05179
14.07736 59.99793 27.83731
9.526862 18.01939 49.31492
9.530021 20.70178 47.9494
9.901842 30.32978 42.53519
10.42385 37.18771 38.31312
19.23165 78.55578 18.95872
19.81159 79.63736 14.43869
17.81495 72.87551 14.41559
17.12695 70.21113 13.5991
17.03137 70.82851 18.1416
10.07221 13.42077 52.44642
11.62941 46.52501 33.43439
12.44014 51.42791 29.7938
13.02226 54.15304 30.73001
9.576341 16.20181 50.16699
9.339405 24.2023 44.87079
8.921592 21.57051 45.22711
9.474909 33.5908 36.76748
9.428864 31.12079 39.65971
10.90114 42.28194 35.04959
11.83834 48.0069 30.81211
12.09505 50.35622 27.68171
13.31375 55.35711 18.6916
12.75571 52.99325 20.68439
16.84937 69.10057 11.41071
9.346699 11.67275 51.21842
9.328788 13.47227 50.3307
8.843852 17.14171 47.58489
8.251121 18.89599 44.3908
8.246323 16.21474 45.75822
8.913746 19.78559 46.14389
9.080587 25.95259 42.77742
8.93428 27.63833 40.5567
10.02487 37.04162 35.80803
10.63945 42.05699 32.38919
10.88178 43.51969 29.7291
11.3527 46.12107 29.31282
11.58127 47.77927 28.14639
15.57322 64.4647 15.57752
16.22565 66.58693 11.9997
14.53019 60.21471 16.0704
7.92536 23.18121 39.5329
8.057347 21.50358 41.7698
8.389859 26.6809 38.66988
9.412689 34.33366 34.90579
10.00952 38.46462 31.96108
10.88132 44.03962 26.31938
12.38189 51.60577 23.4932
8.842496 30.89459 35.88831
8.487036 29.8288 33.78791
10.46017 41.5972 28.1575
10.33757 40.06566 30.68218
11.8199 49.05672 24.01239
15.17755 62.33979 12.49841
14.99151 61.7394 14.64081
6.862505 14.2817 40.84009
7.599613 23.88771 36.49101
7.776155 25.57583 35.3834
9.069001 33.26113 32.79212
9.750357 36.824 33.16212
13.97202 57.66339 16.58529
13.85895 56.27097 12.73268
15.5525 63.91402 11.16651
7.40455 17.02977 41.82151
7.516733 20.54412 39.87882
9.814976 37.3065 29.6787
10.01576 38.98073 28.5438
7.783739 11.63174 45.59478
8.527515 30.5127 31.80999
9.367829 34.87904 31.54629
11.74117 47.64457 20.12101
14.55876 59.63571 11.60371
7.198198 9.803307 44.20859
6.979442 18.68792 38.43799
6.910636 16.93798 39.4237
8.909693 32.08281 30.47001
9.16346 33.72664 29.27509
9.560226 35.99543 25.9864
9.421883 35.36762 28.07489
10.44423 41.04383 23.7411
12.36475 49.7833 16.5759
13.30262 53.71864 13.24561
7.764681 26.1019 31.98621
11.43843 44.19674 14.43461
10.63163 40.18624 17.61669
13.91661 56.94522 10.73542
7.262683 23.51851 32.43759
7.006957 21.16872 35.56681
8.397033 29.31787 29.4553
8.630997 30.97303 28.2827
9.272335 33.80872 22.7854
8.445082 29.62239 24.5125
9.633696 35.39069 21.46891
13.44774 54.34252 11.14941
6.435929 10.57256 40.18208
6.558476 17.65973 36.41158
8.149831 27.67028 30.64269
11.94459 46.59028 12.50041
6.449147 15.93311 37.44322
6.126864 15.74297 34.85128
6.287246 17.44033 33.76201
6.82967 20.89531 32.81102
8.138223 28.19658 27.24561
12.95519 51.75347 11.59009
5.944817 11.37401 37.32708
7.264583 22.24762 29.93309
7.751508 25.73438 29.04481
7.128096 21.38818 22.69667
8.219717 27.58725 22.71909
12.0566 47.23324 10.4416
5.833773 14.64142 32.68039
6.74521 19.67401 30.40421
9.37984 33.37188 19.70762
8.860474 30.79827 20.17859
10.10728 35.97058 12.63478
5.512832 9.457541 35.7672
5.162588 9.283316 33.20691
6.35585 18.10796 31.75229
6.899177 21.1875 27.84398
11.58861 44.63012 10.85448
5.647107 12.95913 33.79941
6.80068 19.97418 25.45309
6.480134 18.55637 28.20161
7.464348 21.52742 17.42819
9.57091 33.78178 16.0813
8.618204 27.12811 12.94571
11.14767 42.01145 11.23691
5.29836 10.9948 32.14538
6.111747 15.189 30.43398
6.088054 15.9098 28.52869
7.793932 22.94011 14.66951
10.72229 39.38396 11.60172
5.476935 11.59949 30.01142
6.36722 17.16388 24.34891
6.763837 18.53807 21.51433
5.706219 13.25734 28.84421
5.760713 13.93331 26.85049
4.815756 8.212578 31.09682
5.314788 11.31738 27.23849
5.803122 13.53366 23.84633
7.889485 22.51018 11.6052
9.875586 34.8338 10.39451
5.07406 8.77161 28.87258
6.042747 14.10354 21.64331
6.436041 15.29212 17.33428
9.428946 32.21853 10.78328
4.908598 8.491409 26.10341
7.131925 18.09652 11.77529
5.165233 9.051275 23.8812
5.63491 11.27834 20.51011
6.670153 15.48995 12.18131
8.408306 25.97881 10.68079
9.054733 29.56171 11.09022
5.01079 7.682693 20.07541
5.277893 8.236599 17.84131
7.372817 19.74763 10.59499
5.510292 8.810413 15.6464
5.771874 10.26208 12.96452
6.206109 12.88451 12.58981
4.920921 5.102766 18.0217
207.8154 19.10682 31.32141
210.8201 44.34009 19.90479
211.0537 52.98216 19.85669
210.9786 46.89426 19.20012
210.8788 66.63205 20.0133
211.0751 64.1271 18.83459
158.9487 103.5038 81.36359
157.8286 106.6393 81.05648
155.7051 101.7613 83.06453
154.7414 107.2132 82.06892
152.1356 103.5435 83.9076
154.5963 109.1753 81.58299
149.9524 108.8383 83.18523
156.4647 114.7694 79.29268
153.108 114.3236 80.60902
149.9549 113.6583 81.79551
153.2363 118.2051 79.3747
153.3201 121.0849 78.38848
150.718 118.0913 80.24248
147.4235 115.2948 82.03149
145.7277 112.5183 83.2614
147.3924 102.718 85.4913
149.9203 100.4154 85.32152
145.7306 109.6341 84.12188
147.4375 98.97937 86.3314
144.837 101.4219 86.42209
145.7192 119.245 81.24271
148.2765 120.8399 80.09079
146.6679 123.9067 79.4639
144.0268 113.5853 83.33671
143.1663 117.9533 82.18861
145.7184 105.7597 85.17081
142.3055 104.9842 86.09509
142.3191 110.7875 84.49373
141.4615 115.1607 83.36332
149.2104 124.0812 78.71258
141.4523 118.9966 82.18288
144.4441 125.5683 79.38269
140.5513 125.2181 80.2235
138.8645 121.4945 81.78949
138.0318 112.4288 84.74609
139.747 108.498 85.60172
146.8416 131.4616 76.5948
144.2469 129.3765 78.02141
148.4272 126.5573 78.0375
142.518 128.5818 78.66761
144.3024 132.1854 76.89899
140.0153 132.067 77.75798
137.9493 127.6905 79.74249
135.4158 121.618 82.21251
137.9365 103.5677 87.19009
132.8493 111.6337 85.603
134.5855 110.6302 85.74569
135.4464 114.9311 84.36739
136.298 118.2522 83.21372
138.8856 116.717 83.32449
135.2886 132.947 78.05771
135.3555 128.2515 79.87452
141.7823 134.737 76.36872
139.2006 134.464 76.93091
131.89 127.3816 80.47509
133.6755 122.6141 82.04472
133.6092 129.2368 79.66959
133.5378 133.9241 77.8248
127.4786 130.726 79.40069
136.1034 136.2019 76.67652
135.2713 139.5489 75.30841
133.4869 136.722 76.66862
132.8368 117.3899 83.84022
128.8763 143.1686 74.09781
129.0975 138.1797 76.2918
134.1224 142.1416 74.29761
138.4065 138.6929 75.2773
128.4849 116.0257 84.5376
128.2177 108.0722 86.88572
135.1973 108.037 86.3975
128.4683 119.8483 83.31132
127.528 126.9621 80.82849
133.5005 107.0637 86.8488
128.437 123.6447 81.99498
125.7978 142.4805 74.4817
128.2674 135.8604 77.29739
123.8525 137.2722 76.76339
123.158 125.5655 81.41449
124.9419 122.7214 82.4126
124.5428 112.0212 85.85289
122.8963 109.0659 86.71671
126.7343 117.0033 84.30639
125.7387 129.7966 79.7973
121.4494 119.8766 83.40821
126.2561 145.4691 73.0851
118.7924 121.2871 82.86959
115.2692 118.3872 83.6764
117.9394 116.0374 84.57738
122.8525 142.3526 74.47478
121.1605 139.5831 75.72848
120.5114 126.0315 81.2209
120.3632 135.3963 77.4979
121.3028 132.1338 78.8528
120.5893 115.5772 84.79121
115.2001 125.968 81.00322
120.0519 144.9739 73.22022
119.1441 142.6882 74.26128
114.5945 114.3025 84.97441
113.8966 112.0059 85.641
118.3777 111.5294 86.0067
116.9375 128.8191 80.02898
115.0992 132.5286 78.41489
113.4111 126.8766 80.53517
109.8658 124.9001 80.92472
112.4047 133.8717 77.64521
115.8675 138.5893 75.90452
117.6636 137.6935 76.41628
112.4435 143.6783 73.21209
113.1387 140.8338 74.64209
115.7504 143.1944 73.77809
110.6851 130.0892 79.00918
111.7266 116.4155 84.08239
112.586 120.7137 82.69531
109.0173 120.6213 82.3786
107.2623 114.8491 84.08669
111.4457 137.0994 76.17089
108.4688 142.4375 73.29339
106.3527 137.5024 75.31479
106.3446 135.6619 76.15602
104.5668 117.1536 83.0301
105.4568 128.6469 78.94281
107.1821 125.8962 80.23739
105.4618 130.517 78.19799
108.4619 112.9559 84.867
105.445 123.0058 81.07808
102.8378 114.85 83.56923
101.9783 120.0301 81.64129
100.2577 124.6539 79.61178
99.3818 118.4844 81.73528
104.0961 109.4743 85.40592
159.0318 95.64729 83.01142
157.821 91.83909 84.16909
154.1227 98.83071 84.27098
153.3585 95.37454 85.163
153.387 93.38422 85.45959
162.2263 90.45519 82.564
163.0215 96.79373 80.98951
158.9847 88.73327 84.24592
152.6023 90.9207 86.16972
149.9847 97.43811 85.8818
149.3256 86.01709 87.9128
152.0316 84.74077 87.2539
155.2899 85.77116 86.05951
147.5911 90.03259 87.80131
144.9715 95.54859 87.57541
140.8696 86.16461 89.9564
143.4598 82.6387 89.88142
144.2294 89.09889 88.80138
146.6987 93.53162 87.50299
144.0724 98.04429 87.31321
139.9578 90.65695 89.48252
147.6539 85.05352 88.49758
139.9176 92.64268 89.12328
140.529 103.0447 86.91061
149.79 80.19598 88.54622
144.8916 76.14364 90.25541
142.3221 100.0524 87.26251
138.3434 82.71058 90.87929
146.3467 81.1816 89.3454
141.5702 95.60026 88.29167
138.2984 86.69592 90.34991
137.3368 93.1703 89.46571
139.8364 96.61408 88.40141
135.5506 96.16508 89.15052
135.3638 103.0979 87.64789
132.7726 102.6208 88.00659
136.5248 90.69629 90.02978
136.571 87.71224 90.49311
133.157 84.75704 91.3589
136.6389 81.73431 91.28901
133.0295 92.71307 90.1002
134.0734 78.26521 92.00171
134.6012 99.64229 88.54809
132.9622 95.68919 89.5243
146.7835 72.13123 90.1821
129.2457 103.6248 87.98018
131.4756 78.78633 92.2533
132.3593 74.28332 92.5771
125.0417 97.20351 89.6
127.7687 93.73023 90.25469
131.1166 99.66178 88.8198
129.7149 81.791 92.0741
131.3477 89.74434 90.77579
129.6565 86.77192 91.40161
127.8535 89.76032 90.99671
130.4059 93.2243 90.2141
129.7543 75.80216 92.71809
125.2683 87.28416 91.53211
127.5831 100.6633 88.75871
125.3947 76.32549 93.00089
123.4264 91.25818 90.84699
127.0547 85.28997 91.77569
127.0933 82.30294 92.1987
124.836 104.1288 87.9961
124.4719 81.81418 92.39608
120.5896 98.6919 89.31711
122.6718 84.80377 92.00698
121.5647 95.22469 90.05669
117.0416 98.68707 89.25
118.5974 105.61 87.61281
121.8643 79.32951 92.8115
116.3049 93.2401 90.43342
118.1777 89.27788 91.2829
120.1055 78.33226 92.93202
117.4724 77.83909 93.06699
117.424 81.82319 92.51982
112.3423 106.0842 87.21411
118.2368 86.29872 91.81508
114.4727 95.21659 89.94502
112.4123 104.1098 87.7324
112.6009 82.51472 92.31439
111.0823 88.26788 91.22491
113.7009 90.75679 90.86788
114.8129 78.33649 92.98912
112.5965 80.52172 92.62812
111.7198 76.03182 93.22712
111.7244 97.68112 89.24797
109.1368 94.20343 89.84271
111.2699 110.5145 85.8826
108.2781 88.97211 90.90328
106.0267 106.535 86.49191
100.5482 107.2827 85.56092
98.79704 103.3071 86.39261
105.2557 103.0762 87.34769
102.2494 100.3598 87.68868
98.7836 100.3344 87.1928
103.0983 95.90103 88.89139
98.51374 115.1169 82.7311
111.9238 146.2488 71.8565
110.7055 142.7145 73.49092
102.0349 138.6684 73.98722
104.6261 138.3472 74.64889
103.2781 142.0361 72.61223
102.0224 135.9112 75.26091
102.874 132.723 76.83891
98.58249 138.4339 73.22559
99.42608 134.3636 75.34811
101.1328 128.9131 78.10268
93.78963 142.1529 69.84639
92.07147 139.2329 70.82
97.23695 141.7664 71.1666
99.41469 131.5954 76.5861
100.5742 112.2283 84.05441
95.94033 124.8577 78.56852
95.97109 133.1945 74.96038
92.49938 127.3903 76.56571
99.81797 146.0856 69.60362
95.06501 119.6415 80.37892
93.33296 115.7441 81.35861
93.64475 111.1699 83.00459
90.79546 131.855 74.01872
91.21856 135.9457 72.15798
93.39634 135.2769 73.19981
96.3709 143.8753 69.80512
88.1613 116.2847 79.7042
91.61856 121.2676 78.84139
87.30471 118.5611 78.574
84.74192 124.3652 75.26308
84.72972 120.6458 76.82112
87.77853 134.4869 71.65861
88.15336 110.607 81.72071
87.29674 113.8426 80.29622
90.16941 108.162 83.1193
89.04981 126.1695 76.00981
88.19841 128.3965 74.71907
86.0661 131.4753 72.4766
82.99569 115.8086 78.15719
86.70715 107.1258 82.50359
92.7606 107.7003 83.91088
84.74957 126.21 74.4361
80.44079 122.4964 74.30741
82.63881 128.0839 72.64999
84.70529 109.372 81.1184
84.71093 113.1537 79.76329
83.01306 121.3964 75.84929
82.14507 118.987 76.54738
80.40153 108.4872 79.9489
78.91836 103.5386 81.1184
83.23035 103.1196 82.73968
78.70315 116.7346 76.05019
75.26112 113.5243 75.85171
77.82955 111.5021 77.80769
79.21102 126.4292 71.81829
76.09853 103.7596 79.9363
71.12814 97.95119 79.90539
75.42272 95.57112 82.46571
74.38728 107.3352 77.91159
76.98919 117.4595 74.99489
72.67884 109.9252 76.09501
74.0801 120.7495 72.06091
67.95841 119.5499 69.24841
72.69765 115.4993 73.74218
71.8089 104.6579 77.73912
71.07418 122.2355 69.70471
76.63873 125.4274 71.1064
68.38228 105.1363 75.883
69.22955 101.0308 77.89159
70.11191 110.9743 74.3877
70.41927 114.0438 73.20002
66.07644 99.58912 76.8519
65.89158 110.225 72.38281
66.26035 107.1088 73.91462
67.67062 95.90133 79.11262
71.10916 94.99212 80.97151
64.41422 97.5116 76.857
61.54426 99.6085 74.44501
64.07445 94.70148 77.79059
67.65151 92.94261 80.18547
58.60645 94.01847 75.041
65.05931 91.4029 79.54511
159.1237 119.9145 76.53728
157.3965 118.0053 77.9044
160.3653 116.7364 77.03587
162.3933 123.9858 73.5783
161.3669 119.9036 75.5147
163.8599 121.752 73.63832
157.8694 146.7794 65.82391
157.0228 142.867 68.08579
160.6529 145.1544 65.3418
159.5173 154.4904 61.08171
156.2257 153.3178 63.1749
159.8912 151.1288 62.69339
162.2831 154.6473 59.68079
165.4424 152.1973 59.32799
157.7249 168.6655 53.5478
156.9354 166.6764 55.15859
161.2244 167.416 52.706
159.7172 164.2745 55.3571
160.5943 161.9773 56.37702
157.9028 108.6052 80.48749
159.6681 106.8608 80.22171
155.031 122.7244 77.19228
155.1332 126.5404 75.83192
158.3594 123.0992 75.73941
156.8254 128.1331 74.5458
155.2055 130.2814 74.32729
159.4785 130.2505 72.56478
155.2549 133.0752 73.17609
158.6032 136.1699 70.42959
154.4891 138.2648 71.19519
157.8799 150.3654 64.02153
160.6858 156.7422 59.35588
163.0222 159.3131 56.69641
163.7299 163.0568 54.11381
157.8231 162.6821 57.26299
160.1317 126.8267 73.59618
161.2229 134.5326 69.92888
162.1304 139.3772 67.2859
159.8041 142.1494 67.17271
152.9056 153.8538 64.20481
154.5665 149.1381 66.0097
157.0281 159.7892 59.3107
152.847 162.6063 59.2905
157.0478 156.2788 61.25829
160.2805 170.5309 51.085
152.7496 168.5916 55.5788
155.9727 173.1522 51.30288
157.649 172.035 51.3294
159.946 110.9588 78.97919
153.7071 143.4139 69.13641
151.1803 140.6091 71.3532
151.2375 150.5419 66.53368
151.0733 132.3313 75.00628
150.1908 130.1088 76.16881
154.4573 165.7733 56.68318
156.8255 175.3332 49.44173
160.0062 175.5717 47.73542
153.381 177.304 49.50118
151.7801 126.1038 77.16599
153.6221 135.1914 72.89582
148.5907 134.9769 74.65658
150.307 137.5197 73.02302
152.8886 158.2607 61.80671
150.3981 153.7669 65.12439
152.6414 173.6599 52.2784
150.1634 171.8673 54.2669
145.7547 179.4533 50.37099
150.9036 176.4028 51.02938
149.095 180.7481 48.5127
157.3947 178.9296 46.57811
151.6863 178.375 49.38591
150.6887 182.9836 46.28861
147.7661 165.8272 58.9599
152.7833 166.8963 56.66777
154.0261 182.4911 45.34242
153.9493 184.0783 44.0459
152.2413 185.1159 43.8664
148.701 145.0428 70.09289
149.5592 148.0941 68.35002
148.4454 173.7699 53.57629
148.1416 183.6875 46.5546
148.5624 133.1259 75.44661
147.035 153.3052 66.41039
147.8823 150.0996 67.857
148.0697 185.287 45.28159
148.6722 141.4107 71.8067
149.5028 162.1919 60.66751
145.9896 170.2531 56.59822
145.3883 188.3239 43.51079
145.5087 185.9561 45.48082
148.8043 187.1386 43.40649
149.6045 190.2648 40.1099
152.1206 189.4718 39.67708
150.7237 188.2248 41.6207
146.8874 134.2462 75.42598
147.002 143.4331 71.34631
147.8354 160.6614 62.07308
147.7932 138.3072 73.44958
146.1037 139.3913 73.3594
145.2351 137.2034 74.5886
147.0214 157.7206 64.0285
147.7219 168.3864 57.35761
146.1317 141.2412 72.5677
142.689 137.9099 74.85941
146.1885 148.5033 69.1359
146.1684 145.783 70.42858
145.262 163.0792 61.28579
144.2505 172.1026 55.8055
145.6439 182.7354 47.98481
144.4427 142.3266 72.48011
144.4523 160.1495 63.2624
141.5615 176.9005 53.07221
144.9872 176.6293 52.55091
143.2036 179.2575 51.0813
142.4975 173.9173 54.94601
142.1238 185.4395 46.6612
144.4907 155.7959 65.76309
141.9407 152.9328 67.86779
143.649 151.896 68.04872
141.4046 181.8468 49.53721
142.0184 187.8452 44.7641
146.0202 192.2389 39.63181
142.7306 141.5741 73.20732
141.0627 157.8413 65.34681
142.6869 191.3108 41.64389
140.1765 142.2603 73.43921
141.9269 146.6686 71.0437
144.4906 147.7864 69.93172
137.6367 156.3317 66.79261
137.6464 154.5762 67.76568
139.9213 173.6585 55.53532
140.8917 168.9817 58.50148
137.6136 143.8146 73.1658
138.5094 150.5203 69.75171
141.8629 162.5271 62.39802
138.6021 187.2499 45.79329
137.631 146.528 71.8601
139.3313 159.7101 64.59132
138.3812 165.3276 61.25972
137.583 161.5368 63.75492
140.9544 165.579 60.6561
139.7868 178.6607 52.1079
139.5837 184.3811 47.8873
138.4089 191.2151 42.54651
136.5722 168.782 59.2041
137.3536 172.5308 56.6282
138.145 175.4148 54.56361
137.8764 183.6406 48.6376
140.6843 193.9948 39.43568
135.8935 158.1711 65.98049
135.8215 163.3302 62.8545
136.3043 178.7895 52.35529
138.0391 193.2324 40.8293
136.6299 192.0748 42.02539
133.2269 162.1351 63.8178
134.7267 173.0347 56.50988
135.0797 188.1685 45.3853
133.4954 184.1767 48.58109
131.9767 190.6781 43.50519
134.9669 190.5556 43.45238
134.1579 145.7905 72.61622
131.3869 166.4016 61.14981
133.9664 168.4488 59.65039
135.0518 151.6013 69.65569
134.1697 148.4898 71.2834
132.383 160.0093 65.16629
133.2847 157.8305 66.4126
132.1306 171.8357 57.46579
133.2914 189.0049 44.81909
133.3053 150.7626 70.21728
134.1724 155.6161 67.59059
133.7928 175.1331 55.10888
127.6035 186.3528 47.03382
125.8477 182.3059 50.0471
130.6741 155.7053 67.76208
128.9186 148.6144 71.52262
126.2813 150.872 70.42763
129.797 151.7164 69.87679
126.2745 154.4147 68.54191
130.5692 163.4517 63.08788
130.1507 179.3113 52.2714
129.3655 190.2993 43.8503
128.8824 159.2028 65.7897
131.1235 176.4204 54.32269
127.8431 167.2664 60.63849
125.1783 167.6753 60.33748
127.0565 162.6147 63.65281
128.5808 172.6858 56.92598
124.8691 178.4694 52.82682
123.5533 160.0216 65.1899
121.8116 157.415 66.70099
123.6283 150.4204 70.64652
121.9477 153.7237 68.81791
121.4541 164.479 62.28188
122.7388 148.1805 71.77538
121.4489 160.2394 64.96799
120.6016 171.5562 57.49482
123.2638 172.6449 56.84742
118.8614 169.8542 58.55858
123.2176 175.3152 54.98099
122.358 178.1858 52.93602
121.4771 173.6183 56.05358
120.9582 151.7058 69.85649
114.5106 159.1187 65.04229
116.2457 153.1243 68.703
115.3847 166.3888 60.58249
117.3842 148.0455 71.51613
114.5181 149.4923 70.44399
111.9192 148.0509 70.96231
63.85433 106.3056 72.8682
59.20609 98.43929 73.56212
62.97919 103.739 73.44061
60.37573 109.8703 69.0656
61.30243 106.0171 71.42138
60.07236 88.23182 78.17051
108.2585 82.00677 92.20541
107.3786 76.52308 93.01278
102.2008 87.45451 90.69479
97.86051 85.93954 90.53549
98.71612 82.46584 91.36021
98.7502 92.40116 89.20872
97.02509 94.37312 88.48292
104.7868 81.99592 91.99241
104.7794 79.00842 92.50298
103.0463 79.99779 92.20928
103.087 92.92294 89.5879
97.83401 76.98728 92.27151
98.69581 74.50034 92.74811
96.19242 101.798 86.34979
91.84287 97.29995 86.79
97.9685 110.7218 84.06132
94.37758 80.9464 91.1178
90.99434 100.7562 85.62469
94.40112 87.90196 89.62658
91.81696 91.35218 88.3438
94.36913 77.9614 91.67832
92.62561 73.96711 92.14538
94.48027 105.7418 84.89829
91.01982 105.7031 84.14358
89.20933 88.84849 88.49648
89.17326 78.91811 90.74429
90.92525 84.89539 89.76749
89.22678 92.81327 87.45262
88.41333 103.1966 84.2416
88.39271 99.23966 85.43837
84.93074 98.20284 84.80757
86.63435 93.27807 86.7213
85.69694 74.91072 90.95779
85.71319 79.88037 89.92019
87.45855 83.87019 89.36429
83.12736 82.33269 88.76818
85.73647 85.83458 88.49269
84.02435 89.77838 87.03971
82.32634 95.69122 84.80608
80.50748 75.85163 89.71569
83.1159 79.35531 89.4734
84.03854 92.74919 86.2036
78.00243 94.13584 83.8601
79.71287 91.1981 85.3422
79.75491 99.10996 82.9111
78.79875 80.78887 88.04831
80.54439 84.77803 87.47962
77.1042 87.6952 85.5971
76.20916 81.24657 87.18053
74.47295 79.23825 87.19352
71.94465 90.56611 82.8149
71.92254 86.61278 84.08311
75.39408 90.63204 84.09929
74.49222 83.19844 86.06172
75.31993 75.78571 88.43341
71.89623 81.66803 85.60449
69.28955 78.16024 85.7631
67.6092 86.0333 82.57818
67.63298 89.98246 81.2299
64.98721 79.55737 83.62672
66.70532 78.60465 84.63779
64.16475 85.95522 81.05469
64.14725 82.99239 82.0494
64.96072 74.61299 85.15689
62.42954 83.94422 81.0194
62.41752 81.96993 81.70012
60.66726 76.99032 82.54212
60.64642 73.03382 83.74912
57.3213 74.92466 81.5444
60.70803 84.56267 79.9422
57.82705 81.08421 79.73009
59.24696 78.97224 81.18641
55.74751 86.57677 76.46883
58.94679 84.65709 78.96319
158.8655 82.78103 85.16729
135.2563 194.3009 40.14829
132.8668 194.6231 39.87038
130.2551 192.9993 41.5158
125.0239 190.6538 43.46389
123.2338 193.6396 40.53101
125.036 192.1892 42.1173
125.8418 194.7882 39.55671
129.0338 194.9351 39.5478
118.9483 190.07 43.46138
121.5264 186.6573 46.5627
123.2937 191.3846 42.72792
121.5664 192.068 41.9116
122.3841 184.6829 48.15233
118.011 176.0343 54.22518
117.1576 179.6688 51.50041
120.6309 180.594 51.09429
124.1206 195.3163 38.64911
118.5728 192.669 40.96538
117.1348 173.1197 56.19559
115.392 169.73 58.348
119.7825 185.0143 47.72681
114.5117 161.6945 63.48512
118.0619 187.3201 45.71122
115.798 189.9002 43.14968
111.9315 171.1923 56.8772
111.0804 175.6539 53.57972
113.6729 174.6028 54.76031
113.6915 179.4918 51.20009
111.9119 155.083 67.08649
116.3027 182.4629 49.32559
116.3246 186.4349 46.18531
111.0483 151.1029 69.22492
111.0559 167.4026 59.33872
110.4334 184.8115 46.36621
113.7153 184.2967 47.49709
111.4 187.6112 44.2293
113.2172 189.2459 43.06218
111.0489 163.1935 62.0766
111.1017 180.4994 49.9458
106.7214 151.2213 68.43811
109.321 148.3293 70.44682
108.4493 153.9861 67.20129
109.3824 181.9196 48.40359
106.7309 145.0198 71.747
110.1807 161.0153 63.32058
109.3142 157.0804 65.53578
104.9971 164.8229 59.90139
107.588 162.9341 61.63642
107.5964 167.9843 58.34979
105.0249 174.7489 53.03219
108.4748 172.5928 55.3017
103.2758 168.0032 57.39379
104.9914 159.7274 63.11131
105.8547 156.7992 65.05859
107.5855 156.0581 65.77718
105.9061 178.4488 50.41808
105.8607 148.0585 69.98721
105.8554 154.1951 66.5679
101.5374 160.2218 61.97408
106.9224 182.1226 47.7511
102.4236 171.6194 54.638
103.473 180.1452 48.38869
103.5328 181.7026 47.10221
102.4031 149.474 68.43701
98.94863 156.0261 63.7469
100.6762 152.7447 66.08289
102.3996 157.3098 63.94911
99.83619 171.7236 53.82681
103.3052 176.1751 51.50008
103.2707 146.4771 70.2678
101.704 177.5661 49.9433
101.5429 164.4552 59.27759
99.22582 178.3784 48.42889
98.27973 174.6931 51.04378
99.81377 150.4745 67.17068
96.38723 170.4079 53.57018
98.95278 148.1808 68.21868
97.22709 160.9393 60.22769
98.95382 163.722 59.02138
94.64069 157.5704 61.4273
95.50557 162.3949 58.7455
92.92498 144.2393 68.44682
93.78036 149.2159 66.02311
95.50165 152.0857 64.9648
96.36959 164.64 57.6151
96.37859 167.9533 55.33332
94.89947 171.7266 51.99999
92.91844 156.4447 61.49319
92.93255 165.7263 55.5065
90.35348 164.8332 54.979
91.2075 162.9169 56.66739
91.20142 158.6924 59.37931
86.90939 140.1026 68.3437
88.62668 141.3078 68.4126
85.18943 144.1263 65.2909
91.19874 149.2278 65.0554
91.20122 146.5952 66.51631
92.05936 152.3919 63.50821
88.62303 156.924 59.3425
88.62166 153.4886 61.41731
88.62183 146.5714 65.48801
86.04477 148.239 63.37759
92.08255 168.4427 53.19959
89.48967 139.2477 69.857
90.33947 152.9569 62.49091
91.60074 170.2715 51.5984
82.62104 137.0116 68.0387
83.48707 132.31 70.92899
88.63311 162.813 55.50298
86.05498 160.1761 55.9687
89.92613 168.3341 52.29819
87.44275 164.1045 54.0722
87.46676 166.5801 52.35779
85.84048 165.3824 52.35392
80.90203 141.02 64.9603
86.04621 154.2662 59.77261
84.33376 156.4408 57.53461
81.76779 133.7298 69.38598
85.18786 151.9302 60.74911
83.47424 153.2593 59.05208
81.04975 145.6009 62.41268
84.19431 159.1738 55.68662
84.19483 161.6993 54.04919
81.77512 130.1552 71.22448
81.77768 156.4868 56.1513
80.99367 153.2996 57.68952
81.00241 159.1762 53.8443
81.7577 148.5849 61.00062
79.3856 154.5898 55.99031
77.88714 141.3303 63.2005
79.19057 138.8571 65.2422
81.00079 151.6001 58.75659
78.78266 135.859 66.74889
79.41539 147.7891 60.2544
79.40912 149.4868 59.18452
77.01777 148.4304 58.47588
78.59082 151.4255 57.56381
77.48357 131.437 68.45969
75.61597 133.2814 66.4596
75.77349 129.252 68.70419
74.06756 125.2719 69.85462
70.15634 126.9121 66.7747
72.4834 129.7892 66.6036
184.1286 146.4231 49.3871
185.5156 143.2161 49.7511
186.8773 146.203 46.80499
187.5637 143.7032 47.4382
189.4655 141.7678 46.36762
189.2658 147.7775 43.07011
188.4549 152.2728 41.24591
188.2895 154.4609 39.88722
186.7467 153.1738 42.81563
183.3831 142.6393 51.89309
191.7617 143.2256 42.6645
190.7999 146.6294 41.77052
186.8901 141.7731 49.15881
184.7965 150.1246 46.72378
186.8528 147.9544 45.82411
184.6506 156.1905 43.16911
185.2031 158.532 40.83499
186.4602 156.9287 40.4858
184.7825 141.2228 51.35119
182.6175 139.7227 53.8927
181.2824 147.4285 51.3061
182.7044 151.3682 48.0167
182.5904 156.5793 44.99209
184.0466 154.3344 45.0308
180.4448 157.7659 46.17608
181.2599 153.6254 48.0015
180.3789 159.4733 45.11139
179.0797 145.8884 53.77141
180.5311 144.5271 53.33468
181.2875 150.1 49.91969
182.3782 160.7973 42.23379
183.9062 160.091 41.13129
183.7618 161.7668 39.87899
181.254 163.9121 41.00132
181.2058 141.1262 54.4098
177.5656 143.6283 55.94289
179.0175 141.3788 55.97299
179.1035 149.4684 51.95722
178.8177 162.4954 44.39428
174.5133 139.9712 59.77169
178.1381 135.6754 59.1386
178.2513 158.9016 47.26321
176.0928 157.4085 49.81798
178.3558 154.5692 49.80302
181.0645 135.6439 56.91668
177.4059 162.1212 45.84211
179.6528 165.6548 41.18329
181.4059 127.9571 59.6357
182.6168 130.6536 57.70901
179.4722 131.5233 59.86091
185.1842 132.1527 54.85982
183.0302 133.9094 56.0371
176.1237 147.6657 55.00188
176.8818 152.3517 52.05601
175.1779 136.5596 60.82639
175.0735 132.8938 62.4769
178.511 129.3061 61.35371
176.5107 131.5174 62.01151
176.0513 159.1419 48.8027
177.8089 167.3188 41.71062
176.3961 169.0129 41.61522
175.6654 167.6189 43.36458
174.6017 147.1747 56.22649
175.3884 151.0022 53.80398
173.114 154.7182 53.33042
180.2177 125.268 61.60158
174.3694 164.7018 46.44391
169.9218 163.3543 50.3577
171.5434 159.5077 51.66289
