-12.779623 -26.926011 281.140059 
-12.679354 -27.777186 281.361431 
-15.928054 -23.470815 280.565530 
-15.837394 -24.368813 280.738771 
-15.581753 -22.937458 280.450285 
-15.492615 -23.842886 280.615896 
-15.399274 -24.727819 280.802578 
-15.148177 -23.318606 280.491322 
-15.058543 -24.221605 280.659437 
-14.964978 -25.105456 280.847222 
-14.823421 -26.425321 281.134993 
-14.625359 -24.604665 280.698508 
-14.531335 -25.486272 280.888617 
-14.339794 -23.697389 280.419499 
-14.095269 -25.855282 280.942142 
-13.862194 -24.533892 280.540615 
-13.597697 -23.729300 280.156016 
-13.371417 -25.306189 280.727744 
-13.090662 -24.422355 280.424625 
-12.888574 -23.251990 279.867828 
-12.880537 -26.077980 280.915409 
-16.110476 -21.680180 280.213535 
-16.019680 -22.577524 280.387461 
-15.912952 -19.862141 279.774398 
-15.767379 -21.162441 280.082256 
-15.674129 -22.047821 280.268461 
-15.431705 -20.680878 279.913753 
-15.242900 -22.440402 280.297756 
-15.145805 -19.771969 279.636413 
-14.955209 -21.522768 280.029357 
-14.431296 -22.803493 280.242026 
-14.332998 -20.129189 279.586732 
-14.232906 -20.981226 279.807210 
-14.139528 -21.865986 279.994071 
-13.687163 -22.825478 279.988736 
-13.613899 -19.603269 279.348522 
-13.519816 -20.484591 279.538900 
-13.415188 -21.314524 279.782146 
-13.001576 -22.417754 279.592097 
-12.804844 -19.978778 279.280037 
-12.703510 -20.824760 279.506743 
-12.662288 -21.793742 279.467940 
-16.108446 -18.135212 279.356867 
-16.006334 -18.977407 279.587507 
-15.925989 -16.390599 278.842211 
-15.435906 -17.166277 279.025912 
-15.341645 -18.046727 279.217184 
-15.240462 -18.893449 279.443145 
-14.619281 -17.504899 278.995335 
-14.522745 -18.374260 279.198021 
-14.424359 -19.234601 279.409975 
-13.802144 -17.841013 278.967351 
-13.706363 -18.714055 279.166222 
-12.992815 -18.215183 278.900236 
-12.892578 -19.066514 279.121459 
-12.455701 -55.863485 281.187296 
-12.239983 -55.696435 282.082677 
-12.207552 -57.207987 281.894982 
-12.157916 -56.023583 280.733079 
-11.942355 -55.855978 281.627983 
-11.858698 -56.188758 280.283570 
-11.728011 -55.684067 282.518953 
-11.718773 -57.615489 280.542403 
-11.707646 -57.152886 282.292098 
-11.649570 -55.998366 281.157583 
-11.567802 -56.324456 279.807031 
-11.514678 -57.407279 281.400084 
-11.433226 -55.833541 282.055020 
-11.428848 -57.747751 280.062676 
-11.352376 -56.156378 280.701488 
-11.222650 -57.546984 280.927211 
-11.140970 -55.974063 281.582922 
-11.062570 -56.288220 280.221403 
-11.013434 -57.356909 281.801522 
-10.928307 -55.796195 282.468408 
-10.927404 -57.698097 280.464768 
-10.843583 -56.132756 281.127453 
-10.719087 -57.504837 281.336188 
-10.636514 -57.833776 279.988229 
-10.635948 -55.937074 281.996608 
-10.550622 -56.275763 280.657589 
-10.514000 -57.300132 282.197088 
-10.426711 -57.645779 280.864447 
-10.335410 -56.106925 281.551361 
-10.260990 -56.406986 280.176967 
-10.223784 -57.433430 281.718344 
-10.135380 -57.783019 280.389309 
-10.127983 -55.910516 282.419860 
-10.047373 -56.232497 281.065553 
-10.011596 -57.253879 282.602280 
-9.934742 -57.562560 281.235784 
-9.834056 -56.056950 281.953156 
-9.722543 -57.383053 282.119781 
-9.641726 -57.705768 280.766129 
-9.545139 -56.185640 281.470209 
-9.443315 -57.979450 279.891789 
-9.434033 -57.510294 281.635493 
-9.332713 -56.006934 282.354951 
-9.259806 -56.301635 280.975610 
-9.223614 -57.324484 282.513738 
-9.143872 -57.643395 281.156600 
-9.086362 -56.486882 280.020237 
-9.044168 -56.134313 281.870753 
-8.956995 -57.876222 280.244768 
-8.936408 -57.447117 282.025218 
-9.770162 -48.478134 278.972775 
-12.410321 -46.749476 281.671643 
-12.186233 -47.616128 279.167026 
-12.179829 -44.845447 279.773682 
-11.976923 -47.426384 280.041635 
-11.971417 -45.154557 278.931826 
-11.763879 -47.249868 280.928373 
-11.554510 -47.060333 281.803161 
-11.336571 -45.111843 279.864490 
-11.333778 -47.915097 279.287666 
-11.130973 -45.410976 279.013485 
-11.124997 -47.723480 280.160576 
-11.124545 -44.931721 280.747920 
-10.913364 -47.541969 281.042725 
-10.700625 -47.364369 281.928480 
-10.598161 -48.265785 278.931498 
-10.495738 -45.369651 279.947460 
-10.490655 -44.885628 281.677514 
-10.387298 -48.081547 279.811114 
-10.286283 -45.180425 280.822545 
-10.277337 -44.710088 282.565147 
-10.176105 -47.898471 280.691862 
-9.960590 -47.730710 281.586617 
-9.771823 -45.678891 279.553294 
-9.657728 -45.115430 281.734794 
-9.559939 -45.498263 280.436248 
-9.558701 -48.296008 279.854357 
-9.346582 -48.116215 280.738086 
-9.330294 -47.671888 282.504559 
-9.129709 -47.953267 281.637281 
-9.032113 -45.040026 282.637566 
-8.947558 -45.878015 279.582471 
-8.932607 -45.428939 281.344563 
-12.090732 -44.193443 281.874120 
-11.969360 -44.659816 280.652076 
-11.545471 -44.298988 282.418400 
-11.333368 -44.621166 281.588495 
-12.468713 -37.602626 278.841913 
-11.919144 -37.927203 279.047906 
-11.702397 -37.763804 279.946685 
-11.208666 -37.869938 280.501843 
-11.013422 -38.431544 279.357702 
-9.990109 -37.721023 281.960100 
-9.951925 -37.732929 281.879306 
-9.912852 -37.760451 281.788140 
-9.781274 -37.861936 281.577855 
-9.752760 -37.930269 281.370878 
-9.631454 -38.172383 280.889541 
-9.610420 -38.145658 281.001508 
-9.602633 -38.101990 280.957490 
-9.584593 -38.214326 280.512661 
-9.566282 -37.755590 278.961897 
-9.524323 -37.525572 280.381233 
-9.494302 -37.771247 279.513240 
-9.472436 -38.075697 280.355483 
-9.469485 -38.277376 280.134439 
-9.466337 -38.280390 280.064285 
-12.393054 -34.014855 279.190511 
-12.370826 -36.852248 280.811876 
-12.361397 -37.349731 279.675454 
-12.110887 -37.356004 280.182034 
-11.825099 -34.557283 279.604733 
-11.716169 -34.304299 280.437887 
-11.634551 -35.080660 278.974831 
-11.479086 -33.797324 282.099336 
-11.438698 -35.089809 279.495120 
-11.329630 -34.322865 281.479746 
-11.242717 -35.098948 280.015349 
-11.138968 -34.846243 280.849785 
-11.122065 -34.331396 281.997085 
-11.061532 -35.622824 279.387772 
-10.861105 -35.631731 279.906928 
-10.801936 -34.867413 281.904042 
-10.691685 -37.424222 282.440752 
-10.673440 -36.155265 279.277742 
-10.617782 -35.391130 281.275749 
-10.494077 -36.165278 279.802144 
-10.468546 -35.422176 282.377094 
-10.427775 -35.914540 280.645996 
-10.282688 -35.945799 281.748384 
-10.239602 -36.685299 279.156208 
-10.139738 -36.452241 280.561000 
-10.128759 -36.698919 279.697806 
-10.087536 -36.468942 281.117320 
-10.017518 -36.484707 281.669140 
-9.871569 -37.218790 279.051185 
-9.834555 -36.989041 280.471742 
-9.811011 -37.235055 279.605418 
-9.778554 -37.005544 281.027108 
-12.386258 -32.719888 281.782895 
-12.385257 -30.363409 281.991929 
-12.273300 -33.761304 280.020922 
-12.257224 -33.246502 281.168431 
-12.242064 -31.675298 282.287896 
-12.043606 -32.721315 282.266378 
-11.903215 -33.780735 281.066924 
-11.896438 -31.145237 282.169282 
-11.794132 -33.261042 282.191068 
-11.403079 -31.904947 282.369345 
-11.315312 -32.817051 282.528102 
-12.186753 -28.540583 281.557709 
-12.089946 -29.408634 281.761736 
-11.939736 -27.151259 281.226009 
-11.840888 -28.009357 281.440288 
-11.741796 -28.866261 281.655788 
-10.972967 -27.136518 282.125443 
-10.905934 -26.580146 282.121390 
-12.354952 -23.815475 280.269653 
-12.249539 -24.641579 280.516803 
-12.146905 -25.481226 280.750036 
-12.042571 -26.312591 280.991793 
-11.624422 -23.233844 280.088723 
-11.514835 -24.039607 280.356795 
-10.834050 -23.030490 280.067116 
-10.812860 -25.755702 282.401890 
-10.645955 -25.174627 281.803399 
-10.528565 -24.615604 281.786710 
-10.392037 -24.055576 281.765222 
-10.343360 -24.033569 281.183660 
-10.280818 -23.516325 282.319486 
-10.150308 -23.470568 281.147987 
-10.044638 -22.931607 281.703621 
-9.970037 -22.908237 281.115532 
-12.129465 -22.531079 279.830068 
-12.086880 -19.458380 279.036135 
-11.995180 -20.351311 279.214591 
-11.928568 -21.366516 279.267341 
-11.641447 -20.274442 279.189497 
-11.631761 -19.961756 279.137492 
-11.628089 -19.807104 279.104799 
-11.593354 -20.617900 279.219359 
-11.568293 -20.690817 279.237688 
-11.510043 -21.151090 279.373467 
-11.405500 -21.981433 279.616266 
-11.305946 -21.141300 279.321253 
-11.281731 -22.718087 279.955417 
-10.942951 -22.221385 279.802501 
-10.795806 -21.933390 279.310822 
-10.732227 -21.968402 279.284626 
-10.482758 -22.472812 279.976904 
-10.155495 -22.032240 279.766291 
-10.014144 -22.682751 282.556415 
-9.836735 -22.367826 281.664252 
-9.538435 -21.779843 281.032830 
-9.508282 -21.617966 279.217959 
-9.495890 -21.738710 279.883385 
-9.489964 -21.530040 281.881124 
-9.321000 -20.987751 282.420903 
-9.252684 -21.211965 280.973941 
-9.142817 -21.167293 279.807627 
-9.029858 -20.419592 282.360643 
-9.026498 -20.666668 281.499356 
-8.938316 -20.108245 282.590032 
-8.896077 -20.620916 280.327886 
-8.888811 -20.581640 279.187292 
-12.173830 -18.542297 278.881490 
-11.729074 -18.991843 278.844446 
-11.704255 -18.919522 278.827965 
-8.801768 -56.600258 279.523253 
-8.757357 -56.255538 281.380981 
-8.662780 -58.023673 279.779017 
-8.650053 -57.566732 281.533927 
-8.578330 -56.460556 280.443728 
-8.545567 -56.074578 282.263637 
-8.463789 -57.797387 280.620158 
-8.439668 -57.380799 282.412022 
-8.300351 -56.550506 279.925257 
-8.257732 -56.199439 281.777173 
-8.176871 -57.918996 280.130714 
-8.151861 -57.505555 281.925470 
-8.080392 -56.398481 280.834436 
-8.014997 -56.666572 279.430717 
-7.802001 -56.489892 280.317336 
-7.764402 -56.121040 282.152921 
-7.688701 -57.822321 280.489713 
-7.655942 -57.436325 282.309622 
-7.586389 -56.322467 281.212360 
-7.519470 -56.595959 279.813618 
-7.476804 -57.641737 281.372756 
-7.309323 -56.409184 280.690938 
-7.269227 -56.049176 282.534659 
-7.196490 -57.739958 280.861855 
-7.092819 -56.244921 281.588942 
-7.029558 -56.505457 280.178279 
-7.006371 -57.984259 279.960573 
-6.982177 -57.567935 281.752706 
-6.857122 -56.687128 279.219627 
-6.814207 -56.337107 281.072497 
-6.727808 -58.076281 279.444039 
-6.699805 -57.673447 281.248510 
-6.601609 -56.159012 281.957805 
-6.537801 -56.421485 280.548960 
-6.520114 -57.880815 280.313373 
-6.490381 -57.484105 282.123476 
-6.366729 -56.598328 279.585868 
-6.329111 -56.229554 281.421542 
-6.238766 -57.982694 279.805839 
-6.208490 -57.587910 281.617701 
-6.118097 -56.045841 282.301694 
-6.055754 -56.303125 280.888081 
-6.031879 -57.784371 280.672610 
-6.000418 -57.393778 282.488316 
-5.958154 -58.081970 279.295951 
-5.881768 -56.490291 279.934466 
-5.840142 -56.135703 281.783134 
-5.751797 -57.881769 280.160993 
-5.721263 -57.487898 281.973660 
-5.607422 -56.567371 279.404193 
-5.565188 -56.214936 281.254888 
-5.546903 -57.676382 281.021267 
-5.471804 -57.978846 279.649049 
-5.394648 -56.389898 280.290067 
-5.352836 -56.035969 282.139361 
-5.334932 -56.637872 278.867930 
-5.265875 -57.777129 280.512691 
-5.235391 -57.383079 282.325238 
-8.837924 -48.594139 279.449999 
-8.629098 -48.402675 280.323058 
-7.919202 -48.662268 279.883385 
-7.706960 -48.482906 280.767530 
-7.317251 -49.005065 278.995722 
-7.088566 -48.381928 281.646818 
-7.003071 -48.721213 280.308336 
-6.412304 -49.024407 279.384434 
-6.387901 -48.608817 281.177223 
-6.180186 -48.413426 282.046616 
-5.810342 -48.865221 280.210376 
-5.725420 -49.202483 278.870046 
-5.489014 -48.606690 281.546205 
-5.275380 -48.432261 282.434851 
-8.732650 -45.708090 280.475229 
-8.505367 -47.873355 282.535881 
-8.413564 -48.234981 281.217873 
-8.308064 -45.349739 282.243848 
-8.125655 -46.068769 279.603928 
-8.109724 -45.623168 281.369269 
-7.914736 -45.884721 280.483782 
-7.791740 -48.146151 282.108307 
-7.491123 -45.522921 282.249242 
-7.211259 -46.121571 280.023277 
-6.998464 -45.944173 280.909210 
-6.870386 -48.223604 282.550246 
-6.789995 -45.751452 281.781107 
-6.613197 -46.450600 279.123008 
-6.295330 -46.179805 280.447602 
-6.085554 -45.991715 281.323731 
-5.707855 -46.471335 279.512972 
-5.477148 -45.855358 282.170623 
-5.394303 -46.185259 280.823559 
-8.734229 -19.851197 282.299280 
-8.648694 -20.074505 280.847997 
-8.644095 -19.659324 282.480895 
-8.582321 -19.572355 282.430798 
-8.479904 -20.026734 279.666901 
-8.465575 -19.316332 282.209635 
-8.199010 -19.439666 279.039860 
-8.170378 -19.477055 280.171454 
-8.272905 -19.254638 281.626970 
-8.198652 -18.981006 281.896472 
-7.871231 -18.927919 280.678570 
-7.829169 -18.486746 281.727612 
-7.761013 -18.399723 281.679273 
-7.731935 -18.862253 278.935492 
-7.496024 -18.117126 281.466484 
-7.486060 -18.602069 279.734284 
-7.277696 -18.062037 280.818880 
-7.204347 -17.856278 281.154573 
-7.073702 -17.650073 281.274736 
-7.040200 -18.025773 279.635251 
-6.972824 -17.541788 281.218708 
-6.841583 -17.378638 281.093329 
-6.668356 -17.499892 280.150473 
-6.507726 -17.107809 280.838013 
-6.204162 -16.852735 280.529350 
-6.132285 -17.143786 279.146671 
-6.117345 -16.637787 280.853421 
-5.898469 -16.390778 280.908197 
-5.735217 -16.724426 279.210031 
-5.713796 -16.235342 280.931920 
-5.569075 -16.381785 279.944539 
-5.367943 -15.790692 280.870736 
-5.318209 -15.743850 280.845523 
-5.188521 -58.087584 279.147834 
-5.117990 -56.475166 279.767335 
-5.080665 -56.105345 281.602055 
-5.061248 -57.570800 281.372100 
-4.986171 -57.873189 279.999852 
-4.907965 -56.287952 280.644268 
-4.869550 -55.921994 282.482505 
-4.844924 -56.547709 279.232919 
-4.783439 -57.660148 280.853122 
-4.704225 -57.977188 279.494256 
-4.633958 -56.363836 280.112922 
-4.593393 -56.005489 281.958163 
-4.575774 -57.464577 281.722367 
-4.502310 -57.761248 280.344874 
-4.424398 -56.174975 280.988336 
-4.423546 -58.076698 278.984547 
-4.365700 -56.419350 279.562890 
-4.297077 -57.557072 281.206250 
-4.222026 -57.859365 279.833883 
-4.150204 -56.251518 280.457586 
-4.111846 -55.885360 282.295674 
-4.092338 -56.492943 279.029459 
-4.090564 -57.357423 282.071769 
-4.018542 -57.648987 280.689597 
-3.944877 -56.047667 281.319261 
-3.941516 -57.958275 279.323638 
-3.884513 -56.297943 279.899269 
-3.811064 -57.452750 281.558245 
-3.740314 -57.739817 280.171931 
-3.675004 -56.108903 280.774504 
-3.633656 -55.753335 282.622278 
-3.613983 -56.361504 279.356599 
-3.605316 -57.250395 282.421321 
-3.534891 -57.536308 281.033933 
-3.466201 -55.917367 281.647503 
-3.464280 -57.822876 279.647142 
-3.407100 -56.163166 280.223370 
-3.328449 -57.336401 281.899273 
-3.259696 -57.616394 280.506432 
-3.198648 -55.970382 281.095177 
-3.188914 -57.903569 279.120237 
-3.137324 -56.224056 279.678255 
-3.055157 -57.409752 281.365573 
-2.994993 -55.760607 281.951457 
-2.987786 -57.684846 279.968292 
-2.939071 -55.995155 280.517012 
-2.874492 -56.260359 279.110670 
-2.849584 -57.206772 282.228053 
-2.783385 -57.477709 280.826956 
-2.728561 -55.809658 281.395495 
-2.713690 -57.761040 279.437214 
-2.673877 -56.039814 279.957026 
-2.579007 -57.270505 281.685591 
-2.521529 -55.611845 282.262713 
-2.511888 -57.544701 280.287474 
-2.468236 -55.837072 280.819744 
-2.438433 -57.841342 278.909951 
-2.405250 -56.096640 279.408246 
-2.371948 -57.072785 282.552898 
-2.305614 -57.344209 281.152219 
-2.251835 -55.672452 281.717390 
-2.235372 -57.629466 279.764265 
-2.193711 -55.914789 280.290067 
-2.138530 -56.146707 278.853208 
-2.100678 -57.138972 282.012671 
-2.031649 -57.419937 280.620754 
-1.991775 -55.698928 281.140745 
-1.959784 -57.710946 279.238045 
-1.930287 -55.953186 279.724359 
-1.825486 -57.219047 281.485140 
-1.757577 -57.496045 280.089587 
-1.722683 -55.757400 280.593455 
-1.665973 -55.994730 279.161572 
-1.618116 -57.022434 282.353491 
-2.044712 -55.474959 282.584906 
-1.780243 -55.517055 282.022595 
-5.126854 -49.031269 279.685020 
-4.915475 -48.848852 280.566335 
-4.591271 -48.600510 281.911492 
-4.239095 -48.989728 280.017912 
-4.028677 -48.803907 280.896127 
-3.702425 -48.562817 282.247931 
-3.676431 -49.193379 279.002756 
-3.360476 -48.915815 280.321151 
-3.146992 -48.740853 281.209290 
-2.808174 -49.082756 279.272348 
-2.542301 -48.591334 282.044143 
-2.488854 -48.817109 280.601651 
-1.943506 -48.959423 279.530287 
-1.900665 -48.609141 281.382948 
-1.855270 -48.568387 281.572521 
-1.644176 -48.605062 281.327754 
-1.577728 -48.616447 281.258136 
-4.808996 -46.469107 279.881895 
-4.780579 -46.067737 281.687707 
-4.622244 -46.701491 278.969705 
-4.576844 -45.858249 282.544225 
-4.207802 -46.307210 280.705392 
-3.885180 -46.053257 282.045394 
-3.735744 -46.655487 279.298484 
-3.525273 -46.469856 280.176878 
-3.316382 -46.278630 281.050146 
-2.995703 -46.017796 282.383859 
-2.854269 -46.591688 279.610992 
-2.714943 -46.117600 281.874418 
-2.644042 -46.405189 280.488581 
-2.185229 -46.706557 279.038727 
-2.041385 -46.248473 281.316817 
-1.970964 -46.534367 279.929399 
-1.828825 -46.070244 282.201976 
-5.094738 -15.770556 280.356288 
-4.933731 -15.911745 279.360563 
-5.023472 -15.595776 280.677229 
-4.700426 -15.362701 280.406237 
-4.441828 -15.362735 279.829353 
-4.362465 -15.138521 280.145913 
-4.276544 -15.519073 278.847486 
-4.041500 -14.954922 279.903263 
-4.000748 -14.859995 280.085713 
-3.782296 -14.978369 279.323876 
-3.693965 -14.640796 279.994219 
-3.638266 -14.602996 279.977053 
-3.565161 -14.550410 279.965252 
-3.294928 -14.413292 279.777914 
-3.260158 -14.321037 279.935986 
-3.118246 -14.230358 279.904067 
-3.115790 -14.618708 278.841048 
-2.899609 -14.113195 279.809296 
-2.619284 -14.085999 279.324740 
-2.609274 -13.939852 279.645473 
-2.556270 -13.911131 279.612750 
-2.507320 -13.887957 279.580831 
-2.222650 -13.766280 279.365480 
-2.140077 -13.738140 279.306203 
-1.889608 -13.629873 279.114097 
-1.784004 -13.586336 279.055029 
-1.171061 -68.747409 282.434970 
-1.046977 -68.696022 282.182902 
-0.553359 -68.557627 280.964106 
-0.279000 -68.556368 280.450344 
-0.228817 -68.979017 282.170147 
-0.023137 -68.363316 281.511337 
0.037502 -68.418927 280.133218 
0.169897 -68.120584 282.332122 
0.251041 -69.134608 282.443076 
0.262940 -68.319395 279.983073 
0.385443 -68.964027 281.406611 
0.408835 -68.072252 281.686962 
0.540074 -68.694860 280.471534 
0.609696 -67.852579 282.534152 
0.637399 -67.982510 281.009108 
0.774026 -68.097077 279.921681 
0.848528 -67.803867 281.888634 
1.008469 -68.906315 280.687034 
1.081974 -67.736074 281.225652 
1.290286 -67.542799 282.097012 
1.313399 -67.656480 280.557066 
1.357115 -69.216937 282.012433 
1.489117 -69.058053 280.963928 
1.491541 -69.186769 282.554895 
1.527880 -67.489699 281.447500 
1.731526 -67.279898 282.303750 
1.750170 -67.382403 280.748278 
1.961249 -67.198925 281.628668 
1.975415 -68.326853 279.840261 
1.986147 -69.149353 281.318843 
2.032243 -67.445464 280.251801 
-1.551524 -57.294764 280.953646 
-1.484041 -57.570256 279.556721 
-1.460632 -55.790927 280.023277 
-1.346819 -57.088714 281.813324 
-1.282558 -57.352792 280.405939 
-1.247424 -55.614993 280.910551 
-1.211578 -57.640668 279.020369 
-1.192981 -55.844296 279.471308 
-1.076234 -57.152469 281.270862 
-1.012173 -57.415839 279.862821 
-0.987564 -55.640761 280.333310 
-0.932240 -55.873189 278.896898 
-0.870429 -56.950312 282.134086 
-0.809393 -57.202969 280.716240 
-0.740071 -57.484973 279.325277 
-0.727350 -55.667788 279.757172 
-0.604171 -56.998745 281.577617 
-0.541112 -57.258569 280.166328 
-0.468781 -55.688988 279.175729 
-0.394193 -56.811370 282.454371 
-0.335266 -57.056554 281.029701 
-0.270246 -57.323318 279.624790 
-0.132505 -56.843612 281.883061 
-0.067834 -57.109147 280.476987 
-0.006008 -57.364598 279.061705 
0.134694 -56.895383 281.329632 
0.202153 -57.170782 279.932588 
0.343644 -56.704361 282.203078 
0.400471 -56.942109 280.771553 
0.465397 -57.208538 279.366344 
0.606262 -56.739904 281.634748 
0.667444 -56.993071 280.217350 
0.823419 -56.577954 282.534808 
0.870303 -56.780480 281.071037 
0.932123 -57.035912 279.655725 
1.086664 -56.615710 281.968534 
1.136126 -56.827370 280.513108 
1.346112 -56.640022 281.389922 
1.399582 -56.865878 279.947549 
1.560924 -56.469768 282.282412 
1.561961 -57.011928 278.956234 
1.609550 -56.678466 280.824274 
1.814429 -56.473032 281.684518 
1.871253 -56.710765 280.252993 
2.027988 -56.836825 279.243380 
2.037761 -56.332953 282.604635 
2.077298 -56.509458 281.116992 
-1.513942 -55.565644 281.466216 
-1.304595 -55.376030 282.340974 
-1.044298 -55.403348 281.765103 
-0.835257 -55.212650 282.638848 
-0.782465 -55.436108 281.194240 
-0.573913 -55.243678 282.066405 
-0.518320 -55.477053 280.630887 
-0.315347 -55.264864 281.484961 
-0.258929 -55.501163 280.052096 
-0.109547 -55.062696 282.348186 
-0.053588 -55.297364 280.913860 
-0.005639 -55.503666 279.453516 
0.145775 -55.072389 281.756163 
0.202601 -55.310126 280.324638 
0.246519 -55.502150 278.851271 
0.403183 -55.089474 281.170964 
0.458103 -55.320464 279.733241 
0.615046 -54.908771 282.053828 
0.660550 -55.106416 280.585587 
0.709177 -55.315115 279.127479 
0.869512 -54.915439 281.459063 
0.913938 -55.109259 279.987305 
1.073685 -54.707501 282.317012 
1.119839 -54.907445 280.850858 
1.168345 -55.115715 279.392362 
1.325751 -54.705664 281.714439 
1.372132 -54.906409 280.249059 
1.536201 -54.519962 282.592773 
1.578810 -54.707345 281.115115 
1.624664 -54.906223 279.648006 
1.790160 -54.524831 281.996369 
1.832311 -54.710593 280.517221 
1.873385 -54.892536 279.034585 
2.035579 -54.499447 281.372219 
2.078548 -54.688111 279.895723 
-1.536401 -48.626006 281.223953 
-1.454576 -48.624683 281.183332 
-1.353932 -48.756365 280.316085 
-1.297195 -48.993789 278.884232 
-1.153665 -48.642218 281.138778 
-0.841911 -48.567947 281.131566 
-0.758612 -48.547652 281.125933 
-0.718965 -48.750550 279.633224 
-0.694828 -48.540007 281.074405 
-0.524991 -48.527699 280.880660 
-0.442253 -48.506957 280.787975 
-0.289374 -48.480969 280.645519 
-0.151510 -48.469149 280.347198 
-0.116749 -48.452768 280.489266 
-0.089516 -48.725192 278.932452 
0.082356 -48.469253 280.300617 
0.163845 -48.488799 280.224115 
0.211758 -48.484858 280.184478 
0.472762 -48.428528 280.041814 
0.488220 -48.480201 279.679805 
0.568851 -48.408192 280.016512 
0.639084 -48.388705 280.012548 
0.804742 -48.340410 280.031115 
1.105251 -48.410859 278.938740 
-1.384595 -46.319954 280.704796 
-1.337926 -45.983229 282.569856 
-1.309136 -46.623696 279.333740 
-1.162920 -46.174012 281.619549 
-0.719833 -46.419673 280.118644 
-0.511284 -46.227239 280.990779 
-0.285602 -46.095487 281.918556 
-0.057238 -46.511721 279.525459 
0.147383 -46.305366 280.384868 
0.371337 -46.167497 281.307012 
0.539759 -46.107285 282.315761 
0.819625 -46.431582 279.823005 
0.954985 -48.307713 279.969364 
0.971705 -48.263475 280.045330 
1.052888 -46.326682 280.775338 
1.125115 -46.259042 281.333029 
1.168997 -46.272382 281.249821 
1.169212 -48.149929 280.046076 
1.183242 -46.266452 281.307906 
1.335916 -46.434514 280.273259 
1.367926 -48.108444 280.049831 
1.387596 -46.299364 281.232446 
1.480269 -48.076570 280.026555 
1.487392 -46.541952 279.246569 
1.534433 -46.344247 281.083971 
1.646197 -46.419997 280.747682 
1.666262 -48.106629 279.631794 
1.705513 -46.441086 280.598611 
1.926020 -48.132040 279.054224 
-1.532230 -13.492159 278.960049 
-1.128567 -13.335226 278.847486 
-0.774753 -13.087396 278.849512 
-0.662698 -13.023525 278.841525 
2.175139 -67.025408 282.518119 
2.196445 -67.137338 280.971348 
2.207731 -69.003083 282.233298 
2.233220 -69.080181 280.710518 
2.401070 -66.931002 281.830758 
2.411374 -68.696380 279.893279 
2.426301 -67.052178 280.297667 
2.459816 -69.001317 281.630814 
2.637668 -66.874377 281.177968 
2.663014 -68.789922 282.485604 
2.685711 -66.989250 279.737204 
2.714077 -69.007255 281.035364 
2.734607 -68.275444 279.662430 
2.870324 -66.803791 280.512422 
2.916250 -68.792239 281.886846 
3.042450 -67.929521 279.354513 
3.076950 -66.604540 281.378329 
3.169070 -68.793066 281.286717 
3.312333 -66.543616 280.721635 
3.369717 -68.572640 282.133222 
3.424505 -68.803169 280.695111 
3.449299 -66.599645 279.647857 
3.491481 -68.235345 279.473036 
3.622093 -68.571903 281.531632 
3.790083 -67.934446 279.118806 
3.824079 -68.356216 282.382518 
3.944443 -68.522014 279.611200 
4.074176 -68.347409 281.773567 
4.222598 -68.444021 280.736983 
4.276155 -68.131700 282.624394 
4.470980 -68.429135 280.122429 
4.542634 -67.915410 278.907687 
4.732094 -68.331920 279.576004 
4.771711 -68.097651 281.391412 
4.972450 -67.877546 282.238215 
5.269453 -68.071350 280.165553 
5.464417 -67.830786 280.993611 
5.505918 -68.014249 279.512346 
5.665470 -67.611799 281.841427 
3.287902 -66.420615 282.258272 
3.856802 -66.180788 281.361014 
3.897759 -66.362321 279.877991 
4.065719 -65.989658 282.234341 
4.449220 -66.024259 280.540079 
4.577765 -66.050477 279.438972 
4.648428 -65.798745 281.381905 
4.852696 -65.591142 282.240152 
5.135020 -65.732941 280.119836 
5.340587 -65.529943 280.982316 
5.542964 -65.315641 281.834453 
5.616195 -65.647960 278.840244 
2.294673 -56.348283 282.017827 
2.336254 -56.532025 280.536801 
2.491255 -56.651942 279.521585 
2.546940 -56.347161 281.415880 
2.754783 -56.690708 278.956205 
2.768283 -56.200035 282.329559 
2.799881 -56.348421 280.816197 
2.951655 -56.456909 279.790461 
3.019807 -56.196276 281.725258 
3.237474 -56.036137 282.626986 
3.270500 -56.189578 281.118214 
3.418232 -56.283753 280.079395 
3.483927 -56.014419 282.006204 
3.575491 -56.411669 279.071510 
3.734783 -56.008298 281.399727 
3.880280 -56.094553 280.353635 
3.951555 -55.844985 282.298565 
4.204663 -55.846836 281.699359 
4.397600 -56.137592 279.191315 
4.421113 -55.682387 282.597154 
4.700084 -55.812314 280.465960 
5.210145 -55.829640 279.280096 
2.243602 -54.305147 282.242686 
2.287538 -54.497231 280.769318 
2.327660 -54.675806 279.283613 
2.524324 -54.441273 280.117154 
2.738506 -54.268792 281.007588 
2.946919 -54.075871 281.879306 
3.125990 -54.317504 279.326230 
3.328991 -54.105420 280.180365 
3.539304 -53.919226 281.058252 
3.745209 -53.717427 281.921804 
3.820828 -54.058198 278.935343 
4.022291 -53.840660 279.784471 
4.229180 -53.642340 280.651242 
4.434506 -53.438488 281.512946 
4.641105 -53.239144 282.378763 
4.702600 -53.529885 279.346466 
4.907277 -53.323735 280.206025 
5.026242 -55.570889 281.817466 
5.112775 -53.120490 281.068265 
5.324495 -52.939281 281.950712 
5.483336 -53.109270 279.332012 
5.509581 -55.493563 280.544847 
5.589040 -55.272985 282.516330 
5.685594 -52.894548 280.183703 
5.721976 -55.314749 281.429499 
5.955563 -67.781121 279.746324 
6.156739 -67.562565 280.594587 
6.351865 -67.322590 281.423152 
6.557842 -67.121044 282.286912 
6.740995 -67.377135 279.747128 
6.937186 -67.140922 280.579150 
7.142498 -66.937022 281.440794 
7.324833 -67.190222 278.898358 
7.513979 -66.929057 279.707521 
7.681298 -66.554114 282.061785 
7.718040 -66.720717 280.565083 
7.919377 -66.502742 281.413853 
8.190151 -66.603631 279.256046 
5.822362 -65.447085 279.704660 
6.030746 -65.254062 280.576259 
6.231418 -65.033719 281.422824 
6.396985 -65.227523 278.825968 
6.432239 -64.813905 282.269895 
6.611342 -65.055654 279.716939 
6.822564 -64.872690 280.597776 
7.017855 -64.633295 281.426877 
7.182988 -64.825565 278.828591 
7.220999 -64.421713 282.281488 
7.399567 -64.661570 279.726803 
7.604956 -64.457938 280.588686 
7.629704 -64.582065 279.053062 
7.799340 -64.215332 281.414866 
7.998662 -63.990206 282.257050 
8.073764 -64.329147 279.268920 
8.277802 -64.120725 280.126423 
8.389841 -66.379815 280.099451 
8.459110 -66.123135 282.037854 
8.477771 -63.897900 280.970722 
8.514471 -64.064361 279.473871 
8.592023 -66.164829 280.950934 
8.679487 -63.681267 281.820685 
8.718481 -63.855842 280.331314 
8.916876 -63.627444 281.170487 
8.956731 -63.805066 279.683888 
8.963039 -66.155218 279.216111 
9.119352 -63.413493 282.022923 
9.131226 -65.783352 281.573206 
9.157770 -65.913834 280.043423 
9.158128 -63.587300 280.532837 
9.330220 -65.557070 282.414347 
9.351919 -63.342594 281.357080 
9.362385 -65.707460 280.902803 
5.894216 -52.702371 281.056136 
5.906542 -55.575851 278.894246 
6.103513 -52.512582 281.930685 
6.113464 -55.377651 279.761136 
6.251183 -52.642997 279.275715 
6.282844 -55.010010 282.122105 
6.312789 -55.152543 280.603319 
6.457169 -52.441478 280.139536 
6.514642 -54.936387 281.453758 
6.665400 -52.247915 281.010657 
6.799610 -55.087551 279.342055 
6.870105 -52.041858 281.870335 
7.002557 -54.875273 280.196011 
7.014665 -52.161261 279.205263 
7.086001 -54.668807 282.180429 
7.210964 -54.682329 281.067699 
7.584023 -54.679960 279.339522 
7.765170 -54.354001 281.738669 
7.789196 -54.475564 280.200720 
8.003939 -54.305062 281.092942 
8.361904 -54.249231 279.315800 
8.541400 -53.917419 281.709582 
8.564709 -54.036442 280.169308 
8.768748 -53.828031 281.026781 
9.120457 -53.750034 279.229343 
9.227451 -53.626988 281.290203 
9.329633 -53.559817 280.103505 
6.050048 -48.438478 282.572001 
6.500504 -49.407277 282.557100 
6.572675 -50.395384 282.637685 
6.993732 -50.837539 282.615989 
7.215863 -51.942792 280.053556 
7.228896 -48.836064 282.365441 
7.305029 -49.804859 282.465905 
7.429380 -51.767949 280.941844 
7.631438 -51.552519 281.792909 
7.725385 -50.250433 282.440692 
7.873233 -51.550765 279.541075 
8.027543 -49.262296 282.244801 
8.083774 -51.365379 280.419677 
8.288642 -51.159907 281.279862 
8.372507 -48.735455 282.122880 
8.444718 -49.723361 282.203674 
8.629706 -51.044203 279.447854 
8.835747 -50.842885 280.311853 
9.045034 -50.653063 281.186402 
9.136086 -48.662670 281.967044 
9.262016 -50.563425 278.854042 
5.983586 -46.861600 282.637626 
5.998916 -47.347836 282.596797 
6.243034 -46.842407 282.638073 
6.371797 -46.779532 282.594919 
6.555857 -46.772048 282.619089 
6.796845 -47.777567 282.472551 
7.558680 -47.713287 282.307982 
8.323818 -47.632903 282.159954 
8.726481 -48.091602 282.061428 
9.085962 -47.567118 281.996906 
9.401248 -63.553780 279.901236 
9.558849 -63.144423 282.223970 
9.591938 -65.625884 280.227184 
9.592435 -63.299842 280.717045 
9.790294 -63.069545 281.554490 
9.827218 -65.564588 279.570132 
9.834630 -63.263036 280.082434 
9.894836 -65.302074 281.503171 
9.960166 -63.278593 278.971583 
9.996236 -62.867865 282.418191 
10.023737 -65.329544 280.403227 
10.027936 -63.016616 280.905127 
10.055767 -65.479465 278.891236 
10.098565 -65.092556 282.359690 
10.254178 -65.251112 279.730499 
10.268585 -62.974341 280.265510 
10.327227 -65.007828 281.681150 
10.400615 -63.012890 279.175729 
10.456886 -65.037988 280.583680 
10.484202 -65.171205 279.056400 
10.529310 -64.792484 282.532305 
10.681789 -64.939931 279.892981 
10.756456 -64.702384 281.848878 
10.885684 -64.731017 280.750006 
10.911162 -64.857721 279.216737 
11.111251 -64.635314 280.061424 
11.182532 -64.385764 282.006383 
11.315070 -64.426124 280.918241 
11.338666 -64.546168 279.378861 
11.538522 -64.322934 280.222803 
11.610572 -64.076111 282.170236 
11.739503 -64.103693 281.070381 
11.759947 -64.212568 279.520780 
11.964374 -64.005539 280.379564 
11.988433 -64.127214 278.841704 
12.040154 -63.771926 282.339126 
12.163059 -63.778162 281.219691 
12.183545 -63.887186 279.670268 
12.386854 -63.676186 280.525386 
12.405493 -63.778669 278.969943 
12.466029 -63.454598 282.495946 
12.586570 -63.452460 281.368852 
12.607034 -63.561410 279.819340 
12.807197 -63.339263 280.664265 
12.824403 -63.436679 279.104143 
13.004082 -63.105516 281.498551 
13.025948 -63.219428 279.953569 
10.229156 -62.798224 281.753480 
10.435792 -62.599003 282.619417 
10.464980 -62.738851 281.098217 
10.662422 -62.507071 281.934291 
10.704180 -62.691443 280.453891 
10.830206 -62.708736 279.344618 
10.895052 -62.436394 281.268656 
11.100967 -62.234622 282.132268 
11.132214 -62.381767 280.617744 
11.259574 -62.403783 279.512793 
11.330064 -62.151440 281.455129 
11.488521 -62.320061 278.835177 
11.524937 -61.910555 282.282889 
11.561844 -62.077746 280.786753 
11.692710 -62.112179 279.693186 
11.758743 -61.844043 281.621099 
11.916226 -62.009215 278.997958 
11.958609 -61.620850 282.465071 
11.990651 -61.770804 280.953109 
12.119356 -61.797585 279.852509 
12.186813 -61.534498 281.785041 
12.343924 -61.698351 279.160708 
12.415359 -61.449345 281.106144 
12.547424 -61.488029 280.016482 
12.623482 -61.255407 281.976908 
12.767527 -61.372980 279.310167 
12.841335 -61.132386 281.263292 
12.968763 -61.154637 280.158609 
10.909861 -56.209631 282.633752 
11.630572 -55.675846 282.403648 
11.714057 -56.608818 282.540917 
12.431136 -56.092739 282.292604 
12.516038 -57.018802 282.436967 
12.598737 -57.955604 282.570332 
9.585665 -54.510646 282.533556 
9.883471 -53.266644 279.157370 
9.893850 -53.266946 280.807018 
10.011738 -54.928362 282.537013 
10.085598 -53.051460 280.008674 
10.308081 -53.968556 282.311976 
10.613884 -52.667782 278.979600 
10.623439 -52.665159 280.626565 
10.730476 -54.404195 282.296985 
10.824803 -55.284325 282.488614 
10.829891 -52.501760 279.875934 
11.024967 -53.453419 282.062680 
11.031890 -52.286122 280.726850 
11.365802 -52.946705 281.920075 
11.449665 -53.877831 282.059222 
11.450888 -51.980905 279.245436 
11.543896 -54.758433 282.250375 
11.789618 -53.375412 281.912208 
12.087219 -52.409489 281.693488 
12.217958 -53.782083 281.927019 
12.352675 -55.135284 282.180518 
12.511521 -52.835826 281.688035 
12.854094 -52.320644 281.554133 
12.938712 -53.248085 281.697124 
13.032043 -54.133069 281.883717 
9.466746 -50.357457 279.713810 
9.550868 -49.135402 281.913936 
9.674035 -50.160557 280.581862 
9.897881 -48.598584 281.802267 
10.196076 -49.754757 279.532492 
10.404489 -49.561832 280.404210 
10.918749 -49.128476 279.329598 
11.129079 -48.942350 280.207515 
11.586442 -48.486378 280.223250 
11.615829 -48.445936 279.077083 
11.702106 -51.797390 280.117750 
11.867700 -51.595017 280.988783 
12.273299 -51.242333 279.463857 
12.423448 -51.925208 281.527787 
12.496978 -51.103488 280.385107 
12.783197 -50.757062 279.991061 
12.935886 -50.607361 279.264510 
9.493779 -48.088942 281.905740 
9.961345 -46.522610 282.490820 
10.252956 -48.057526 281.723618 
10.610564 -47.498394 281.658918 
11.161465 -46.227239 282.514453 
11.362420 -47.418363 281.457841 
11.420450 -46.249907 281.934380 
11.889202 -46.084452 282.230377 
12.098787 -46.863269 281.294644 
12.154283 -47.884218 279.524237 
12.430736 -47.622427 280.315369 
12.589562 -45.844700 281.857401 
12.714656 -47.282454 278.827101 
12.824337 -46.712738 281.003416 
12.857630 -45.899544 281.306773 
12.939335 -47.042832 280.200601 
13.231129 -63.015066 280.814797 
13.244237 -63.097954 279.241383 
13.445821 -62.880851 280.090928 
16.517626 -63.314237 282.601923 
13.193116 -61.054643 279.466093 
13.265101 -60.807589 281.413287 
13.386591 -60.808811 280.289292 
13.429206 -62.785529 281.652957 
13.474415 -59.346259 282.554656 
13.611152 -60.709551 279.597461 
13.651406 -62.677912 280.953467 
13.662230 -62.752709 279.372662 
13.804850 -60.464516 280.421406 
13.828373 -60.584296 278.881848 
13.849878 -62.449776 281.792909 
13.865596 -62.541917 280.227959 
14.026049 -60.353342 279.718697 
14.066555 -62.322594 281.075507 
14.077653 -62.398370 279.495567 
14.225099 -60.127262 280.559987 
14.244932 -60.233973 279.008418 
14.267275 -62.102426 281.922221 
14.280086 -62.184267 280.347884 
14.440787 -59.996575 279.839397 
14.480419 -61.962724 281.193316 
14.489245 -62.030450 279.606044 
14.633246 -59.747145 280.659288 
14.652646 -59.852324 279.106319 
14.693998 -61.824568 280.465871 
14.701847 -61.888836 278.875411 
14.849256 -59.617594 279.939741 
14.890119 -61.588112 281.297654 
14.902657 -61.668985 279.722452 
14.905812 -59.315894 281.836867 
15.041918 -59.368890 280.760318 
15.062175 -59.477106 279.210120 
15.104527 -61.452888 280.572921 
15.110780 -61.511502 278.977275 
15.299830 -61.213534 281.402081 
15.313812 -61.299525 279.831469 
15.512343 -61.071601 280.671120 
15.518968 -61.131529 279.076695 
15.666569 -62.473517 282.600492 
15.714681 -60.857166 281.523108 
15.719038 -60.909063 279.921323 
15.918361 -60.683943 280.763507 
15.922066 -60.733534 279.159605 
16.004581 -61.980553 282.443732 
16.125523 -60.523055 280.015230 
16.425876 -62.421549 282.423258 
16.528733 -60.125455 280.098468 
13.055236 -58.894951 282.585710 
13.235760 -56.489840 282.201916 
13.320099 -57.418648 282.343477 
13.397749 -58.380052 282.451540 
13.811706 -58.856815 282.394260 
13.957682 -55.950161 281.977832 
14.039134 -56.893036 282.104939 
14.121927 -57.829376 282.238782 
14.532974 -58.320317 282.166928 
14.757303 -56.371648 281.862080 
14.838933 -57.313655 281.990081 
15.255446 -57.777952 281.945646 
15.448635 -58.983702 280.854940 
15.465643 -59.080415 279.294223 
15.553513 -56.809750 281.729251 
15.848499 -58.574252 280.927360 
15.867120 -58.676668 279.371858 
15.898645 -56.282096 281.608164 
15.966943 -57.289079 281.669349 
16.064929 -58.446191 280.209154 
16.236503 -55.789881 281.450629 
16.267994 -58.270797 279.447585 
16.304834 -56.796703 281.511992 
16.649784 -56.269940 281.389981 
16.663533 -57.846021 279.505938 
13.155205 -55.542596 282.079309 
13.660746 -52.707855 281.473637 
13.754807 -53.589281 281.663925 
13.835973 -54.533556 281.789541 
14.429426 -52.610215 281.343311 
14.557907 -53.993814 281.565547 
14.635648 -54.954778 281.674087 
15.239340 -52.981537 281.279147 
15.359047 -54.407898 281.457424 
15.437256 -55.366579 281.568259 
15.915206 -51.996399 280.964822 
16.036477 -53.415131 281.150937 
16.156543 -54.839738 281.331003 
13.156557 -51.331013 281.359762 
13.186497 -50.359778 280.074626 
13.572413 -51.798519 281.312048 
13.820434 -49.741294 279.346526 
13.916289 -51.276974 281.184673 
14.239839 -50.439175 281.042546 
14.284930 -49.183465 279.812217 
14.336690 -51.722329 281.159699 
14.620516 -48.654907 279.231131 
14.667291 -48.595354 279.285401 
14.676929 -51.218517 281.014085 
15.014875 -50.725889 280.856997 
15.104465 -51.629100 281.024873 
15.273643 -49.279288 280.584186 
15.353892 -50.228026 280.705303 
15.692484 -49.732249 280.551434 
15.783464 -50.628681 280.726254 
15.987234 -48.780199 280.318409 
16.115185 -50.166391 280.537993 
16.403131 -49.247507 280.270874 
16.592720 -51.003210 280.658781 
13.057616 -45.676775 282.151133 
13.173373 -46.724930 279.294223 
13.431860 -46.464082 280.089855 
13.535820 -46.046827 280.764192 
13.650496 -45.521889 281.331688 
13.871335 -45.849226 278.853625 
13.900465 -45.886587 279.985100 
13.918850 -45.577742 280.781984 
14.199218 -45.174129 281.984866 
14.342842 -45.291029 279.317558 
14.426623 -45.084942 281.302273 
14.557925 -45.120921 280.210108 
14.930357 -48.317604 279.592037 
14.984243 -44.768698 281.984359 
15.089977 -44.714116 280.809194 
15.214961 -47.818020 279.949933 
15.551222 -47.425151 279.970765 
15.914872 -47.793027 280.236840 
16.055714 -46.896298 279.927343 
16.326658 -48.280366 280.168742 
16.632378 -47.274873 279.990673 
15.057132 -44.634245 279.086679 
15.302219 -44.571225 280.077398 
15.641464 -44.376154 281.471372 
15.738202 -44.289708 280.267030 
15.893154 -44.336520 282.483518 
15.943719 -44.122990 279.513389 
16.171707 -43.999404 280.448645 
16.373675 -43.820117 279.683471 
16.411893 -43.919031 281.423450 
16.605238 -43.709196 280.630320 
19.900940 -66.779077 282.502949 
17.319182 -63.726298 282.495886 
18.126115 -64.112142 282.416761 
18.207965 -65.053083 282.545835 
18.675903 -65.936677 282.618552 
18.793788 -63.166931 282.061368 
18.926961 -64.527653 282.307118 
19.392462 -65.423131 282.367617 
19.478388 -66.344209 282.517165 
19.597601 -63.567989 281.966627 
20.062819 -64.464845 282.025695 
20.193977 -65.835386 282.261342 
20.312114 -63.064411 281.705439 
16.726829 -59.932455 279.320777 
16.761597 -61.939761 282.254994 
16.934104 -59.735507 280.188769 
17.056791 -60.985558 282.024205 
17.188137 -62.355190 282.260805 
17.328857 -59.299715 280.236602 
17.481301 -61.410893 282.019824 
17.768651 -60.494911 281.749725 
17.906427 -61.833207 282.018542 
17.994184 -62.745362 282.177210 
18.199533 -60.889184 281.777292 
18.490503 -59.955567 281.525344 
18.713415 -62.218789 281.939685 
18.832631 -59.442550 281.389177 
18.919593 -60.358584 281.543881 
19.004356 -61.285317 281.687588 
19.513428 -62.638372 281.825900 
19.591458 -59.392929 281.209528 
19.678487 -60.308635 281.364560 
19.806210 -61.695922 281.583011 
17.045626 -57.337154 281.136632 
17.069180 -57.368670 280.061632 
17.122189 -57.346441 279.478967 
17.363243 -55.771500 281.123549 
17.579505 -56.788985 279.946446 
17.625788 -58.997948 279.883862 
17.626768 -56.767050 279.365212 
18.016312 -56.229126 280.415684 
18.063554 -56.210682 279.837817 
18.110100 -56.188784 279.256761 
18.140651 -58.418021 279.767484 
18.531119 -55.633243 279.733330 
18.562650 -55.612136 279.156059 
18.637596 -57.839040 279.655635 
19.145768 -57.259467 279.540986 
19.167988 -58.962539 281.219125 
19.611901 -56.682102 279.436856 
19.886022 -58.441792 280.975580 
20.086857 -56.104280 279.330522 
20.127183 -56.121606 279.889792 
20.224463 -57.946753 280.820996 
20.307070 -58.883998 280.953854 
16.716655 -52.408960 280.858249 
16.826052 -53.885572 280.984819 
16.952409 -55.279527 281.196415 
17.291641 -54.780617 281.045765 
17.509991 -52.861083 280.710965 
17.630264 -54.284681 280.892104 
17.702861 -55.270720 280.974805 
17.970422 -53.781260 280.746073 
18.309893 -53.281196 280.596614 
18.386299 -54.248668 280.698419 
18.651359 -52.771408 280.457139 
18.726664 -53.744249 280.553460 
18.955721 -55.058062 279.639661 
18.988386 -52.283246 280.295461 
18.988948 -55.036869 279.061914 
19.062571 -53.261541 280.386180 
19.361364 -54.483883 279.550701 
19.383626 -54.463264 278.975695 
19.403320 -52.755240 280.243099 
19.749139 -53.891193 278.896809 
20.084269 -53.340167 279.394925 
20.093325 -53.320244 278.823286 
20.115810 -52.245349 279.975176 
16.747620 -48.722990 280.146569 
16.885847 -50.059088 280.417621 
17.392704 -51.422928 280.544817 
17.565539 -49.055297 280.122489 
17.692314 -50.447200 280.336171 
18.196886 -51.822189 280.451924 
18.285274 -48.526272 279.887468 
18.370179 -49.452312 280.031890 
18.492438 -50.866242 280.222923 
19.046418 -48.465345 279.719442 
19.168571 -49.879786 279.909968 
19.285455 -51.319901 280.074090 
19.629976 -50.795231 279.949933 
19.698784 -51.799729 280.013681 
19.797433 -48.453797 279.500633 
19.881027 -49.386237 279.638469 
19.965108 -50.316300 279.778749 
20.046534 -51.259313 279.905707 
16.931402 -46.302002 279.779077 
17.079236 -45.330074 279.323280 
17.353905 -44.755641 279.237241 
17.387437 -47.243610 279.792130 
17.473787 -48.162609 279.943794 
17.635183 -45.850724 279.464126 
18.103192 -46.733979 279.537171 
18.182287 -47.688343 279.652476 
18.310320 -44.869129 279.146135 
18.392878 -45.806616 279.278815 
18.841937 -46.729237 279.268026 
18.932806 -47.679212 279.431194 
19.066885 -44.830531 278.955162 
19.156134 -45.735411 279.121339 
19.584257 -46.638105 279.031247 
19.690724 -47.634017 279.246986 
19.872285 -45.223855 278.868347 
16.806109 -43.526031 279.861599 
16.981810 -43.646336 282.145411 
17.090514 -43.653984 282.619983 
17.167341 -43.408837 281.326950 
17.422439 -43.385934 282.349169 
17.436568 -44.042081 279.136777 
17.486993 -42.972624 280.288398 
17.731337 -43.115172 282.029688 
17.785905 -43.143544 282.241404 
17.900810 -44.370696 279.225707 
18.031698 -42.696729 281.012267 
18.250756 -42.379610 280.109644 
18.253095 -43.808181 279.140443 
18.270508 -42.718504 282.086730 
18.551812 -42.422120 281.742305 
18.553605 -42.469896 281.978011 
18.654903 -44.344153 279.022306 
18.702073 -42.108625 280.856937 
18.728554 -41.782189 279.433221 
18.816881 -42.254977 281.843036 
18.969502 -43.295380 278.888762 
19.176824 -41.511361 280.181289 
19.245081 -41.835479 281.578332 
19.273039 -41.200705 279.309452 
19.520547 -41.542094 281.524241 
19.664424 -41.238464 280.919462 
19.789396 -41.274864 281.431854 
19.705467 -40.930711 280.061483 
19.775285 -40.621445 279.196292 
20.005196 -40.957626 281.120986 
20.192210 -40.657859 280.799895 
20.212183 -40.351212 279.947191 
21.041919 -66.691309 282.247186 
21.970335 -67.230634 282.620400 
20.528747 -65.358221 282.088339 
20.615395 -66.275798 282.241493 
20.777293 -63.961454 281.764328 
21.245409 -64.844176 281.837910 
21.331612 -65.763906 281.988829 
21.493262 -63.450776 281.510443 
21.755474 -66.192389 281.981200 
21.961561 -64.332619 281.584948 
22.048708 -65.247744 281.740606 
22.211498 -62.929057 281.267911 
22.471471 -65.681584 281.727493 
22.677045 -63.824311 281.328648 
22.765107 -64.734973 281.488866 
22.894330 -66.114955 281.714827 
23.188761 -65.164477 281.480193 
23.349352 -62.856518 280.996501 
23.481937 -64.220108 281.239301 
23.945522 -65.124921 281.290203 
20.392666 -59.806682 281.101704 
20.481037 -60.715835 281.263501 
20.607259 -62.110439 281.474411 
21.109080 -59.293847 280.850053 
21.195401 -60.212992 281.001568 
21.280658 -61.137326 281.147748 
21.406369 -62.534407 281.356096 
21.911241 -59.702940 280.747026 
21.996062 -60.629409 280.891031 
22.081100 -61.554808 281.036079 
22.713296 -60.112569 280.643463 
22.797328 -61.042882 280.783474 
22.883322 -61.963610 280.933350 
23.427790 -59.609093 280.382216 
23.510849 -60.544133 280.517340 
23.597259 -61.462842 280.669272 
20.521456 -56.983784 280.599207 
20.940302 -57.436712 280.566424 
21.024654 -58.365453 280.708075 
21.233700 -56.491267 280.326664 
21.571482 -55.999428 280.168742 
21.657560 -56.919757 280.319035 
21.740353 -57.856102 280.452818 
21.825414 -58.781389 280.598015 
21.993808 -56.435399 280.153423 
22.330958 -55.946630 279.992342 
22.413962 -56.881957 280.127198 
22.542061 -58.267418 280.347526 
22.625759 -59.199348 280.485868 
23.128066 -56.380365 279.863983 
23.214411 -57.299405 280.015588 
23.342833 -58.683287 280.237555 
23.927180 -56.804337 279.745668 
20.425353 -52.769382 279.322177 
20.501161 -55.529639 279.239416 
20.771254 -52.198343 279.248208 
20.930346 -54.954220 279.144555 
21.365680 -54.378480 279.048145 
21.771897 -53.804267 278.959036 
21.906788 -55.519663 279.998422 
22.142485 -53.231929 278.878868 
22.624539 -55.000305 279.753447 
22.879763 -53.570975 279.462934 
22.961907 -54.510485 279.593468 
23.045996 -55.440508 279.733807 
23.295634 -54.038405 279.415250 
23.589246 -53.091910 279.176533 
23.714611 -54.490697 279.383153 
23.802869 -55.400405 279.544353 
23.925215 -52.608911 279.009521 
20.376794 -50.804123 279.710114 
20.597069 -48.875213 279.384941 
20.673022 -49.844898 279.484510 
21.010078 -49.356591 279.322922 
21.078989 -50.360590 279.387206 
21.311872 -48.370224 279.125214 
20.341871 -46.099417 278.949350 
20.417882 -47.068808 279.049158 
20.512957 -47.945302 279.244512 
21.144267 -46.507381 278.847486 
21.235529 -47.402445 279.023707 
21.651113 -47.871273 278.974623 
20.418892 -40.469173 280.935973 
20.501146 -40.371377 280.910015 
20.583166 -40.264297 280.889571 
20.665118 -39.774544 279.846370 
20.717567 -40.083520 280.860603 
20.873923 -39.899256 280.827135 
20.948064 -39.187372 279.218823 
20.959331 -39.794445 280.808300 
21.034673 -39.686199 280.787617 
21.104589 -39.504182 280.596644 
21.227529 -39.358977 280.717224 
21.309689 -39.221276 280.677706 
21.337761 -38.614024 279.133856 
21.348372 -38.919065 279.978871 
21.459730 -39.017130 280.602515 
21.509495 -38.930040 280.507863 
21.586748 -38.867053 280.552804 
21.668987 -38.043760 279.063523 
21.759804 -38.641781 280.490428 
21.923654 -38.358670 280.413210 
22.111341 -37.487090 279.534757 
22.198135 -37.839506 280.304641 
22.230197 -37.784342 280.291289 
22.255445 -37.722100 280.285060 
22.268211 -36.906548 278.938800 
22.470731 -37.302401 280.216217 
22.517933 -37.214462 280.176282 
22.601886 -36.930561 279.991001 
22.837786 -36.444761 279.857904 
22.869494 -36.356829 279.818386 
22.908261 -36.076505 279.647469 
23.132689 -35.531025 279.583037 
23.188826 -35.219032 279.315621 
23.277912 -35.224210 279.582053 
23.381667 -34.944858 279.555410 
23.486102 -34.490738 279.428244 
23.516599 -34.376949 279.382139 
23.590358 -34.095872 279.236436 
23.714174 -33.611175 279.136687 
23.726629 -33.528324 279.105484 
23.752594 -33.247497 278.931141 
23.901641 -32.716580 278.874010 
23.920916 -32.643527 278.866351 
23.970528 -32.402415 278.853655 
24.149738 -63.274264 280.884594 
24.281122 -64.643718 281.121373 
24.618233 -64.155154 280.960083 
24.678584 -65.905087 282.442033 
24.702501 -65.084294 281.101286 
24.953401 -63.676052 280.789077 
25.039835 -64.594656 280.941129 
25.373239 -65.645128 282.050550 
25.469182 -65.519392 282.459587 
25.636151 -65.522507 281.516582 
25.667680 -63.173614 280.526698 
