# .PCD v0.7 - Point Cloud Data file format
VERSION 0.7
FIELDS x y z
SIZE 4 4 4
TYPE F F F
COUNT 1 1 1
WIDTH 1575
HEIGHT 1
VIEWPOINT 0 0 0 1 0 0 0
POINTS 1575
DATA ascii
26.50918 99.994766 88.828293
27.048334 99.797981 88.51123
27.084614 99.539742 88.358177
28.599787 95.756706 87.206276
29.807892 95.834183 87.020676
59.695946 92.621796 -22.641699
63.4883 90.020233 -21.686607
62.153938 90.517677 -22.382093
61.53661 90.683556 -22.824986
60.116829 91.114677 -23.868378
64.119141 88.363586 -23.704721
57.836109 91.17527 -26.167267
64.34034 88.1101 -24.103765
64.857391 87.867752 -24.004652
57.978928 90.58477 -27.065123
65.308411 87.061119 -24.957724
58.399807 89.700775 -28.007225
58.232273 89.496361 -28.3305
64.036285 86.784653 -26.512503
62.800449 86.796837 -27.545424
62.136726 86.88176 -27.972506
59.211361 87.927521 -29.874422
60.414127 86.981773 -29.658428
57.61655 90.957893 -26.854055
56.633926 95.353317 -77.247314
40.056458 100.29814 -41.371719
40.105602 100.16223 -41.931896
40.249943 100.10518 -42.144726
40.101467 100.30902 -44.011848
58.45974 100.25554 -81.140137
84.894653 74.268494 68.586792
86.563698 75.078377 67.858887
102.85193 73.378304 10.939105
99.853043 73.605324 7.8271308
99.396835 74.428299 7.3903232
120.01224 74.523933 -56.004543
66.242165 92.549202 85.467445
68.382408 92.529861 84.78286
69.108879 92.64418 84.71859
70.1222 92.793831 84.770004
64.556419 85.509895 80.282867
65.114731 85.077744 79.784393
65.493095 85.305611 79.826035
66.78389 84.603264 79.190239
69.971428 86.453461 79.522705
69.78923 85.520699 79.014816
116.71862 74.732025 -59.30238
116.27931 75.619347 -59.660286
112.60507 75.143959 -63.162006
110.97857 74.816406 -64.589554
64.151787 90.844582 84.547623
63.7771 89.469124 83.174484
64.225182 88.811699 82.806519
64.482361 88.492027 82.813461
64.02626 87.63884 81.739517
84.813042 91.230766 0.14624199
89.58567 87.860054 -0.52538198
84.70739 88.031471 -5.0121059
86.278152 87.678543 -4.592957
84.776932 87.830734 -5.1884198
86.132706 87.525276 -4.9139581
87.840286 87.428352 -4.5751271
87.239815 87.304489 -5.1631789
95.678139 86.359009 -25.106335
96.276756 86.139954 -25.613655
96.784081 86.301697 -25.744265
109.24 75.11293 -66.046333
108.85585 75.231094 -66.350258
104.80547 74.681168 -69.425247
49.029957 98.608322 92.863914
83.419876 91.448898 -0.112328
82.741066 90.614136 -1.302215
82.928238 89.950546 -1.815881
82.985748 89.761589 -1.977809
82.865639 89.631897 -2.3106561
82.932121 89.424942 -2.483573
82.845657 88.582352 -4.0437121
76.035286 87.923645 -12.125194
77.010139 87.67382 -13.088358
78.135162 86.999054 -14.42133
76.610092 86.944046 -16.879641
77.008087 86.929253 -16.976206
73.628227 89.133659 -11.510901
73.399414 89.158012 -11.648091
72.335243 89.372765 -12.366374
72.271866 89.367371 -12.730572
91.318222 84.351585 69.062256
92.268883 84.044495 68.014343
94.12693 84.216019 66.777794
94.744102 84.276947 66.363564
95.974236 84.390739 65.54097
98.586975 85.915207 64.513542
110.76798 83.423584 14.550983
111.94282 74.294022 14.500822
91.878845 90.310074 73.368866
91.926064 90.067268 73.202766
91.452156 88.076721 71.858696
90.937294 86.347878 70.666985
90.968231 85.712967 70.388527
106.42658 85.897026 13.329228
107.8879 84.151199 13.88105
124.77793 74.371422 -50.32185
123.28529 74.442253 -52.187023
121.26804 74.496399 -54.658829
73.769714 92.822929 83.76722
62.283489 98.750954 92.232964
92.284012 97.650452 7.077466
89.040237 94.346146 4.9553041
88.294609 93.572266 4.3455319
87.399246 93.301094 3.6803601
87.736435 90.12336 1.098628
87.867943 90.044022 0.88643003
101.02869 93.925499 -23.272673
102.08799 93.940498 -24.279837
100.03286 87.331703 -26.702011
76.504974 99.095932 15.512934
83.346695 99.732826 16.208057
75.132416 98.731522 13.646722
83.694374 99.640152 14.778316
75.744804 98.665047 12.3311
75.868637 98.688004 11.722007
76.033958 98.660744 11.484966
76.373085 98.557327 11.430204
76.181313 98.614655 11.264964
76.243202 98.729111 9.8807316
84.35331 99.777695 10.357762
81.752792 99.584518 9.3832083
94.339905 94.08622 -62.568863
91.350357 93.946304 -64.235878
92.368912 94.304924 -64.132896
98.297501 97.074776 -73.14785
98.005318 97.720604 -73.309166
96.436195 98.779816 -74.129402
95.557045 98.7901 -74.653671
95.019348 97.50882 -74.958282
90.268188 100.88569 -73.511147
92.954399 98.476868 -76.010826
99.525314 88.403366 65.77932
115.69788 90.507462 14.786034
115.52666 89.771332 14.795149
115.47705 88.07724 14.781207
107.52016 90.604507 13.819937
109.4336 92.940819 14.134538
108.87071 92.724327 13.992908
107.14023 88.722603 13.723243
110.8353 92.790237 14.329602
111.49625 92.87439 14.370911
112.6447 93.031799 14.557976
115.71852 91.78093 14.720402
108.2943 98.60141 14.05308
122.15841 95.224678 -35.823093
104.44707 99.500076 -20.552931
106.58225 99.475426 -22.191093
106.87305 98.705437 -22.87249
106.75085 97.702927 -23.994114
103.98781 94.63121 -24.848377
106.90054 96.990967 -24.474504
106.51289 95.407837 -25.42845
106.85458 95.645531 -25.358841
118.56979 99.112679 -56.75351
116.63754 97.952934 -58.838497
114.80315 99.172501 -60.502853
112.64645 98.362541 -62.580894
111.77483 98.823158 -63.323502
110.99817 98.688408 -64.024529
110.65462 98.876572 -64.326988
110.29898 99.076195 -64.607475
109.89108 99.117188 -64.888901
109.49169 99.207703 -65.157021
108.70616 99.06115 -65.854218
108.5086 99.108856 -65.990616
108.43391 98.615662 -66.103317
107.32664 99.062325 -66.958466
104.36173 99.958084 -68.511986
106.7349 96.959106 -67.507019
104.14606 99.967857 -68.639038
105.39907 98.497101 -68.427757
105.20854 98.557411 -68.569084
109.48524 99.199593 14.351539
122.5603 95.331009 -35.034313
131.30045 100.19161 39.538994
141.83771 100.16338 -10.657522
139.69699 100.01642 -19.85836
-5.1433611 93.729729 -53.901871
-23.697762 99.938362 -44.654518
64.87574 73.937592 -30.414886
61.882103 73.362007 -32.034645
62.034203 72.863647 -32.023026
59.961685 74.26387 -33.131317
59.656708 73.877396 -33.354321
54.440952 73.006424 -37.440163
52.066605 73.743546 -39.542751
52.002651 73.376823 -39.660969
71.659203 73.53624 -27.892319
72.749298 73.668915 -27.600058
65.868134 80.021057 -29.50688
72.301231 79.79715 -27.530472
68.126968 74.267532 -28.868519
67.045845 75.012039 -29.301691
70.839233 73.428947 -28.129999
66.167625 75.363098 -29.763178
65.948029 75.453918 -29.876764
64.030556 77.729538 -30.772572
89.295006 74.451424 -78.312828
88.238693 75.156815 -78.705307
82.1651 75.153755 -81.121101
84.385345 73.975677 -80.425331
61.604511 86.849411 -28.371702
60.886124 86.682648 -29.434233
57.133827 84.690727 -34.528652
75.044472 76.158714 -83.244057
77.38443 75.270325 -82.607979
50.623997 86.601181 -40.73008
49.497833 87.678612 -41.973522
63.120533 84.357872 -85.252533
63.239059 85.669746 -85.21167
84.712311 75.585152 -26.077803
87.518822 74.751144 -26.23381
89.907364 74.440132 -26.498636
90.862389 74.315865 -26.711128
107.84805 74.266693 -67.348991
107.00069 74.28775 -67.956673
104.44704 74.398994 -69.753151
102.69957 74.345535 -70.923332
100.32965 74.592926 -72.43206
77.582489 86.88829 -16.062435
77.719124 78.777435 -26.410246
79.117607 78.772507 -26.245029
97.457809 74.79258 -74.116287
93.729195 74.425499 -76.147591
73.608017 89.038109 -11.487211
71.938057 89.296242 -12.791642
70.367973 88.947433 -14.646666
70.387367 88.711052 -15.440473
70.703491 88.018738 -16.494808
71.688095 87.640244 -17.499569
71.772797 87.564095 -17.733877
71.866562 87.478546 -17.96566
74.619148 86.823128 -18.535685
69.657784 82.972282 -27.010527
72.933876 82.032997 -26.337767
59.443142 92.861511 -22.827263
62.116791 90.421242 -22.458185
63.628365 89.300636 -21.967512
63.696938 89.13826 -22.170654
60.440487 90.92482 -23.58779
63.754368 89.045433 -22.397915
60.785866 90.844269 -23.73863
63.824871 88.916054 -22.614239
63.984287 88.654594 -23.035585
59.020729 91.424515 -25.241806
58.562099 91.551407 -25.458256
64.210823 88.330246 -23.704651
64.518982 86.794945 -25.84446
64.590942 86.674232 -26.063351
63.964935 86.703094 -26.589067
62.186707 99.045609 -85.208023
62.745167 99.187286 -85.074112
64.874352 99.03051 -84.828651
70.363129 98.760963 -83.913071
70.638306 98.829964 -83.838913
53.559006 99.294708 -85.787514
109.48563 73.706787 13.966888
104.20628 73.318169 11.837612
101.87575 73.927711 10.106535
101.62811 73.628311 9.86905
98.072975 76.300705 -27.9625
102.75253 84.107674 -28.500866
102.71088 83.707481 -28.599987
103.48875 80.808578 -29.271605
104.30422 74.011055 -30.711613
110.33147 74.281075 -65.341232
84.552811 91.220741 0.117418
87.154312 90.207832 0.909087
88.983437 87.777039 -1.1434751
89.384224 87.300056 -2.894851
87.624748 87.352837 -4.7360921
93.540405 83.873459 -25.508348
94.028954 84.750931 -25.500282
95.064583 85.730461 -25.352203
94.458344 85.164688 -25.563747
96.466705 86.399513 -25.520136
93.534325 79.460503 -26.576153
93.457932 78.983101 -26.666426
102.55286 84.516701 -28.457905
84.026733 91.492783 0.128823
84.325699 91.282722 0.0097599998
83.07692 91.333466 -0.423031
83.126823 90.901886 -0.76844501
83.502823 88.336807 -4.1682882
83.622246 88.315674 -4.4268241
83.804604 88.424278 -4.7329102
84.247711 88.039017 -5.301888
75.89817 88.466995 -11.03858
76.266922 87.87899 -12.136484
77.827576 87.408165 -13.811311
74.085251 88.962524 -11.290299
88.06916 97.798904 -78.362701
86.121964 98.558594 -79.110542
87.70166 97.234062 -78.529602
85.314728 98.095749 -79.47403
84.265663 97.641212 -79.916847
84.355484 97.037155 -79.892174
79.036423 98.098587 -81.679909
76.837776 97.258247 -82.372009
113.10431 74.200989 14.571642
115.10906 74.168861 14.625607
107.39154 87.371796 13.722721
107.04768 88.065773 13.519571
109.73082 82.878914 14.225855
97.60704 87.723511 4.7783022
88.826721 93.379105 4.592236
88.391228 93.54496 4.3604622
88.152931 93.297607 4.1191988
88.645325 89.854042 1.28596
98.552658 94.369087 -19.709669
100.35702 94.656685 -21.640507
100.46619 94.082901 -22.194532
101.61221 93.636635 -24.239965
101.96345 93.888046 -24.251024
98.279564 86.906265 -26.063345
99.108482 86.814034 -26.625713
100.87845 87.564209 -27.009964
102.78545 86.858009 -27.798861
104.84763 98.032204 -68.94072
94.292191 93.127747 -61.361443
102.66187 98.798256 -70.337563
102.00069 98.65419 -70.781067
101.53299 98.393715 -71.11219
97.022156 98.496002 -73.854836
96.027626 99.246674 -74.25415
95.778084 98.943909 -74.492104
94.03212 97.964729 -75.503471
93.824661 98.04998 -75.603813
91.160324 98.270813 -76.919777
90.939476 98.297119 -77.028229
90.516739 98.440872 -77.227631
89.984543 98.05146 -77.521187
89.757034 98.080177 -77.614418
116.04798 91.537804 14.765974
116.07053 85.614861 14.750734
116.87888 86.737999 14.66936
112.20729 93.379333 14.609858
107.40965 98.640411 13.714643
107.16511 98.659973 13.637906
106.82107 98.119652 13.518198
105.73058 98.796394 13.089326
106.55726 98.190155 -23.448914
106.67554 97.614632 -24.019775
103.79628 94.50045 -24.837082
106.18972 95.311111 -25.333443
108.06194 99.127403 -66.350273
107.45764 99.400345 -66.679443
106.64593 99.16954 -67.427788
106.33129 98.398567 -67.766045
108.41434 98.666847 14.022105
111.45451 99.744339 14.694932
118.32824 100.08767 14.573662
120.16042 100.1104 14.247543
-5.4453359 73.584724 47.733841
-4.544354 73.745483 47.970455
-4.2599812 73.712746 47.986359
-3.784344 73.281395 47.930729
-6.491807 73.610909 47.036831
-11.506208 80.861313 43.433678
-12.005086 80.918716 43.062012
-11.770428 80.324036 42.448673
-12.459578 80.622818 41.925442
-9.1484718 74.029739 43.098701
-10.456929 75.452072 41.53577
-11.108871 75.409218 40.239449
-13.37916 79.393837 38.733803
9.476058 75.275063 -27.792971
8.0778742 75.005119 -28.300554
12.085221 73.123421 -27.18627
14.121315 73.427444 -26.985643
5.319562 74.415314 -29.592947
4.953341 73.097061 -29.841791
3.193157 74.950302 -30.836784
1.9797 74.177376 -31.677748
-25.283464 92.291283 -20.633284
-24.603941 91.792007 -20.653519
-22.013306 89.071594 -20.028461
-23.555161 90.741112 -20.665852
-5.1968722 82.229378 49.563129
17.392721 73.734451 -27.332701
18.148544 73.380241 -27.423454
-11.793115 84.906601 46.814526
-13.052876 86.197166 46.31208
-11.012986 83.573502 46.678787
-10.683026 82.86055 46.811569
-11.037275 81.496964 45.017052
-13.933276 87.752312 47.293259
-14.35874 88.131577 47.045094
-14.551889 88.19912 46.67041
-13.479178 86.859795 46.546036
4.811543 88.503792 -29.720909
6.2202668 83.779762 -29.007708
5.4687042 83.042625 -29.242701
5.3839712 85.246979 -29.48488
5.2059522 85.480019 -29.613234
4.9684358 86.361877 -29.786234
5.0314598 85.747459 -29.742748
4.1583252 81.225258 -29.829794
3.8512499 91.179916 -30.269588
3.6734719 91.415695 -30.393492
0.73949897 92.23735 -32.38039
0.960859 92.12825 -32.303574
-0.74129498 91.02317 -33.866261
28.231812 74.829262 73.33522
27.486233 73.950302 72.885353
31.545422 73.226051 74.052773
33.723778 72.875351 74.649055
27.014704 73.04158 72.488396
27.282393 72.974304 72.546333
33.662792 72.538414 74.518982
20.104942 78.475128 71.201454
23.945131 75.714127 72.052612
24.211666 75.637505 72.106926
25.124535 73.377708 71.914436
25.575344 72.864029 71.935135
19.447197 80.773285 71.734001
53.841667 75.971947 -86.19146
56.068844 74.389915 -86.20752
57.476898 73.756256 -86.151848
58.571751 74.038986 -85.950516
58.495438 73.66832 -86.082687
60.102428 74.995781 -85.733307
49.060867 74.909775 -86.274666
49.48777 74.480019 -86.321159
15.90221 85.621559 -26.994131
11.221643 90.289223 -26.912216
12.273108 89.364113 -26.686047
12.718191 89.102852 -26.536983
13.318358 88.255646 -26.676216
4.86057 96.454964 -29.473825
4.4659839 96.825897 -29.674458
3.357563 97.144081 -30.468538
2.984386 97.559929 -30.691813
2.5899689 97.923264 -30.890514
2.1378109 97.984398 -31.238913
1.4897799 98.243233 -31.687798
3.0588739 92.710381 -30.778587
1.9422669 93.166283 -31.350527
0.141361 98.352417 -32.960804
-0.052685998 98.544746 -33.062649
-0.25595501 98.705475 -33.152893
29.221596 78.355263 74.684822
29.489918 76.885757 74.329582
70.363579 73.553459 -28.148184
71.083107 73.260735 -27.971535
70.076454 73.354347 -28.348351
67.302254 73.540756 -29.428902
65.875259 74.026543 -30.007923
22.941816 85.340263 75.737282
24.202902 84.487595 75.633682
28.956947 79.821327 75.051315
63.166473 73.154327 -31.414898
59.016136 73.528954 -33.805977
58.528877 73.557251 -34.126499
72.820877 74.622604 -83.831474
78.323341 74.558754 -82.414299
18.578241 87.735352 75.803421
18.005747 87.481331 75.299057
18.289873 87.443405 75.326675
16.250187 86.88858 74.355278
15.384526 86.490906 73.611389
15.06694 86.114067 73.193375
21.232704 84.871582 74.692833
20.072557 84.475311 73.966164
62.756855 74.186119 -85.530151
65.132072 74.420212 -85.214256
69.369263 75.074844 -84.463364
69.603027 74.985451 -84.425537
70.828644 75.874947 -84.18232
71.867889 74.902077 -83.991386
57.765087 83.978043 -85.858444
78.378532 79.106201 -26.328686
76.678917 73.609528 -26.800671
79.335716 73.640121 -26.436197
79.526779 73.231644 -26.495422
82.342377 73.963585 -26.201731
95.42524 74.469177 -75.295601
94.301804 74.93425 -75.818085
33.382034 88.497719 81.341217
32.733891 87.88398 80.739555
70.598755 82.245155 -27.039154
72.590401 81.908836 -26.511587
73.294563 81.446968 -26.538719
72.84021 78.958214 -27.310398
72.764725 73.749367 -27.582026
90.833115 74.423134 -77.665848
89.615471 74.392784 -78.252426
87.076897 75.131508 -79.25351
83.897903 75.18644 -80.501625
29.99663 94.191582 85.869621
32.72681 92.193283 83.861649
32.703465 91.946899 83.676559
32.614647 91.128845 82.900093
32.922054 89.173531 81.553802
26.372915 88.441483 79.363457
27.733948 88.162849 79.547821
31.337618 87.914818 80.384712
32.43084 87.550865 80.289581
65.191116 86.75489 -25.189951
63.523972 86.527504 -26.864946
66.507912 81.78801 -29.010126
61.448696 81.216835 -32.05444
80.410118 76.180344 -81.665955
78.867577 75.920853 -82.173264
81.837837 74.743507 -81.258614
23.046143 91.083061 80.597763
58.306175 91.202362 -25.690607
57.859131 91.32206 -26.05851
60.31818 86.878426 -29.764292
59.455303 87.496216 -30.110661
20.362036 99.809746 41.351864
29.387016 99.627899 39.918201
28.468069 99.572762 38.671597
29.556627 99.607895 38.972015
27.082798 99.484169 36.817799
63.43277 88.160286 -85.200409
64.009949 87.444885 -85.117744
63.953114 86.204292 -85.146378
20.153463 99.838737 40.999496
40.172585 100.83907 -43.034534
40.198734 100.82156 -43.321655
40.549706 100.46228 -44.25259
40.948723 99.573837 -46.34066
40.978577 99.373337 -46.798977
53.421734 99.896812 -80.899193
53.418961 97.485497 -85.981453
54.840939 99.033249 -85.800545
55.096729 99.033165 -85.780891
55.379581 98.115433 -85.892067
55.975185 95.619614 -85.864204
56.887909 98.054901 -85.801399
38.05751 100.15961 -39.932629
33.054764 100.43388 -45.627426
33.622971 100.62749 -46.849384
37.735149 100.30403 -47.949764
35.539013 100.50848 -48.695034
39.267735 99.88755 -48.249657
40.003525 99.59893 -48.360863
40.233059 99.506195 -48.304691
48.375954 96.986366 -86.001358
50.505268 99.170761 -85.794319
49.63382 97.765594 -86.009987
50.858894 98.460831 -85.994385
51.746723 98.934669 -85.894989
51.381405 98.49469 -85.993935
52.952259 98.602715 -85.966644
41.695396 98.363007 -85.596184
97.537666 73.326576 -28.254108
98.060654 73.166176 -28.461332
98.636749 73.378975 -28.575102
99.754433 76.341164 -28.580297
99.278404 73.757851 -28.717718
103.12846 73.309952 -30.403078
88.549606 73.835861 -26.522182
89.10675 73.911835 -26.532703
91.163292 73.172974 -26.956516
93.990974 79.292389 -26.797932
93.565353 78.409477 -26.934143
94.294785 76.611092 -27.159079
93.056839 72.979012 -27.384697
94.71624 75.902031 -27.352579
94.13002 72.711708 -27.797758
94.648766 72.676582 -27.772734
94.939507 72.573174 -27.974339
96.099045 73.099594 -27.924562
96.641769 72.973892 -28.120857
97.275665 73.537643 -28.117226
78.379845 87.002457 -14.688844
78.395515 86.909035 -14.928502
78.416634 86.853172 -15.179708
78.462234 86.837685 -15.473606
73.982437 88.84079 -11.365579
73.51638 88.916039 -11.712934
72.79763 89.048027 -12.10171
75.983604 88.088791 -11.493972
70.671326 89.509995 -13.295209
71.875 89.08725 -13.033849
76.0075 88.018646 -11.749382
70.462936 89.101807 -14.256941
70.615227 88.55191 -16.015471
71.177345 88.205902 -16.698055
71.431526 87.761078 -17.335644
78.236549 86.848969 -15.769836
73.095268 86.918732 -18.885773
62.274815 90.26107 -21.865408
61.824913 90.367836 -22.226955
61.607265 90.40078 -22.546394
60.985981 90.592529 -23.234964
63.511295 88.808098 -23.399271
63.750935 88.719307 -23.344067
64.005394 88.549019 -23.543114
64.024467 88.473907 -23.798416
64.259254 88.36248 -23.728592
76.135597 96.505531 -82.599129
65.738365 97.309647 -84.782089
66.861092 97.781113 -84.653023
67.795044 97.538208 -84.511436
69.288147 98.644585 -84.128532
68.832306 97.752609 -84.28595
60.617073 100.06419 -80.626625
59.764942 98.419296 -85.535927
59.859585 97.815773 -85.548485
61.839825 98.679008 -85.304977
61.31049 97.594666 -85.389229
62.657494 98.983414 -85.13739
64.006828 98.338387 -85.040298
64.20253 97.136581 -85.037086
118.16785 73.190918 14.103171
105.99091 74.012077 12.732756
108.96061 73.025002 13.673948
111.79134 74.139824 14.320515
114.07185 74.938683 14.510692
115.26123 73.950981 14.493938
103.31328 78.991859 -29.499743
103.05061 77.539192 -29.638336
110.15665 82.772987 -32.346134
86.480576 90.414673 0.843301
89.511627 87.585991 -1.963238
89.557434 87.447563 -2.4953561
86.376961 87.447952 -4.6453848
88.713974 87.184319 -4.45924
93.442543 84.005836 -25.48274
93.78463 84.444466 -25.415148
94.772041 85.280441 -25.524704
94.43486 84.899269 -25.631304
94.24427 82.357147 -26.038937
94.313377 81.205864 -26.337006
98.332115 86.983429 -26.021975
97.985748 86.358253 -26.276863
100.31355 87.090073 -26.871628
103.13718 85.868591 -28.141203
102.98969 85.022873 -28.292437
102.46901 83.447624 -28.654818
102.79259 82.24382 -28.90262
85.289925 90.914536 0.53201997
85.522736 90.808891 0.59977901
84.591896 91.114059 0.102381
85.297714 90.790504 0.303498
85.053963 90.905006 0.239336
79.43779 92.955971 -2.2542291
78.892906 92.492546 -2.8948841
82.581909 90.540726 -1.705488
83.050995 89.733162 -2.4357951
83.047195 89.574432 -2.6431651
85.639748 87.518478 -5.004662
92.659561 93.908234 -63.216133
89.470879 93.553787 -64.566261
89.473541 98.353233 -77.737747
88.761009 98.352341 -78.031624
87.139595 98.529884 -78.712074
85.605797 98.002228 -79.355598
85.10733 97.879333 -79.586464
75.693489 98.858498 -82.585915
112.86363 80.907806 44.221111
118.43233 73.202705 14.06498
118.71136 73.22747 14.072073
114.12453 83.226547 14.600737
116.47813 84.434738 14.542986
107.51458 88.98835 13.499543
107.42648 86.999817 13.462195
107.57594 84.879631 13.49428
111.29069 84.48452 -32.60339
92.712219 97.773293 7.1883488
92.203751 97.71563 6.9201188
87.712791 93.188721 3.7698929
98.096138 93.628983 -20.320156
100.38136 95.351822 -21.178556
100.09472 94.965347 -21.55434
100.94994 94.302643 -22.892502
100.96243 94.229195 -23.141275
103.26476 94.408508 -24.604261
104.71478 95.008675 -24.880041
79.912849 99.287109 16.348928
84.041473 100.05475 13.209544
80.998634 99.426292 9.3149595
83.925797 99.6828 9.8160038
83.422195 99.629333 9.5348873
87.124908 94.084869 3.5496359
75.40593 98.902275 13.471909
75.840477 98.975243 12.520257
75.921272 98.972122 11.929058
76.418556 99.092979 10.647026
76.470818 99.083588 10.343683
90.48011 100.70449 -72.624939
89.372078 100.7585 -73.510498
89.876991 100.79872 -73.493614
113.06238 84.446793 47.372997
113.09001 84.334862 47.12767
113.41944 84.142799 46.300713
113.76423 83.795029 45.256958
117.30219 88.810341 45.255615
109.19235 92.773674 14.030984
108.04333 90.59082 13.76008
110.19257 92.539925 14.194818
110.44253 92.476974 14.232975
111.26596 92.743866 14.40038
111.20682 92.355453 14.32407
113.08829 92.612793 14.498295
115.64352 92.087807 14.551281
107.92131 98.743614 13.771668
108.7131 98.897629 13.992384
109.26995 99.169884 14.146044
105.22903 99.253189 12.830658
106.53363 98.038696 13.273421
122.10365 95.234116 -36.025311
92.310364 100.42471 23.431511
103.21729 98.500221 -20.218422
103.49629 98.647583 -20.282333
104.38691 99.072762 -20.48942
111.89149 99.426094 14.622844
117.93479 99.313225 14.4984
121.75719 99.689194 13.741575
12.078359 73.705727 -77.806732
12.4802 74.314911 -77.960777
21.363981 72.806908 -81.705505
22.475739 72.456596 -82.25251
22.708059 72.395309 -82.319176
23.437859 72.340118 -82.559311
24.360508 72.760246 -82.514702
25.090111 72.703949 -82.753326
25.438793 73.018059 -82.747368
25.329945 72.661949 -82.820511
25.231659 72.428726 -82.973999
26.894363 73.816025 -83.094742
28.931757 73.045006 -83.763153
29.40799 73.863625 -83.757156
14.081131 73.890007 -78.64109
14.933474 73.427071 -79.032173
17.921383 73.635986 -80.239883
19.266483 73.225677 -80.857277
20.23341 73.108017 -81.157814
-26.99556 92.751411 -16.894091
-25.487246 92.434692 -20.14963
47.773232 74.482979 -86.23027
48.331806 74.568184 -86.215073
35.195374 73.792473 -85.012932
36.945316 73.636276 -85.294182
37.066868 73.15081 -85.395004
37.655357 73.438171 -85.443367
39.740524 74.546173 -85.609352
41.249134 75.457062 -85.758392
42.521217 75.40377 -85.901283
43.20163 73.960358 -86.044327
45.040813 74.043312 -86.174248
45.962173 73.58493 -86.298584
-0.66312402 90.571342 -53.007435
-1.305473 91.990463 -54.379509
1.932229 98.103226 -72.016518
3.218864 98.537773 -72.72068
5.615037 98.010757 -74.219704
-2.7046349 98.66716 -68.7929
49.587654 75.466064 -86.240334
49.593391 74.419556 -86.313354
25.889259 98.371201 -82.612099
14.070611 97.122963 -78.405251
15.032411 97.172234 -78.804237
15.922816 97.845329 -79.170914
18.32122 97.908112 -80.107315
18.890879 97.334625 -80.319389
19.924786 96.689789 -80.680969
21.646921 97.817207 -81.309555
22.576361 97.671974 -81.592102
23.65349 98.100349 -81.916222
24.443113 97.417198 -82.167366
25.056046 97.961922 -82.386719
10.094969 98.137405 -76.548302
10.937197 97.765663 -76.962997
40.32679 95.945961 -85.417763
41.372437 98.173683 -85.500854
42.124859 98.972107 -85.330704
41.480736 97.617729 -85.548035
41.4645 96.513168 -85.546539
42.580559 98.846024 -85.440132
43.036915 98.709808 -85.533943
44.270008 97.691818 -85.778656
44.825527 97.887291 -85.804718
45.049885 97.782501 -85.828812
26.347605 98.264954 -82.735497
28.751099 97.209175 -83.396805
29.927799 97.998466 -83.666
30.841137 97.744759 -83.883568
31.068073 97.669502 -83.931221
31.297577 97.605957 -83.980431
32.223743 98.335693 -84.13501
32.451752 98.269974 -84.187714
32.781448 97.624222 -84.264488
33.815849 97.834953 -84.477119
34.267197 97.666 -84.561661
36.760609 97.720886 -84.960045
51.553654 98.286476 -85.980843
52.509682 98.873131 -85.786591
53.902679 99.133545 -85.581879
54.270439 98.767937 -85.819405
54.585716 98.93103 -85.731659
56.113422 98.842751 -85.701385
57.414322 98.825523 -85.614677
57.859756 98.568512 -85.657722
58.849064 98.417656 -85.663948
43.810509 98.761398 -85.573875
44.264351 98.614304 -85.670395
46.046066 97.703842 -85.880356
46.375195 97.993599 -85.881271
46.706444 98.287415 -85.857384
46.92836 98.170235 -85.889252
50.525661 99.068169 -85.691696
106.16633 72.599022 -32.111832
62.473186 99.008537 -85.049088
63.235161 98.925095 -85.010651
63.682426 98.680023 -85.048332
61.322018 100.15965 -80.602661
123.07158 83.524895 -5.4106011
116.09959 99.922714 -50.771236
122.62205 91.026436 38.130016
-6.0877881 72.533325 -66.879135
-14.477587 74.889519 -59.300205
-11.282873 73.596703 -62.425789
-10.661568 73.677376 -62.955128
-9.0251474 73.774712 -64.319229
-7.9844422 73.878311 -65.17244
-7.3996902 72.959778 -65.751312
9.4624109 72.681168 -76.641579
11.083474 74.478828 -77.262978
14.670215 73.688194 -78.890434
16.142788 72.973351 -79.599686
-4.8003788 73.354263 -67.670532
-3.2408011 73.702255 -68.765068
-1.4083411 72.639969 -70.215019
-1.207558 72.609505 -70.365707
0.47583801 73.265007 -71.39241
3.9124119 72.98587 -73.543564
4.3403878 72.934578 -73.806999
5.1611938 72.649612 -74.302986
5.594285 73.448105 -74.460541
6.0123038 73.339127 -74.711395
7.0772018 73.962051 -75.228455
20.38398 73.384743 -28.444727
22.444342 74.348412 -29.660521
24.338808 73.284027 -31.18891
25.677538 73.356194 -32.662361
26.457521 73.005486 -33.803047
25.696869 73.380913 -82.766541
30.565958 73.254707 -84.06842
32.084576 73.140709 -84.473267
33.950504 73.958321 -84.690376
18.50275 73.602531 -80.423706
-9.5588961 97.815254 -63.536388
-9.3532743 97.877022 -63.725273
-7.8802361 97.410294 -64.949554
25.476049 84.635521 -32.301292
14.032187 88.088188 -25.935839
14.329991 87.605301 -26.205683
14.823576 86.217491 -26.735718
17.268042 84.162598 -27.219551
17.826326 84.309166 -27.38666
18.284515 84.913292 -27.446507
18.756624 85.376518 -27.402184
18.501156 84.789513 -27.537491
19.102091 85.522446 -27.41116
19.528069 85.404327 -27.670761
19.741262 85.34845 -27.801821
20.298088 85.486977 -27.970951
13.084502 96.824188 -77.939781
13.803724 96.968811 -78.261681
-30.827185 99.637215 40.39595
1.88557 98.008125 -71.962196
2.601867 98.268509 -72.354446
3.335788 98.531845 -72.725746
3.4103861 98.127312 -72.883743
4.304728 97.329742 -73.425735
4.814918 97.673134 -73.715981
5.9408588 97.88681 -74.372208
6.7471561 97.584343 -74.820091
7.3519888 97.380005 -75.167656
9.3041143 98.120567 -76.147087
12.482965 98.125374 -77.621307
-2.907531 98.634468 -68.577003
-2.50846 98.616661 -68.879242
-1.954952 97.843887 -69.514336
37.168381 74.798592 75.806412
38.314041 74.206703 75.823982
37.920502 73.183281 75.729286
38.542469 73.231003 75.652122
28.946247 80.387398 75.437515
29.102821 77.904884 74.872337
32.412388 73.871681 74.380516
34.525368 74.162506 75.023483
26.877693 87.348953 -33.88768
29.299826 98.336189 -83.465706
14.632669 97.575691 -78.612976
17.213099 97.630905 -79.651794
18.658792 97.786385 -80.211975
22.716257 97.681442 -81.597862
23.233917 97.831787 -81.770897
23.962545 97.775299 -81.986595
25.846478 98.394913 -82.493446
29.919348 87.733429 80.388695
29.762341 87.663452 80.138008
28.973293 87.705627 79.864342
30.773872 87.565849 80.253685
41.417175 88.239922 74.5159
70.528786 88.704514 -15.851547
30.889515 96.273926 86.329575
30.939451 94.335373 85.896362
31.518852 94.576729 85.59024
33.67321 98.447563 84.542259
116.85088 73.510986 14.169354
116.63861 72.877113 14.065872
117.72742 73.31012 14.051001
118.59644 73.14315 13.908506
119.19395 73.193443 13.780021
119.90743 72.889496 13.444086
120.56535 72.860497 12.927517
120.66344 72.623924 12.634312
121.00619 72.854126 12.095357
121.45191 73.569748 11.501627
121.52715 73.518486 10.604055
121.66603 74.04158 9.114584
121.55258 73.898323 8.4664087
121.45341 73.502396 5.3999009
121.60781 74.045151 3.4502649
121.58399 73.268402 1.131946
122.15206 76.729591 1.398597
122.75168 78.205887 0.83724302
107.19852 85.899155 -42.424057
106.46301 86.040253 -43.174812
105.62674 85.787781 -43.827919
123.12548 83.489052 -5.685504
123.01357 83.321358 -6.2952271
126.64925 89.034485 -7.3992538
126.51357 88.988625 -8.1017542
129.84567 91.774475 1.52745
127.99012 90.33358 -6.7613149
122.95752 99.035545 -40.809448
-21.311644 73.0037 -51.826294
-20.841093 72.933647 -52.419243
-20.496187 73.750984 -52.727364
-17.836973 72.794411 -55.895615
-13.685999 73.765205 -60.078178
-13.624466 73.226822 -60.196083
-13.519176 73.702682 -60.251888
-13.299919 73.085571 -60.548538
-12.698977 73.321854 -61.115467
-32.703671 73.87793 -33.860161
-32.41518 73.601585 -34.550327
-31.202629 74.070976 -36.781944
-30.487251 73.819633 -38.141708
-29.024763 74.719948 -40.635075
-28.226616 73.732971 -41.996742
-28.067604 73.174873 -42.338589
-26.025721 72.800392 -45.587875
-25.054417 73.704758 -46.772964
-22.787462 74.442245 -49.835686
-20.160875 74.651466 -53.071518
-0.80811697 72.782051 -70.657349
-0.28543299 73.733971 -70.824417
1.022956 73.606766 -71.689133
1.687324 73.481239 -72.101273
1.930096 72.801804 -72.381462
2.760118 72.632812 -72.967751
3.0533071 72.827232 -73.115707
4.1765599 72.919968 -73.85508
8.0695992 73.525169 -75.74926
-15.88537 75.586975 -57.810757
-11.061445 73.791206 -62.556904
-10.383532 73.356735 -63.19183
-9.264924 73.145103 -64.19149
-8.3616037 73.489326 -64.869766
-6.6065092 73.245255 -66.328438
-5.6878099 73.526016 -66.973236
-4.7094522 73.323639 -67.75724
-4.5318499 73.199753 -67.903671
-3.8668399 74.16713 -68.292923
-2.3003769 71.739441 46.996662
0.81780499 72.35553 44.243149
1.865505 73.356476 43.246956
2.11373 75.272728 43.028522
2.2210259 73.193253 42.88118
3.3337519 72.182747 41.66486
3.680366 72.025177 41.286652
5.2603621 72.363754 39.542377
6.5294542 73.890106 38.161385
-31.403618 98.271858 -35.676403
-31.143467 98.338783 -36.144447
-31.008963 98.370743 -36.376358
-29.379419 97.984245 -39.512486
-26.693991 97.288261 -43.949562
-26.280195 97.328865 -44.606869
-25.913692 97.784042 -45.113804
-25.577444 97.244888 -45.629646
10.147731 73.080688 30.396589
1.6046129 84.382011 43.520435
1.823867 82.768265 43.29689
3.1691091 87.303993 41.80135
6.944581 83.894661 37.332638
7.097147 82.773598 37.196201
7.2446651 81.648117 37.053284
7.0776639 80.364395 37.067028
7.3550591 82.10508 36.963982
7.4471302 80.036613 36.788994
7.4464269 75.319321 36.878258
7.7474961 78.990562 36.370377
8.8082142 73.610138 34.276142
10.856426 73.467583 28.240282
22.534288 74.295479 -29.713465
24.460072 73.395088 -31.298674
25.401934 73.407112 -32.245628
27.490053 73.232216 -35.297169
-7.2722902 85.726341 50.943851
-5.2152529 83.020851 49.548271
19.32736 85.382301 -27.595873
-7.8309269 97.432846 -65.001602
-2.11167 98.34716 -69.204063
39.53138 73.10144 75.51786
40.26675 73.036674 75.037292
3.636884 87.5737 41.360161
3.8074861 87.544365 41.15118
4.2672138 87.403938 40.512127
5.038723 87.914009 39.876766
5.6547532 87.796959 38.994324
10.270111 90.057137 32.539394
10.311464 89.222763 32.189281
10.107498 88.137428 32.071152
10.013957 87.191635 31.611885
20.186073 85.433235 -27.918427
20.716978 85.101784 -28.392248
27.03653 88.142883 -28.429125
24.479584 84.869255 -31.319908
26.638971 86.534409 -33.774017
26.399002 98.739372 -82.984047
41.01358 73.688896 74.260101
41.102036 74.157227 74.144508
28.584845 87.39772 79.486893
22.769518 91.368607 80.74646
73.679565 86.808357 -18.74251
28.804316 95.507614 87.088905
28.295118 93.696716 85.841682
28.083857 93.585266 85.694382
29.485558 93.960327 86.093918
32.546886 93.180748 84.623444
31.997871 92.622581 84.338974
32.473331 91.231987 83.478104
32.700798 90.419861 82.88562
32.521519 90.244972 82.771408
32.335438 90.067902 82.669754
32.523136 89.948814 82.514496
32.337955 89.791824 82.389664
33.144382 89.465195 82.129417
70.758972 88.436424 -16.022017
70.747757 88.210052 -16.318579
71.116837 87.965317 -16.635973
73.430832 86.785873 -18.941324
26.71328 96.994911 87.941254
26.998617 97.613152 87.913643
27.517447 96.66526 87.678757
28.169443 96.05677 87.396202
24.536522 94.044533 85.198662
25.114029 93.829048 85.102196
26.207918 93.723793 85.399727
49.727303 99.357498 -85.511734
74.456055 88.697792 -10.919179
74.684608 88.549988 -11.052078
121.48028 73.440292 9.8347874
121.58913 73.682594 7.2980099
121.44225 73.096405 6.9899769
121.30612 73.022186 4.6847911
128.65251 91.986465 10.268951
128.3141 91.058075 10.227542
129.34915 93.573517 10.07876
128.90036 92.324211 10.027606
129.00809 92.688118 10.032482
128.38551 89.918976 8.417901
127.702 89.126221 8.0623388
132.0726 94.484032 7.409234
131.91801 94.242592 7.3478131
125.26103 99.810966 12.336513
127.37971 88.785843 5.7333069
124.30741 99.75444 -39.774963
123.52403 99.256554 -40.277306
122.93295 99.432785 -41.424007
131.52145 99.168877 8.6649952
133.09949 99.571327 7.3504682
-38.846676 72.400291 -17.782024
-38.469944 73.400002 -18.709085
-38.076035 74.076035 -20.108622
-37.62397 74.072861 -21.593891
-36.683254 74.473221 -24.362759
-36.017586 73.648384 -26.116735
-36.029449 73.210464 -26.298347
-36.095562 72.831596 -26.514515
-36.171238 72.526306 -26.753679
-35.982319 72.407379 -27.20336
-35.444935 72.538437 -28.12512
-35.199738 72.105919 -29.311415
-34.866871 72.658096 -29.30027
-34.697941 73.587311 -29.442919
-34.351124 73.443649 -30.376072
-33.673485 73.094559 -31.956894
-33.304871 72.822861 -32.852257
-36.873684 75.139183 -23.768267
-32.155811 73.62635 -35.048672
-30.416483 72.879974 -38.589447
-30.21306 73.199989 -38.851856
-29.906744 73.439476 -39.330891
-26.584135 72.939346 -44.757206
-24.910337 73.398582 -47.194672
-24.671917 73.179443 -47.601112
-38.407536 97.147491 -18.042515
-37.58326 97.760628 -20.841116
-37.039581 97.230217 -22.652639
-36.09771 97.48037 -25.296562
-2.233825 73.035263 47.295013
-2.0781341 72.881592 47.120689
-1.794515 72.008644 46.604759
-1.360548 72.097137 46.193371
-0.81822598 72.925728 45.875462
-0.39031199 72.962578 45.46595
0.150878 73.360168 44.990108
0.58891898 72.383667 44.287434
1.001423 72.403656 43.863754
1.82725 78.476501 43.279385
1.959721 77.237404 43.127449
2.582391 72.078613 42.279495
4.6467299 73.773842 40.617481
5.1849442 72.192917 39.516582
6.7157898 73.18293 37.821617
6.9213252 73.987869 37.676617
7.0592871 73.36676 37.320957
7.2068028 72.733643 36.973007
7.5258112 72.992149 36.439785
7.6408458 72.913734 36.214436
7.658834 72.431526 36.063869
8.1563292 73.499474 35.373756
-36.358109 100.00877 25.365242
-41.628719 98.252182 6.749414
-40.75061 98.117592 -5.324266
-35.026943 98.072731 -27.962076
-33.73399 98.318581 -30.715973
-33.589146 98.569626 -30.712408
-33.023823 98.953583 -31.371145
-33.032303 98.696503 -31.853643
-32.954147 97.930626 -32.720234
-32.395336 97.568192 -34.017376
-31.593229 97.441322 -35.535946
-30.813494 98.327278 -36.754025
-30.537529 98.161842 -37.406887
-30.199999 97.363121 -38.161259
-37.644073 98.553719 -19.986652
-35.365902 98.204826 -27.055748
0.93273503 80.663918 44.285561
1.197427 80.896416 44.042515
1.684877 82.036774 43.311607
6.5530701 84.993019 37.805031
6.6552329 86.507225 37.697124
6.706871 83.155609 37.845772
6.7524362 84.7173 37.685345
7.1043081 84.242859 37.394318
7.3003721 82.380913 37.147339
7.3445201 81.82402 37.036461
7.4034882 78.507248 36.85421
7.7292638 76.072197 36.226597
27.283016 72.774178 -35.050526
28.159721 72.763214 -36.976044
28.501741 72.362686 -38.471272
28.906622 72.691383 -39.504421
1.778746 85.670769 43.42625
2.6919751 86.800377 42.306355
3.3139939 87.577934 41.756313
3.848207 87.513168 41.136158
4.2540522 87.552971 40.718536
5.517365 88.187469 39.327297
6.5223908 87.728416 37.857948
28.479336 82.009293 -47.803204
-15.562559 89.8302 47.466557
41.827965 74.108475 71.442741
41.921879 73.549637 71.043327
42.082546 73.790077 70.082817
41.819855 74.804398 57.726456
10.134546 88.70414 31.824848
10.185413 86.548019 30.699375
10.638056 92.147606 32.81432
10.859628 92.528374 32.51659
10.633186 91.301567 32.473946
10.22318 89.905212 32.399944
10.487587 90.557686 32.330181
11.453405 94.767166 32.121365
12.651254 94.879929 29.999098
13.470722 94.337631 28.183681
13.811418 94.858505 28.191841
14.23487 95.2146 27.987909
27.087608 87.617523 -34.020454
41.486546 82.299034 73.042915
33.191406 88.517738 81.644287
20.613701 99.92762 39.578442
21.92609 99.852165 38.442787
24.08186 99.7407 37.704731
24.720861 99.606094 36.860584
38.974854 100.11419 -39.996929
39.384071 100.1516 -40.390236
37.370201 100.08909 -48.027271
30.189257 94.344177 86.218605
33.2915 94.703865 84.839172
32.421097 92.169136 84.361572
32.540203 91.626846 83.99678
34.074917 93.253716 84.17408
34.251923 93.046089 84.023926
32.620735 90.720787 83.41011
40.850082 93.362007 74.703506
41.037243 92.269173 74.225746
24.384777 100.02407 89.334854
25.533205 99.894585 89.033218
26.304588 99.790123 88.840714
28.556154 99.313805 87.673759
29.956556 99.705894 87.608994
29.511641 99.432289 87.488594
30.217478 99.471794 87.20401
30.773708 99.664429 87.105659
30.908255 99.53997 86.906822
30.844219 99.230766 86.672974
25.977629 99.704384 36.810253
99.838989 73.545631 57.238544
101.19444 73.627197 55.911209
101.80128 73.520638 55.256016
102.23867 73.557823 54.799831
104.58009 73.267891 52.097214
105.84136 73.066689 50.47448
86.966354 75.474319 67.459526
87.893768 74.915855 66.77037
89.626694 74.872887 65.661568
90.211723 74.233986 65.152573
90.05928 72.496185 64.913841
90.471031 73.470589 64.841965
91.187187 73.161491 64.297981
92.765877 72.418655 62.987587
94.125275 75.174919 62.521889
95.11554 75.060295 61.72089
96.81041 74.233025 60.155109
98.108307 73.857727 58.928173
99.783417 74.057396 57.393463
104.72266 72.9897 -31.443007
106.64451 72.658813 -32.756073
107.14848 73.086594 -33.224209
107.25544 73.037468 -33.471783
107.49617 73.370834 -34.019787
107.54366 73.418358 -34.305031
107.35904 72.94239 -34.898525
107.48149 73.367271 -35.206352
106.63125 73.071236 -36.357456
106.46029 73.588303 -37.071236
105.68527 73.493011 -37.686378
40.017788 98.803383 76.806778
103.4341 74.738083 53.745621
104.02111 74.688255 53.073086
106.50501 73.435272 49.725689
108.23647 73.782982 47.538139
108.60607 73.957664 47.023026
108.65335 73.070404 46.635067
108.91657 73.18087 46.389854
109.30839 73.367096 45.888332
112.19667 73.034416 41.210106
91.174011 84.02639 68.522736
92.978043 84.262276 67.6987
93.340363 84.015327 66.983955
93.79084 84.326027 67.101143
94.618958 84.653488 67.071342
95.517212 84.698067 66.2006
95.875549 84.457565 65.479713
96.312897 84.792496 65.587463
97.330276 84.756393 64.475624
98.537224 86.4767 64.548843
97.66729 84.850639 64.287354
91.751511 90.400558 72.948982
91.302597 88.964333 71.896568
90.954712 87.789597 71.131783
90.718697 87.215454 70.867783
73.54821 92.790222 84.176865
73.847603 91.505264 82.518532
73.569603 90.725044 81.693588
73.503464 90.434952 81.426277
73.532402 89.66037 80.741608
73.464058 89.365585 80.480003
73.820251 88.98719 80.134567
111.13017 85.804008 -31.910456
110.30167 83.340454 -32.432571
110.44662 83.602097 -32.419968
110.59761 83.864799 -32.402836
109.70435 86.719818 53.399994
110.76227 88.113708 53.50576
111.2878 88.833519 53.550003
112.68484 90.223587 53.814766
110.51339 87.611946 53.210182
110.68692 87.859154 53.221462
110.4113 87.357628 52.918259
109.46986 85.485985 52.35902
109.95193 84.331161 50.979221
110.37805 84.395752 50.521519
110.24748 83.798782 49.987995
93.383987 91.803711 73.591415
94.883537 92.570831 73.763908
94.391861 91.925301 73.406471
96.078377 92.637421 73.035706
96.507652 92.277519 72.388443
98.855751 92.484856 70.882103
99.609283 91.072838 67.848801
98.881882 89.595627 66.666466
99.0467 89.434158 66.48204
99.198257 88.898735 66.052979
98.851295 88.125519 65.483215
117.86655 95.445183 55.682701
113.75355 91.186684 53.715511
128.03629 90.17012 8.4329662
131.87973 94.27803 7.3663392
132.02481 94.529701 7.3737922
132.47775 94.652641 6.6245718
132.85864 94.95681 5.517611
132.83766 95.10598 5.1705241
104.47472 99.71389 74.848801
103.34078 97.757935 73.947769
105.07253 99.605713 74.213432
129.72371 93.591393 9.6777811
93.646713 100.7105 84.008308
-41.949013 72.647804 10.635816
-42.064404 72.286636 10.18101
-42.403034 71.817368 9.7209368
-41.897148 72.10173 -1.676357
-41.387608 72.914268 -3.0614009
-40.268143 72.769417 -11.134075
-38.271606 74.322517 -19.638119
-40.950195 97.536217 -4.2731729
-40.593296 97.469887 -6.713726
-40.56609 97.453613 -6.9565878
-37.219498 97.401108 -22.233404
-40.759048 98.74147 18.373711
-41.621323 98.237427 9.031908
-41.673344 97.831032 7.8557501
-41.677425 97.899994 7.0847182
-38.90202 100.03339 5.9987602
-38.159893 99.981476 -0.90462601
-41.130314 98.381699 -2.215214
-41.109909 98.366379 -2.4602561
-40.737236 97.737434 -5.7850032
-37.744129 98.405182 -19.737555
-37.625713 98.176483 -20.428682
-37.582199 98.098831 -20.658064
-37.343464 98.16954 -21.389385
-37.295406 98.089836 -21.617554
-33.601894 99.971687 -22.768394
-34.303852 97.854652 -29.924541
-33.931259 98.236084 -30.440056
-33.123943 98.821022 -31.19253
7.5930381 79.627197 36.802814
7.6898928 78.329155 36.58448
7.7282882 77.720558 36.465912
10.78091 85.997627 29.053076
28.837332 73.275238 -45.410912
27.762657 82.706329 -49.59824
25.497803 84.70742 -53.938637
25.099009 86.476318 -54.447102
42.17485 73.796761 69.601067
42.373577 74.043823 61.935444
42.220016 73.869751 60.81089
42.067783 74.09565 59.890308
42.004402 74.749374 59.42865
23.98675 92.013672 6.1139431
22.710861 90.055122 5.811883
23.57428 91.14817 5.9673362
9.9127607 86.97998 31.374983
12.792401 95.14389 30.152203
13.260319 94.925255 29.235029
13.327983 94.80191 29.006247
13.567624 94.883995 28.749592
11.748505 87.490921 28.315632
11.824322 87.351303 27.555731
14.530978 95.246384 27.731529
12.106332 87.406296 26.781919
12.565848 87.649384 26.258568
15.504619 95.112442 26.044264
13.096946 87.791695 25.499792
12.89864 87.607864 25.24642
15.059085 91.229355 24.222549
14.787474 90.637962 24.030823
15.369122 91.188576 23.99218
14.436751 89.179901 23.248535
16.803654 92.337029 22.873348
25.383234 92.124382 -53.796265
24.969481 91.344444 -54.51656
25.264214 87.693359 -54.29517
41.599895 82.235107 72.833038
41.414528 75.047409 73.097801
41.783276 74.415611 71.63327
42.698811 85.666824 64.250458
14.846416 94.111412 80.937645
15.306601 93.839607 80.830757
15.41884 93.682671 80.620827
24.417116 99.582314 37.520565
24.448406 99.545395 37.269955
24.265722 92.522377 5.7791042
49.652943 85.569435 -68.386894
50.330853 86.969322 -69.259834
14.991603 95.500694 27.213987
15.390647 95.845825 26.927692
16.024961 95.262955 25.292683
16.490103 95.510857 24.777292
16.727543 95.598038 24.520107
16.712694 95.137543 24.10058
24.417709 92.850807 5.739852
24.630524 93.000847 5.471858
24.903196 93.529907 4.8682289
34.071491 100.38078 -47.687572
36.1605 100.39048 -48.28392
35.273125 100.3456 -48.609013
36.801762 100.28101 -48.469959
101.18677 73.635727 -42.867798
97.360069 73.386986 -46.212761
89.067589 74.475883 -53.085781
41.121906 86.185379 74.168755
41.188309 86.085167 73.929489
41.787506 96.010124 71.799683
41.895554 92.735924 71.351387
41.738388 90.953766 70.986794
41.99604 90.543777 68.921394
42.162121 90.255447 68.472748
42.326046 90.514816 67.316025
42.656574 86.848602 64.471085
43.031708 93.009064 58.732471
43.555168 93.166916 58.778423
42.398201 92.009071 58.062073
42.485416 91.864952 57.838039
27.4863 99.969574 37.896893
25.760183 99.89917 36.835331
42.40279 98.075882 68.015335
121.9482 77.957123 0.95932001
122.13591 78.6465 0.57410997
122.47252 79.636932 0.43810299
120.94858 73.970329 -1.622788
120.85767 73.640518 -1.871401
120.58601 73.511688 -3.6083031
120.48074 74.116127 -4.8688049
120.4984 74.529892 -5.5011239
121.85902 80.797485 -6.6837921
119.89524 72.985374 -6.7605281
120.73676 77.069344 -7.0398769
120.88468 77.828026 -7.1510959
120.48782 75.969337 -7.1724348
120.01135 74.227165 -7.8037338
97.719048 93.396004 -20.221684
100.04395 95.233635 -21.36841
126.86436 88.414207 6.815691
122.86916 80.982567 0.822734
123.39898 82.162689 0.389153
123.26819 83.650673 -4.7302852
122.76636 83.366425 -6.4485002
122.3317 82.548569 -6.646688
122.14037 81.854095 -7.1224718
126.16869 89.492859 -8.5195494
125.43995 89.026466 -10.20581
124.73283 88.568016 -11.91167
125.28777 89.626762 -13.978509
125.47312 89.851944 -14.011403
103.82672 98.810005 -17.145868
101.74667 97.513954 -19.626312
100.97006 96.741959 -20.412127
100.67052 96.225578 -20.636173
100.83777 96.445625 -20.652918
100.70252 96.169456 -20.898876
103.48183 98.313858 -20.405941
104.8104 99.227211 -20.405907
105.4157 99.300919 -20.907677
105.88588 99.568108 -20.900858
106.20335 99.57663 -21.140873
106.87574 97.66925 -23.803797
131.16872 93.81884 8.0502462
132.35674 94.512527 6.6400862
127.83262 89.940773 8.3607635
127.59036 89.241516 4.760757
127.57616 89.26149 4.4649448
132.91779 95.090332 4.6053009
132.24409 94.592331 4.0486531
128.86241 90.756004 2.922277
131.3903 93.861717 3.2280149
127.12997 90.061111 -7.0829029
128.46356 91.547646 -7.4821548
130.2144 94.193069 -10.552675
129.09189 93.787872 -13.425667
-40.384834 71.958054 25.088106
-40.436764 72.29171 24.250568
-41.909283 72.62542 12.002019
-39.638851 72.698433 27.933205
-41.652328 97.912666 7.3431139
-41.299549 97.775169 -1.72616
-41.149731 98.017387 -2.794358
-33.933678 97.464478 44.179062
-33.107506 99.924927 35.169395
-28.716921 91.648216 11.669875
-27.69952 90.362862 8.9016237
-36.246021 97.866119 38.379192
-36.530643 98.427094 37.295177
-36.609642 98.477943 37.039688
-36.755714 98.08551 36.899834
-33.420757 99.899361 33.964005
-33.928226 99.987579 33.271137
-33.799744 99.870529 32.517994
-34.048416 99.846504 31.555138
-33.801208 99.742851 31.282793
-34.981266 99.976913 30.419344
-40.423626 96.920082 22.372772
-36.354527 99.744736 19.875723
-38.102989 99.966972 12.857071
-38.160751 99.967827 12.618946
-35.486977 99.821693 -13.448841
-23.49522 99.849861 -44.696857
-23.249296 99.889046 -44.754375
-22.796122 99.920914 -45.111156
-17.201614 98.717278 69.559769
-17.615381 98.724998 69.095352
15.43495 88.469635 -61.639484
13.99365 90.29615 -62.80032
-30.015177 99.86396 42.283993
-30.869806 99.97403 41.37978
-31.075851 99.964905 40.652256
10.79756 93.874084 -64.251503
42.322502 73.660065 68.885201
42.521606 73.577042 63.884125
42.406418 73.552567 62.242039
42.34222 73.855431 61.61932
41.5634 75.13678 58.081451
62.930283 74.524773 -63.088322
63.065125 74.796532 -63.160744
65.449699 74.529488 -62.551933
26.436251 92.34581 -1.776897
30.223507 92.719109 -28.6754
12.59512 99.276161 -64.637413
42.326889 81.809875 70.888275
42.741947 81.476234 67.343796
42.727737 83.22084 64.151489
71.720032 74.057426 -60.812119
73.194679 74.948013 -60.666126
68.628983 76.408646 -62.334454
71.446571 76.589653 -61.580814
24.581697 93.179001 5.317883
24.88839 93.448341 4.7029109
25.675611 93.6959 2.6462309
25.50584 93.374161 2.4680331
25.674568 93.572144 2.4000621
26.495342 93.092369 -1.116888
26.359474 92.717049 -1.2921
30.274706 94.760162 -23.124586
30.084995 94.146652 -24.055061
30.341818 94.203896 -28.375828
41.305141 88.953514 74.031174
41.101898 87.597832 73.872086
41.529617 91.529282 73.572868
41.379318 90.107117 73.432587
41.4491 90.320053 73.088699
41.511581 90.708321 72.978241
41.689522 91.163445 72.293945
42.102123 94.031281 70.92498
42.146141 90.893478 69.041298
42.392612 90.437309 66.691093
42.395462 88.742622 64.405685
41.464069 89.143585 57.62468
52.771782 87.7519 37.793552
27.518711 99.772301 37.47102
42.154011 98.278397 70.048866
42.342194 98.4506 68.90152
42.489922 98.341026 68.104385
122.20602 78.790596 0.40440899
122.39559 79.866493 0.16253699
120.43109 74.092583 -4.8088799
120.39114 74.364746 -5.4365759
