# .PCD v0.7 - Point Cloud Data file format
VERSION 0.7
FIELDS x y z
SIZE 4 4 4
TYPE F F F
COUNT 1 1 1
WIDTH 1588
HEIGHT 1
VIEWPOINT 0 0 0 1 0 0 0
POINTS 1588
DATA ascii
33.743225 100.45495 -50.037491
32.272556 100.45765 -50.931976
34.641285 100.43474 -50.215553
31.991137 100.4684 -51.209183
29.074678 100.43869 -52.474716
27.636778 100.4006 -53.101883
28.19862 100.43919 -53.059357
27.630346 100.41352 -53.359421
34.080627 100.40797 -51.54174
36.933086 100.08706 -50.749603
32.568462 100.47282 -52.445736
33.485405 100.42769 -52.362843
29.077829 100.46743 -54.008175
32.58847 100.45674 -52.953053
29.364098 100.47298 -53.986137
33.212765 100.41107 -53.151375
29.635702 100.47433 -54.479748
33.825432 100.35433 -53.351261
29.073881 100.47533 -55.031948
31.420555 100.4579 -54.328465
36.122551 99.969536 -52.858696
36.161221 99.904449 -53.104221
34.856998 100.09578 -54.003452
31.73123 100.4209 -55.322189
35.245552 99.97821 -54.215561
31.136831 100.44123 -55.628086
31.439342 100.42818 -55.60181
33.65152 100.18493 -55.137867
34.963825 99.936172 -54.744938
35.357521 99.78537 -54.952061
34.353695 99.981285 -55.568546
29.395679 100.441 -57.297909
32.772186 100.18781 -56.232239
35.425819 99.669968 -55.445202
30.305864 100.38837 -57.474243
31.606161 100.19317 -58.113499
31.621328 100.17342 -58.365231
30.716318 100.22846 -59.462532
31.389109 100.06862 -59.646938
30.543692 100.03117 -61.491425
30.6647 99.848419 -62.735191
31.038397 99.717369 -62.947334
31.956326 99.18129 -64.349571
32.052643 99.012566 -65.087914
32.451824 98.823265 -65.037804
33.668098 98.299927 -64.64109
33.277107 98.434074 -64.936684
34.532372 97.812027 -64.778954
33.005215 98.407455 -65.719292
34.054916 97.635971 -66.583015
33.693176 97.769745 -66.879578
32.829494 98.202126 -67.238869
32.864902 98.141312 -67.484726
32.1786 98.326973 -68.571785
32.77499 97.862839 -69.248825
31.967947 98.195961 -70.354927
33.250397 97.079376 -72.703629
32.770557 97.395531 -73.275406
38.595783 92.51619 -72.160065
39.502789 92.00145 -72.304909
38.405312 92.833969 -72.720039
39.358719 92.230186 -72.600182
33.346172 96.94809 -74.975418
39.249222 92.426247 -72.880402
37.144112 93.983376 -73.680695
38.269043 93.109756 -73.259544
40.052879 92.082062 -72.791382
38.134762 93.319496 -73.550362
39.552891 92.446373 -73.107719
37.583366 93.756332 -73.884171
39.90406 92.328674 -73.08577
33.685329 96.878654 -75.709991
36.378384 94.809029 -74.829384
39.616245 92.830437 -73.660515
38.208366 93.687248 -74.356483
38.607113 93.542603 -74.305328
35.691891 95.470444 -75.448418
38.948746 93.445496 -74.284042
40.503597 92.834625 -73.86438
37.615646 94.225525 -74.946327
39.181583 93.560432 -74.534416
37.469795 94.443062 -75.244095
38.719715 93.849213 -74.843498
39.878452 93.399689 -74.466019
35.286396 96.167145 -76.303978
34.593906 96.823257 -76.672333
35.75259 95.874229 -76.247734
37.610081 94.739975 -75.760963
41.807442 93.136818 -74.334343
35.577469 96.178452 -76.539848
39.899643 93.851524 -75.032661
34.196068 97.521126 -77.263474
37.438007 95.017036 -76.062424
34.653297 97.253914 -77.204224
40.104794 94.028366 -75.278015
39.620083 94.331833 -75.604462
34.389271 97.701897 -77.516975
38.819538 94.682899 -75.944473
39.825737 94.506218 -75.849342
35.687717 96.982323 -77.378349
39.01498 94.86705 -76.195801
35.34901 97.553291 -77.709763
38.055065 95.983223 -77.132362
41.628132 94.450546 -76.006516
41.496918 94.681587 -76.285263
39.468891 95.602966 -77.003281
41.003597 95.012497 -76.602188
39.229252 96.000175 -77.316643
36.08672 98.804672 -78.790024
36.252007 99.035484 -79.045052
37.905064 98.23349 -78.61721
36.764191 99.15992 -79.282623
39.50069 98.529167 -79.056503
37.487625 99.447044 -79.761086
38.921467 98.996582 -79.395363
42.410091 96.641052 -78.201118
40.300743 98.678612 -79.272949
39.764027 99.08519 -79.593903
38.169754 99.76976 -80.267303
37.180649 99.960777 -80.592468
44.474945 96.192963 -78.020218
41.359081 98.394592 -79.184273
37.501347 99.930069 -80.563728
43.848118 96.727531 -78.374443
38.080475 99.915779 -80.541534
39.463043 99.577446 -80.173576
40.587662 99.191223 -79.808495
45.218662 96.437553 -78.260994
42.154205 98.565178 -79.393959
44.902122 96.959373 -78.584793
41.896427 98.985916 -79.709549
41.727478 99.266258 -80.000526
43.965092 98.511543 -79.542
44.641106 98.37204 -79.496071
38.481403 100.26063 -81.807846
43.84832 99.189171 -80.125908
41.998245 99.798485 -80.798149
41.300125 99.97438 -81.110207
39.388824 100.21857 -81.750465
39.978283 100.20848 -81.717644
42.536182 99.888458 -81.028908
44.679996 99.292458 -80.337898
39.330803 100.31817 -82.270538
46.447327 98.840225 -79.933517
40.5499 100.24918 -81.938629
46.797916 98.763405 -79.897224
45.340847 99.673759 -80.842415
46.419342 99.380203 -80.490021
43.014446 100.12228 -81.768021
46.288948 99.598679 -80.76947
41.686451 100.33257 -82.38533
47.207188 99.545319 -80.72213
46.784187 99.746269 -81.021004
42.891644 100.28901 -82.312668
43.192944 100.27001 -82.296524
45.418987 100.04618 -81.629761
42.867374 100.34931 -82.569069
46.249729 100.14228 -81.846909
44.934109 100.32708 -82.455437
46.483719 100.23442 -82.100739
45.879452 100.284 -82.384003
25.417824 98.214806 -53.78466
26.602757 100.18481 -53.668518
26.57102 100.24273 -53.933975
25.650211 99.821709 -54.205372
25.848534 99.985352 -54.212044
26.291649 100.22382 -54.212509
25.4013 99.756859 -54.47961
25.595304 99.924477 -54.483383
24.900028 99.627327 -55.015976
27.067911 100.40536 -54.420353
25.293316 99.951881 -55.02026
24.566929 99.705284 -55.555069
23.862469 99.425217 -56.089565
26.767689 100.4265 -55.468712
26.487478 100.41499 -55.743866
26.771393 100.42314 -55.722744
23.899029 99.876846 -56.64967
25.107285 100.29024 -56.3517
24.347961 100.10536 -56.641731
25.633883 100.39018 -56.573753
24.278976 100.224 -57.176704
26.502108 100.40408 -56.759438
24.790613 100.35743 -57.398571
24.214348 100.35407 -57.953503
25.352083 100.39722 -57.612343
23.113823 100.2669 -58.535397
23.644949 100.3453 -58.50491
23.916739 100.37007 -58.48793
25.360619 100.39919 -58.118858
27.648193 100.43822 -57.691486
24.49041 100.39133 -58.696735
27.085114 100.43069 -57.986862
28.231573 100.44234 -57.645012
23.930599 100.37254 -59.244576
24.218819 100.37489 -59.222404
23.355877 100.36742 -59.542656
27.079939 100.43339 -58.497887
24.221098 100.37954 -59.475807
23.348549 100.37957 -59.799
27.352797 100.44319 -58.734715
24.211695 100.38559 -59.732872
23.053738 100.38544 -60.331203
25.950617 100.41124 -59.852036
25.361809 100.40567 -60.153553
27.966579 100.42116 -59.699116
25.094019 100.38974 -60.932198
27.97843 100.40005 -60.204769
24.816509 100.37918 -61.20525
24.23871 100.37396 -61.503021
25.390722 100.38668 -61.162292
29.493671 100.30729 -60.076443
25.971947 100.38927 -61.371696
25.109428 100.37169 -61.689964
23.686201 100.35713 -62.301044
24.839165 100.36602 -61.96077
23.972193 100.36283 -62.787144
28.937235 100.28175 -61.388069
29.261852 100.23835 -61.358017
28.651457 100.28902 -61.664455
25.98177 100.38332 -62.639259
29.919481 100.11644 -61.548779
25.422846 100.37651 -63.692787
29.977976 100.03126 -62.298241
24.569586 100.36338 -64.260773
27.793079 100.26914 -63.251797
24.270861 100.3548 -64.53772
25.427813 100.35954 -64.45211
24.571388 100.35092 -64.766991
26.315563 100.334 -64.636749
25.153261 100.3382 -65.230057
30.449648 99.7342 -64.011124
26.662949 100.25923 -65.362595
29.493301 99.882744 -64.606667
28.517445 100.06062 -65.205559
25.763014 100.29913 -66.193604
24.87973 100.31949 -66.513847
26.069431 100.28105 -66.168663
24.892996 100.31544 -66.764107
27.314476 100.15343 -66.063805
26.379463 100.24995 -66.396004
24.909672 100.30831 -67.013573
29.263927 99.774513 -66.135605
28.94758 99.824898 -66.4179
25.527973 100.24942 -67.721832
24.633783 100.28252 -68.295769
30.712873 99.299118 -66.487915
28.376141 99.842987 -67.729271
30.784899 99.210007 -66.982986
31.148363 99.074608 -66.94207
27.092426 100.04578 -68.601906
29.098257 99.602303 -68.160019
28.077606 99.839554 -68.510567
24.955585 100.24246 -69.531937
25.880367 100.14904 -69.456978
27.81315 99.851639 -69.036774
28.164936 99.741081 -69.507431
26.56008 100.0236 -70.406502
25.302528 100.16615 -71.014664
29.59956 99.267418 -70.119736
27.212606 99.872772 -71.105774
31.647358 98.295372 -70.89682
27.952572 99.631676 -72.295448
26.633663 99.909889 -73.17025
29.045746 99.284027 -72.439819
27.673782 99.661324 -73.327072
30.56772 98.656532 -72.529396
29.792349 98.974594 -72.866409
29.045208 99.267548 -73.198288
30.965099 98.448677 -73.243988
30.632847 98.57296 -73.785019
31.821781 97.988213 -73.396065
26.674562 99.881241 -75.183121
26.660521 99.884888 -75.690346
27.355314 99.707291 -75.879616
27.70587 99.613403 -75.84742
31.057659 98.352661 -75.765045
29.450403 99.122772 -76.699593
28.361124 99.505409 -77.309464
33.201504 97.209106 -75.771011
32.260979 97.811829 -76.142509
29.746149 99.111145 -77.187584
27.260904 99.902855 -78.174217
29.357578 99.278221 -77.481537
29.713354 99.179298 -77.446869
27.913593 99.78875 -78.120094
29.335575 99.352509 -77.733498
27.55372 99.910751 -78.406425
32.783215 97.920349 -76.882835
28.854046 99.660667 -78.304703
27.172277 100.06342 -78.95092
31.805037 98.610962 -77.509705
27.153507 100.11314 -79.205399
27.450413 100.09804 -79.185928
29.356642 99.797768 -78.792397
28.680586 99.973518 -79.099045
29.910521 99.847466 -79.015396
30.9569 99.567795 -78.663956
33.336449 98.489815 -77.913063
32.417465 99.046799 -78.282799
27.981197 100.19465 -79.916779
29.515394 100.05532 -79.554817
29.82823 100.02902 -79.529007
31.066645 99.86097 -79.199295
29.461954 100.13482 -79.821907
28.543053 100.21776 -80.137878
33.685146 98.897659 -78.435272
30.072321 100.0883 -79.779366
34.776993 98.539108 -78.333893
29.412638 100.23374 -80.335861
30.942696 100.10401 -79.976944
30.314112 100.18321 -80.275978
30.901281 100.15712 -80.242065
35.024132 99.108063 -78.884918
33.463806 99.774193 -79.543587
31.517653 100.12247 -80.195015
32.780907 99.948799 -79.851486
32.118549 100.08163 -80.157707
33.386265 99.909088 -79.812653
32.434448 100.05819 -80.130333
32.953873 100.16743 -80.616013
35.862251 99.703484 -79.887878
35.389256 100.0067 -80.453072
36.533768 100.03128 -80.649857
35.595356 100.15534 -80.961243
35.260223 100.23849 -81.239418
35.870285 100.18891 -81.200623
36.745365 100.18184 -81.152145
35.845932 100.23438 -81.458755
36.444607 100.22262 -81.419449
36.423397 100.25222 -81.678802
37.274647 100.29467 -81.886513
99.338211 74.878624 -45.122257
98.992592 74.404549 -45.366894
98.565407 76.011154 -46.152576
97.427811 73.772346 -46.525837
97.270027 74.500107 -46.909679
96.300835 74.96003 -47.880024
94.570961 74.09597 -49.026585
95.745827 77.732864 -49.07922
95.195374 78.555573 -49.784267
94.448364 77.216148 -49.949207
52.027435 89.498253 56.971226
53.911171 88.49118 57.257877
55.002243 87.711151 57.080265
52.899597 88.590759 55.953255
51.708576 88.500084 54.667271
52.202869 88.199379 54.267708
55.052433 87.155579 54.991196
56.103603 86.469978 55.054745
53.833153 87.588776 54.127014
52.836987 87.686989 53.384003
53.932312 87.433067 53.623894
54.783352 87.081284 53.569588
51.659142 87.561989 52.391579
54.06675 87.222366 52.861198
54.101566 87.151772 52.60548
54.523834 86.993401 52.433235
54.957165 86.819923 52.267212
55.354637 86.681419 52.36488
57.694103 85.422501 52.488438
52.090553 86.890366 49.846596
52.7892 86.763573 48.594437
53.116512 86.749138 48.371952
54.388908 86.711708 48.297657
53.752205 86.733521 47.916676
54.711712 86.697083 47.793301
53.760246 86.727348 47.085197
56.315243 86.676666 45.820614
56.972134 86.640205 45.373653
56.957703 86.664833 45.086964
54.38826 86.733086 43.840263
54.404392 86.73098 43.292648
57.243343 86.710915 44.003544
58.553703 86.630867 43.383667
55.970638 86.73436 42.135864
59.497574 86.662804 41.851521
58.806767 86.739746 41.446728
59.470959 86.694168 41.55817
56.258217 86.778694 40.499474
59.461384 86.719131 40.996105
58.812927 86.749138 40.614872
58.47094 86.780914 39.996952
57.810833 86.824776 39.609509
57.778656 86.866051 39.312828
56.661736 87.154663 38.250324
57.570148 87.231247 37.817642
58.474522 87.295753 37.378525
59.055405 87.374863 36.888821
59.732815 87.296593 37.003887
62.496967 86.94207 37.773674
59.039711 87.412704 36.603207
60.035805 87.340103 36.76841
59.989697 87.409523 36.465599
59.072586 87.34095 36.066124
61.318764 87.288841 36.679703
61.271595 87.373253 36.379208
61.935684 87.316673 36.484753
62.562996 87.344086 36.299053
61.844418 87.485603 35.887848
64.074623 87.473503 35.657379
62.596695 87.801323 35.090542
62.048771 88.171471 34.374943
61.572613 88.922226 33.295979
91.997437 73.517769 -50.551071
91.9077 75.123337 -51.280582
91.447624 74.824799 -51.551083
90.971817 74.558075 -51.838272
90.04863 73.973412 -52.110725
91.54097 77.143875 -52.089909
89.77063 75.379501 -52.844997
90.195007 77.201653 -53.024258
88.977882 76.082787 -53.533504
88.994476 78.030273 -54.039429
86.514397 76.858574 -55.176674
87.569351 78.205437 -54.965118
84.431366 75.591896 -56.01823
36.761051 99.181625 81.869415
37.380989 88.764275 80.869545
37.901886 98.302124 80.121346
38.018307 98.644516 80.050087
38.271641 91.989044 79.816849
38.80558 98.360374 78.892174
39.045792 94.335426 78.719009
38.908478 91.95845 78.82489
38.940968 89.288818 78.765724
39.218674 97.161636 78.209541
39.441177 95.237091 77.975113
39.430408 91.6315 77.904869
39.597961 95.486496 77.652405
39.492332 92.03421 77.796707
39.575829 93.478287 77.678276
39.329899 87.077408 78.078011
39.468716 89.98671 77.824631
39.538616 91.456696 77.697021
39.809841 95.134857 77.237404
39.636318 90.243599 77.504539
39.681881 89.625969 77.40731
39.667145 88.629822 77.416161
39.80904 91.504074 77.170166
40.110958 97.749352 76.541115
40.260914 94.905045 76.275154
40.295307 89.669426 76.112343
40.33543 89.071709 76.009338
40.523258 94.475052 75.613426
40.635944 97.387535 75.35466
40.507351 92.436478 75.638428
40.573147 88.154449 75.474419
40.826508 91.390854 74.879868
40.970432 95.792908 74.4842
40.869076 90.803078 74.776268
41.140682 97.569908 74.008499
40.956451 87.52018 74.60408
41.171371 97.015549 73.896072
41.272705 90.652069 73.775261
41.470539 91.347984 73.05629
41.6385 95.727951 72.406021
41.752617 96.563461 71.91362
41.959816 95.715225 71.082199
42.006104 97.186462 70.677673
41.984261 92.086021 70.992867
42.106464 95.502151 70.337402
42.060688 91.976501 70.480492
42.15667 95.910339 69.955658
42.17189 96.396408 69.82254
42.086555 91.376595 69.819016
42.250534 96.271996 69.318214
42.230446 93.75843 69.459587
42.315922 96.160324 68.808105
42.345619 96.108292 68.551468
42.353546 94.039772 68.572456
42.382809 91.972206 68.314987
42.319626 90.997009 68.295807
42.346432 90.952141 68.035286
42.410244 91.377365 67.929558
42.439552 91.859016 67.801514
42.459698 93.878387 67.527466
42.476624 96.42337 67.105682
42.393501 90.899811 67.501701
42.459755 91.334068 67.391853
42.494362 97.416252 66.835167
42.405823 90.852844 67.241577
42.530014 96.326889 66.038605
42.518505 92.257721 66.318298
42.557724 93.225868 65.50708
42.539387 91.728729 65.35495
42.42226 90.857651 65.020493
42.682243 97.128197 64.464569
42.550842 95.306679 64.38607
42.340855 90.532074 64.534248
42.862514 97.351273 64.159294
42.534546 92.766647 64.242538
42.563847 91.688499 64.261703
42.910694 97.267006 63.913967
42.430103 87.748306 64.469139
42.547619 91.709541 63.976982
42.509106 95.358627 63.539211
42.51717 94.331329 63.541309
42.526321 90.713013 63.687405
42.50153 92.845688 63.382698
42.501984 94.376884 63.247791
43.557297 97.228851 63.207481
42.520096 88.143272 63.542046
42.51313 88.678192 63.39753
42.608616 95.747643 62.621284
43.127129 96.410156 62.528694
43.346195 96.560738 62.528568
42.998608 96.111153 62.311405
42.424454 93.977173 62.24057
42.420574 89.898369 62.218178
42.758797 95.498993 61.887646
43.00666 95.593483 61.625969
44.146812 96.265366 61.914124
42.553192 94.807968 61.485134
43.223354 95.748474 61.624081
42.45676 94.451721 61.288483
42.373878 94.093399 61.094173
42.954517 95.1689 61.178257
43.169025 95.32962 61.174786
42.335434 86.879822 61.347374
44.197086 95.675095 61.25441
45.383533 95.759377 61.433193
43.364243 95.009544 60.739105
42.600994 94.223167 60.5457
42.993732 94.601105 60.513481
42.867756 94.295731 60.29422
44.267132 95.050507 60.607128
42.952061 94.159561 60.070824
42.103897 92.479759 59.82267
43.515484 94.250237 59.867668
42.111408 92.469513 59.550213
43.13208 93.863022 59.633289
42.083324 87.310371 59.803493
42.856339 93.296341 59.177158
44.025394 93.928322 59.478569
43.094978 93.415955 59.182259
45.612427 93.856575 59.494831
44.272873 93.519096 59.078064
42.137249 91.91777 58.317505
41.669201 89.602577 58.296127
42.201511 91.813972 58.07869
44.511868 93.123474 58.671898
42.84581 92.293655 58.059669
42.350403 91.576118 57.615627
41.670284 90.64994 57.468723
41.8848 90.801605 57.187374
42.862865 91.242882 56.957054
44.518166 91.585777 57.137783
44.801907 91.627274 57.17556
42.556881 90.720581 56.496513
45.086712 91.664276 57.216442
46.775303 91.951241 57.697338
41.58057 89.771889 56.024719
44.168419 91.131866 56.651089
46.102444 91.530258 57.139557
42.5168 90.27832 56.043602
45.337143 91.257851 56.806358
41.49374 89.401108 55.55283
41.719288 89.54287 55.554558
43.400909 90.350212 55.898941
48.140099 91.251198 57.270229
43.957985 90.458794 55.95874
41.797436 89.413383 55.324535
42.804104 89.795876 55.39426
47.088387 90.935081 56.624374
43.076347 89.863266 55.416893
43.899021 90.041763 55.505154
42.216969 89.231178 54.887936
48.168819 90.70137 56.5826
41.626362 88.669716 54.381794
45.737617 90.090042 55.51207
41.876972 88.768822 54.396809
44.398865 89.735809 55.107845
44.967541 89.819252 55.181274
42.660652 89.011238 54.462376
42.478745 88.795441 54.214165
44.040821 89.30246 54.607098
50.870991 89.861717 56.686359
45.659801 89.703537 55.046677
41.782543 88.412132 53.919571
48.623165 89.954689 55.741299
43.120895 88.767265 54.043839
51.344917 89.588554 56.558472
44.795868 89.077583 54.236553
47.366577 89.450363 54.837727
50.908627 89.295265 55.724712
49.620464 89.357201 55.220345
50.288784 89.276108 55.353054
47.882 89.124771 54.446381
43.757343 88.231468 53.175701
42.699974 87.920166 52.81086
49.483982 89.057556 54.722912
43.551636 88.051994 52.914246
44.121613 88.143417 52.97998
42.845291 87.679382 52.342087
50.905739 88.768784 54.751064
48.478508 88.665962 53.824959
49.105396 88.651283 53.933144
45.135349 88.004921 52.62624
50.089069 88.583832 54.106998
44.73584 87.65284 52.093208
49.602543 88.358269 53.529812
44.798748 87.540596 51.857109
50.346355 88.169411 53.418518
44.262966 87.393143 51.533188
50.665321 88.148132 53.477448
49.118557 88.118469 52.959377
47.661343 87.959496 52.485489
47.133938 87.797028 52.16592
49.209045 87.984985 52.726597
43.786915 87.150017 50.964935
46.908077 87.657227 51.887508
46.665821 87.535095 51.603951
45.556297 87.319237 51.202808
49.362652 87.730583 52.260597
45.01955 87.174141 50.877399
51.538635 87.75251 52.881561
45.604599 87.233109 50.955837
46.784554 87.349052 51.113495
45.947178 87.182182 50.745834
47.798492 87.207825 50.756199
51.444851 87.398323 51.842136
49.908302 87.344803 51.333603
49.028587 87.2621 50.935913
49.335503 87.266068 50.983971
49.649731 87.264717 51.034077
46.695103 86.986877 50.080811
48.457378 87.159508 50.59433
46.116833 86.915695 49.730091
49.700783 87.184883 50.784161
45.542133 86.83078 49.382915
47.696827 86.875854 49.433834
44.987095 86.71434 48.491032
50.744228 86.996719 50.161419
50.469898 86.946686 49.853153
49.897755 86.877678 49.503811
46.565536 86.697578 47.914146
52.10178 86.862778 49.576077
48.713715 86.765182 48.512821
48.412498 86.742111 48.192783
52.099804 86.838791 49.2999
45.343037 86.67794 47.177105
47.491898 86.718796 47.777561
49.364902 86.725616 47.513718
49.98616 86.726143 47.608921
50.298302 86.728554 47.657108
47.513721 86.692642 46.40176
52.183594 86.730782 47.673721
47.213268 86.683746 46.082348
48.76049 86.709358 46.039185
47.821793 86.692169 45.615425
47.836655 86.690094 45.068954
50.311741 86.713341 45.718613
49.056511 86.708664 45.245571
50.927067 86.716812 45.531197
52.806412 86.737602 46.098045
51.252216 86.718132 45.58604
48.758049 86.69397 44.650127
51.575401 86.720688 45.361752
50.01429 86.703354 44.845486
51.258377 86.716133 45.033497
46.577354 86.708847 43.483833
48.156658 86.672043 43.734665
52.503128 86.728401 44.942844
49.108128 86.662361 43.60928
48.14439 86.701248 43.173542
46.500259 86.845375 42.610363
46.122677 86.961647 42.249878
52.19976 86.713074 44.066532
47.14724 86.821861 42.444187
46.07489 87.038033 41.945957
50.658443 86.688316 43.286003
51.280403 86.699226 43.379059
52.829369 86.711281 43.329613
50.321541 86.725479 42.392689
51.589195 86.707413 42.59145
49.989506 86.762283 42.057697
48.601353 86.995338 41.238483
49.602676 86.885475 41.415306
50.264233 86.82032 41.529255
50.23584 86.877045 41.237717
51.839424 86.805199 41.216438
54.409389 86.713684 41.905125
53.146793 86.724495 41.434692
51.361229 87.087593 39.972054
52.058128 86.978943 40.10524
49.486267 87.606239 39.016178
54.999535 86.778641 40.589287
52.971668 87.018303 39.676025
49.250534 87.984352 38.05582
50.999714 87.685066 38.393036
53.530548 87.127182 39.17738
54.826836 87.061058 39.10807
52.647827 87.552216 38.117519
53.676231 87.415199 38.027424
55.019154 87.272346 38.259529
53.555965 87.608574 37.132542
56.274853 87.287666 37.890617
56.604568 87.249947 37.943172
56.216255 87.365631 37.304012
72.542755 86.606522 -20.641008
72.594368 86.522827 -20.894306
84.237305 76.872131 -56.435246
83.250053 75.912613 -56.679249
83.256607 78.867905 -57.554893
80.127075 79.235794 -59.189816
79.086395 79.852608 -59.872673
28.590517 100.48577 92.336472
25.277409 100.46252 91.145714
24.37904 100.44271 90.698296
27.085835 100.46614 91.49514
29.800554 100.49448 92.292969
29.520376 100.48904 91.696953
30.424051 100.49421 91.03698
26.803658 100.4526 89.79261
27.391584 100.48772 89.89669
28.294794 100.50096 89.791939
28.909328 100.49081 89.638443
27.220367 100.27369 89.103638
31.620651 100.51472 90.426079
29.820145 100.49146 89.814369
28.343386 100.42005 89.274628
31.344322 100.5117 89.833595
30.427624 100.50841 89.37751
28.723345 100.30026 88.834213
29.820625 100.48959 88.985893
31.33338 100.51772 88.99485
31.627695 100.52006 89.046387
29.440559 100.12132 88.200211
31.940115 100.52277 88.833359
30.49885 100.38243 88.323448
30.771975 100.42942 88.360626
31.058783 100.46747 88.404633
30.037724 100.13882 88.034264
32.546848 100.51514 88.671471
30.624067 100.17951 87.858597
30.17532 99.914955 87.576851
30.69186 100.06987 87.62886
33.163792 100.51632 88.238968
32.557751 100.52363 87.848091
31.252817 100.15255 87.435493
33.158192 100.52902 87.958115
33.163212 100.5414 87.684387
33.469734 100.5379 87.74379
29.55761 94.195427 86.436813
32.217442 100.08292 86.810921
32.462463 100.17866 86.830437
32.109554 99.747246 86.342178
32.854099 100.03922 86.394447
33.932304 100.2808 85.975929
34.178867 100.38086 85.991768
34.287319 99.698341 84.834702
35.020538 99.50222 83.93
35.96114 99.476768 83.011047
36.03817 99.349625 82.78669
35.911312 99.045486 82.572372
43.190083 98.530174 31.169659
43.819843 98.508453 30.727121
44.47646 98.442467 30.5688
45.739841 98.376091 29.953392
46.405445 98.302711 30.069807
43.563339 98.422714 29.085747
45.734035 98.388023 29.679464
45.419449 98.397926 29.360327
46.356003 98.378632 29.501463
44.51844 98.371017 28.695932
46.664829 98.371193 29.275713
47.000168 98.334061 29.334633
44.243088 98.326225 28.126465
44.858059 98.325737 28.215487
48.298775 98.223427 29.275917
47.946358 98.288155 28.937204
46.707382 98.318245 28.484154
45.784065 98.30307 28.081371
46.71822 98.295769 28.219225
32.431175 99.239708 34.530838
30.900862 99.276665 34.022343
30.610126 99.271736 33.712971
34.27037 99.181541 34.819714
31.534367 99.234207 33.860573
32.165623 99.193001 33.697357
30.608589 99.236855 33.17828
30.93947 99.205284 32.969727
33.720943 99.113281 33.410744
32.216953 99.100967 32.381897
35.87561 99.037392 33.479248
32.831524 99.082451 32.477959
34.670765 99.018204 32.76429
31.950743 99.074608 31.816004
33.778 99.023544 32.365086
34.403358 99.001656 32.464931
36.834206 98.960747 33.101704
36.849522 98.938889 32.83997
37.814308 98.86969 32.463169
38.732304 98.847206 32.602936
35.69875 98.861549 31.344263
32.933033 98.925056 30.38225
37.811798 98.829033 31.92654
35.089725 98.846306 30.985996
38.782558 98.758224 31.550632
34.825935 98.80407 30.153273
32.063286 98.877731 29.193464
35.153736 98.771805 29.941374
38.815811 98.709457 31.028164
33.630604 98.800835 29.175385
32.097889 98.83535 28.674046
41.901981 98.627747 31.767651
32.407082 98.828011 28.721661
40.052803 98.657814 30.949251
41.914307 98.629341 31.503233
32.736008 98.796204 28.510693
35.798332 98.689026 29.245621
38.886288 98.624519 29.984236
32.459492 98.761467 27.943012
42.551022 98.567375 31.065878
41.030689 98.592827 30.573227
38.262775 98.623817 29.619963
35.210182 98.675133 28.627415
35.833912 98.647461 28.725004
34.006748 98.684425 27.915558
41.350975 98.549026 30.087193
35.237782 98.634087 28.104033
32.493504 98.69397 26.889488
35.875443 98.582893 27.939894
39.538738 98.529907 29.019335
32.814236 98.663795 26.675095
41.395737 98.484222 29.299721
40.475784 98.48159 28.895561
38.971909 98.478043 28.142857
42.32679 98.448692 29.171478
37.747437 98.484222 27.694056
41.741371 98.430107 28.823946
39.290108 98.443779 27.925913
33.152889 98.594055 25.934568
43.289711 98.399536 28.78533
42.378826 98.382088 28.386517
35.039001 98.483398 25.964369
38.728676 98.391708 27.052181
34.12685 98.51445 25.561218
35.05146 98.463173 25.702387
35.689732 98.432243 25.804234
33.52055 98.506889 24.938215
39.965836 98.337723 26.970264
34.457352 98.450752 24.816198
36.023933 98.360535 25.060165
25.638769 99.58831 36.372673
25.871458 99.678391 36.381535
27.609392 99.735229 36.631966
27.964441 99.63974 36.708588
26.206015 99.641678 35.907784
27.386063 99.654007 36.082897
28.304798 99.566345 36.240749
27.418158 99.57769 35.837818
27.734257 99.546402 35.893234
27.156775 99.521706 35.276703
26.855175 99.5214 34.962635
26.253731 99.52626 34.602043
29.298597 99.425766 35.084885
29.607819 99.413338 35.135056
27.192156 99.458649 34.224735
28.748541 99.390594 34.212677
27.237127 99.379776 32.910061
30.021574 99.255684 33.092422
29.784859 99.152763 31.472467
27.653406 99.21801 30.606363
30.121937 99.102455 30.999815
28.616522 99.138763 30.236704
30.457861 99.039864 30.259335
30.483833 98.999809 29.737009
28.081079 99.059929 28.574837
30.852064 98.91877 29.01042
28.453955 98.931076 27.05411
29.40461 98.858521 26.675995
30.331993 98.785194 26.288055
30.055925 98.777611 25.986998
32.207333 98.675758 26.317389
30.980501 98.716133 25.863796
30.411394 98.685989 24.98942
29.494596 98.722763 24.583559
31.332916 98.651199 25.129421
31.637039 98.636147 25.175091
30.449459 98.642235 24.205616
31.06868 98.595612 24.034891
32.61256 98.51326 24.271391
46.806015 100.21806 -82.071602
54.029934 89.740761 84.486092
54.611168 89.318886 84.146362
101.47462 74.693932 -42.988632
99.037483 76.777946 -45.927597
98.79409 77.13662 -46.269863
97.486038 78.560638 -47.918968
96.767799 79.626022 -48.94519
44.934357 98.907631 92.112335
44.968246 98.845383 91.858734
45.372002 98.682755 91.987106
46.166286 98.415024 92.22171
45.00565 98.796288 91.601776
46.735813 97.991371 91.902321
47.244923 97.672485 91.817589
45.533085 98.418472 90.979912
47.672295 96.979065 90.989922
47.180935 97.262062 90.809975
46.179588 97.912209 90.419914
47.275768 97.128242 90.587692
45.662388 98.221001 89.94664
48.33709 96.40345 90.731918
46.199036 97.840111 89.605042
48.548374 96.065079 90.312904
48.638721 95.921928 90.0923
49.103901 95.670845 90.257584
50.585583 95.301735 90.654068
49.198589 95.515945 90.041718
49.640282 95.323524 90.180977
50.389774 95.130821 90.379906
46.855461 97.305809 89.053802
45.710846 98.143158 88.581894
49.30183 95.359489 89.825951
49.730686 95.166557 89.96666
50.22237 94.878807 89.865768
50.931526 94.769943 90.02655
51.746368 94.459709 89.715012
51.554298 94.266998 89.452797
51.853237 94.284164 89.507408
49.80669 94.540512 88.762634
50.649948 94.202736 89.020622
50.741467 94.042717 88.807251
52.161163 93.780075 88.873787
50.106373 94.059708 88.11834
51.637913 93.617165 88.538612
51.036255 93.559013 88.16433
51.492481 93.318459 88.043877
51.372173 93.030212 87.535797
52.159336 92.769913 87.480766
52.475456 92.764671 87.54332
51.933655 92.619888 87.20269
53.420437 92.255653 87.026505
51.544491 92.223328 86.403572
52.849319 91.653152 86.247864
52.769646 91.279198 85.774887
53.211456 91.055695 85.649948
65.183235 87.71714 34.916775
34.387287 100.52193 92.360054
37.426624 100.54287 92.657356
34.980183 100.5405 91.353226
36.806698 100.54699 91.699692
37.116177 100.54659 91.760803
35.882832 100.54793 91.241241
38.668701 100.53052 92.069031
36.813595 100.54939 91.426689
35.582932 100.54588 90.909035
39.955196 100.43855 92.06781
38.361698 100.53753 91.453339
42.049255 100.06337 92.314804
35.000481 100.5268 89.701988
38.058834 100.5374 90.284737
37.121956 100.55298 89.819115
43.258022 99.62632 91.569756
39.970997 100.43712 90.406723
36.217716 100.54551 89.098701
40.647606 100.33598 90.288948
41.358337 100.18407 90.194145
43.707596 99.393066 90.890373
38.074593 100.54315 88.62796
37.141232 100.54769 87.888817
38.03529 100.5444 87.767845
42.094746 99.995995 89.001793
43.334312 99.499695 89.392052
38.056431 100.54914 87.504646
39.015476 100.51556 87.705185
44.609467 98.90152 89.535736
36.226242 100.55677 86.607979
39.635254 100.48625 87.547951
40.312695 100.39451 87.70713
43.280258 99.546677 88.525917
36.506222 100.58042 86.092712
36.506367 100.59701 84.984749
36.81712 100.61132 84.767891
43.774185 99.304436 87.0289
37.121765 100.61372 84.82457
37.432987 100.60398 84.885605
44.220428 99.079155 86.902275
37.728058 100.62187 84.380844
37.432453 100.60365 83.776772
45.238819 98.434242 86.173363
36.396046 99.774902 83.000999
37.816887 100.48027 82.779953
37.404667 100.1461 82.525978
38.101894 100.5165 82.545433
37.092106 99.646927 82.065086
37.519131 99.955795 82.049225
37.158298 99.54142 81.834328
37.695816 99.66964 81.340736
38.187096 99.873085 81.092918
38.404827 100.02562 81.089577
38.618866 100.18228 81.083908
38.095543 99.520584 80.629547
38.15078 98.922081 79.987465
38.881035 99.756485 79.876709
38.393356 99.031303 79.723137
38.934414 99.664726 79.63575
38.634041 99.146591 79.457687
39.315536 99.550148 78.911026
39.043812 98.977036 78.751869
39.285583 99.100311 78.486671
39.450665 99.334785 78.447655
39.63121 99.5429 78.419075
39.661831 98.984444 77.75811
39.987381 99.462685 77.677696
40.084507 98.80648 76.781982
40.219452 99.097679 76.722458
40.166508 98.66227 76.560799
40.649944 99.402519 76.158928
40.553482 99.051422 75.966469
40.705723 99.311279 75.919189
40.879124 99.531937 75.886719
40.763779 99.206917 75.682808
40.695084 98.829063 75.504562
41.198704 99.528587 75.116943
41.226257 98.979942 74.17498
41.545467 99.458038 74.095894
41.952656 99.806618 73.794922
41.308151 98.344315 73.542984
41.807457 99.555992 73.284019
41.426842 98.644112 73.201828
42.010635 99.71521 73.00296
41.563976 98.93074 72.868668
41.695091 99.237885 72.803787
42.671432 100.15919 72.439896
41.684246 97.726677 72.127251
42.481735 99.965378 72.187057
41.767216 98.616371 71.889954
41.850288 98.98481 71.800011
42.507168 99.927849 71.924377
42.149181 99.496719 71.709259
41.815845 98.524605 71.648354
41.978065 98.757828 71.059792
42.798798 99.958344 70.867203
42.614464 99.749474 70.619492
42.638031 99.709923 70.35955
42.174908 98.96505 70.207954
42.213158 98.902512 69.956528
43.080364 100.00771 70.076324
43.307362 100.14152 70.077843
42.505131 99.435051 69.85865
42.685867 99.637596 69.835686
43.103832 99.97052 69.814049
43.332947 100.10074 69.818153
42.32029 98.732826 69.195541
42.350899 98.682686 68.939339
43.228935 99.771667 68.514999
43.455418 99.909111 68.51693
42.853161 99.378693 68.282288
43.262733 99.717216 68.261597
42.462933 98.499031 67.907623
44.303852 100.02754 68.355789
42.417965 97.548424 67.887947
43.120266 99.44854 67.758896
42.775238 99.007187 67.54528
42.479237 97.942657 67.239059
44.135323 99.810936 67.56028
43.236469 99.258965 67.005783
42.878258 98.830383 66.786743
43.07251 99.02932 66.765152
42.532051 97.870605 66.440598
42.559052 97.840103 66.177231
43.155037 98.888199 66.267487
43.374023 99.03791 66.264259
44.130299 99.322456 66.316261
45.048637 99.331078 66.474243
42.619427 97.743217 65.663231
42.658104 97.695374 65.407242
43.53801 98.7715 65.540619
45.263622 98.977402 65.782722
43.018215 98.100945 65.08239
45.031029 98.866219 65.494431
44.486938 98.736542 65.162926
44.27478 98.575119 64.896606
44.567333 98.602226 64.939255
43.81678 98.316811 64.612076
44.366821 98.435173 64.671135
44.978039 98.441826 64.776352
45.297421 98.416946 64.840462
44.456161 98.284691 64.453979
44.550014 98.13166 64.236275
44.065174 97.911697 63.938702
44.064312 97.406807 63.250328
44.162613 97.249046 63.032253
46.705563 97.165192 63.480721
44.839954 97.146957 62.90274
45.1535 97.15094 62.949684
46.163948 96.516907 62.46273
46.535984 95.899605 61.867599
47.001324 95.651863 61.733948
34.067188 100.52775 89.51445
34.387375 100.52039 88.751434
34.977776 100.57624 86.358994
34.738945 100.47006 85.794479
34.783745 100.39688 85.549263
35.04134 100.48106 85.572441
35.080906 100.41474 85.323845
35.913494 100.55485 85.160515
35.557362 100.14039 84.391846
36.266907 100.49225 84.41954
35.692986 99.917343 83.930069
36.328449 99.886597 83.232605
48.611378 98.215668 29.051117
122.57144 79.513382 3.3442991
122.17848 78.592575 2.026825
121.82306 77.164146 1.660936
120.9585 74.410049 -2.2678559
120.19642 74.006805 -6.6059089
120.96707 78.685196 -7.5767598
121.59281 80.690521 -7.556457
120.73118 78.068802 -7.7926002
121.14793 79.857391 -8.3207808
121.16067 80.311142 -8.9653606
120.30904 77.174408 -9.1130543
120.10309 75.994675 -9.2250357
120.22018 76.808777 -9.3477783
120.41863 77.988335 -9.5224628
121.28843 81.078293 -9.6470366
120.7915 79.86261 -10.075182
121.09757 80.860016 -10.202206
121.38844 81.879143 -10.621511
121.12595 81.739716 -11.473817
94.935493 87.133675 -2.0392611
94.035599 86.996956 -1.843109
94.649422 87.067924 -1.783437
99.545448 95.083046 -15.624337
98.916443 94.567276 -15.883224
99.303589 94.955772 -15.90653
98.463654 94.267082 -16.433981
97.661339 93.523605 -16.669434
99.047058 94.844574 -16.465355
99.242775 95.032082 -16.47086
99.601463 95.45488 -16.774847
97.206505 93.224403 -17.497402
98.183762 94.181305 -17.548214
99.183861 95.10585 -17.315247
99.371918 95.308228 -17.329012
97.781151 93.806046 -18.078625
98.763481 94.758118 -17.853136
97.972984 94.004196 -18.091335
99.34127 95.346825 -17.889961
98.764282 94.749008 -18.40131
96.683144 92.531136 -19.642202
97.301796 93.056076 -19.936085
99.579231 95.453758 -19.529129
96.025391 91.573036 -20.659328
99.230659 94.999748 -20.04286
99.622719 95.379417 -20.062052
98.917801 94.5075 -20.5455
98.583282 94.032913 -20.783688
98.04985 93.386597 -21.009211
98.433624 93.772636 -21.033747
96.800514 91.865051 -21.451475
96.120682 90.941505 -21.929573
99.079895 94.25898 -21.316751
99.273071 94.455872 -21.325632
99.333717 94.36248 -21.582026
99.787331 94.651192 -21.855076
99.981354 94.842941 -21.865669
99.279259 93.962761 -22.075529
99.364647 93.839691 -22.319433
99.852287 94.073471 -22.589293
99.355675 93.371796 -22.801743
100.14172 94.129982 -22.839361
98.685081 91.965309 -23.474918
99.197914 92.170029 -23.730988
99.044991 91.437393 -24.184139
100.30933 92.933228 -24.010817
100.9182 93.473282 -24.038906
126.55381 87.907372 7.7314968
124.72095 84.722015 7.2459841
125.01074 85.282036 7.1741452
124.70354 84.740013 6.6659331
126.22212 87.398796 6.9293451
125.90447 86.885727 6.699626
126.5367 87.909004 6.5857148
124.54566 84.481819 6.118752
124.83311 85.027534 6.0551062
126.05185 87.140732 6.099575
126.89687 88.325104 6.2761741
125.89155 86.888359 5.8390059
123.39053 81.774071 5.3281832
126.53049 87.890503 5.7344699
125.26662 85.84446 5.383965
124.66871 84.745735 4.6574769
124.66541 84.743561 4.3716722
126.35353 87.636833 4.6177449
125.24895 85.842804 4.239264
125.40202 86.105087 4.2099261
124.80013 85.027985 4.0498018
125.7039 86.624275 3.8676469
125.23175 85.85791 3.662092
124.64809 84.775139 3.499038
124.21213 83.930717 3.03091
124.06543 83.654686 2.776679
124.33028 84.237633 2.416023
123.50563 82.492653 2.064543
125.65253 86.665344 2.139374
123.61926 82.820282 1.729879
124.58481 84.801979 1.779856
124.15257 83.966995 1.593135
125.17767 85.892349 1.650291
124.57922 84.818726 1.486038
126.10369 87.450417 1.48062
124.27211 84.285469 0.97301501
123.71535 83.135384 0.82985002
123.97855 83.724365 0.75608402
123.47612 82.532623 0.61863101
123.59154 82.83699 0.57988697
125.1351 85.911919 0.793585
123.71586 83.142563 0.53975499
126.07893 87.465607 0.90760797
123.83987 83.442192 0.50220901
124.09874 84.025322 0.431905
123.78771 83.487236 -0.36549801
123.63685 83.230301 -0.62837499
123.76192 83.523987 -0.66255701
125.37669 86.520752 -0.43395501
125.52875 86.774117 -0.45710599
125.68509 87.031143 -0.48435599
124.01086 84.126328 -1.025743
124.28372 84.697342 -1.094142
124.86667 85.783157 -1.215939
126.292 88.06884 -1.165782
124.9987 86.073471 -1.538687
126.60741 88.573341 -1.50383
124.0677 84.487259 -2.218435
125.1067 86.387749 -2.15187
126.19694 88.179375 -2.6235571
126.69498 88.892235 -2.683033
124.42453 85.416901 -3.201004
127.02431 89.382385 -3.0201981
126.47456 88.722626 -3.5404589
126.1145 88.247955 -3.770987
124.14598 85.298134 -4.6344299
125.56255 87.590561 -4.5796771
125.05524 86.86544 -4.7948108
126.75241 89.253166 -4.4474492
123.35023 84.01683 -5.36165
124.39081 85.885002 -5.2721071
124.0691 85.366631 -5.499301
125.62018 87.956787 -5.7711949
124.31493 85.977135 -6.150979
124.6115 86.497711 -6.1991282
123.67428 84.957458 -6.6173658
122.76871 83.359955 -7.019135
125.20798 87.572319 -6.607677
122.36317 82.486893 -7.2006779
123.18176 84.207596 -7.1146078
124.86333 87.101036 -6.850975
126.56602 89.454071 -6.4810028
124.21984 86.077759 -7.024436
123.60932 85.037056 -7.206852
122.33601 82.51741 -7.4928231
125.66555 88.335587 -6.9625368
123.10944 84.292053 -7.7032161
123.53838 85.117348 -7.7932382
123.97931 85.929016 -7.88202
126.08054 89.164734 -7.6252928
124.43153 86.71917 -7.9637208
123.03812 84.386864 -8.2986078
123.94279 85.966377 -8.1722507
125.73817 88.68396 -7.861783
122.59398 83.576546 -8.4974556
125.22685 87.990913 -8.0967503
122.85903 84.140282 -8.5541048
122.16685 82.722839 -8.6799316
125.03344 87.776695 -8.3632135
123.4305 85.246666 -8.6769056
125.16084 88.049667 -8.6689291
122.88876 84.569237 -9.4799786
123.76982 86.190674 -9.6542673
124.81683 88.011421 -10.108731
123.01254 85.320908 -10.724538
122.21646 84.050285 -11.171565
124.06895 87.178848 -10.92485
124.38326 87.669708 -10.961104
124.54175 87.918343 -10.982665
123.87082 86.966087 -11.188582
122.40688 84.714584 -11.822447
124.14613 87.506203 -11.520716
121.94718 83.915749 -12.020599
124.26472 87.805275 -11.838493
122.65228 85.305473 -12.170256
123.31139 86.752136 -12.905769
122.33405 85.253624 -13.329987
124.2807 88.204765 -13.300141
123.3243 87.187569 -13.822223
124.25079 88.262405 -13.611679
122.32856 85.251579 -14.18168
123.28461 87.23587 -14.115956
122.5727 85.868881 -14.257052
123.25603 87.265213 -14.404359
124.28295 88.677673 -14.242326
123.74071 88.000793 -14.467887
125.40687 89.947311 -14.332398
125.59895 90.142288 -14.330039
123.02773 86.633484 -14.89336
126.02288 90.959564 -14.995823
124.71098 89.477051 -14.884767
125.07825 89.914658 -14.921435
123.47256 87.423485 -15.254334
124.01997 88.548958 -15.375829
124.32672 89.058968 -15.424133
125.00469 89.99472 -15.499245
125.54563 90.657776 -15.549444
124.53045 89.237732 -15.995082
124.67478 89.515579 -16.024967
110.66066 100.77544 -20.603094
111.45687 100.59085 -21.321671
110.61333 100.35564 -21.641195
112.72498 100.19193 -22.507727
112.01917 99.772163 -23.063345
112.31424 99.832863 -23.047379
112.40161 99.700165 -23.289478
110.52077 98.601204 -24.136463
112.78429 99.625359 -23.513512
111.77375 99.176758 -23.823296
112.17625 99.076767 -24.043308
113.68008 99.303619 -24.206141
113.2298 98.99762 -24.479279
113.43458 98.235672 -25.445856
112.93464 97.536568 -25.947248
113.07687 97.337296 -26.182358
116.79983 98.192604 -26.773615
101.6753 97.200546 -16.293077
101.01925 96.723656 -16.557186
102.31995 97.687881 -16.302132
100.3977 96.196266 -16.809174
101.42735 97.079582 -16.57093
100.79293 96.575157 -16.835463
102.22883 97.808083 -16.881075
102.19659 97.849586 -17.167267
102.39423 98.031807 -17.447161
101.73811 97.556969 -17.715347
102.60236 98.199631 -17.725138
102.59142 98.210495 -18.005814
102.36672 98.05838 -18.281492
101.93543 97.731369 -18.545782
103.00971 98.542114 -18.564358
105.2448 99.589188 -17.947636
100.13653 96.069489 -19.29421
100.93862 96.798485 -19.325695
102.58816 98.198311 -19.10223
102.80492 98.357635 -19.104986
104.41962 99.34182 -18.818035
100.58097 96.362343 -19.842855
101.96725 97.669312 -19.628035
105.15955 99.692421 -18.798384
105.93167 100.00005 -18.767536
104.90466 99.583214 -19.081196
103.31297 98.563179 -19.633955
105.65782 99.918083 -19.056095
106.16868 100.12731 -19.037212
105.15688 99.687569 -19.346603
103.1468 98.328278 -19.888533
100.48166 96.030724 -20.624647
104.43891 99.300514 -19.63394
107.23517 100.49078 -18.98349
106.42458 100.22273 -19.301901
105.42333 99.773201 -19.607052
104.47031 99.249748 -19.89661
104.06381 98.894897 -20.162186
105.7736 99.73204 -20.388002
108.11023 100.6522 -19.743933
108.71297 100.71521 -19.96669
108.76051 100.65241 -20.227421
109.3456 100.75713 -20.18347
107.71744 100.24007 -20.816465
109.09667 100.64246 -20.466532
107.79107 100.13044 -21.065123
108.62704 100.35384 -21.016182
109.56062 100.43839 -21.209974
108.50398 100.06673 -21.538048
108.78426 100.13322 -21.517567
107.79977 99.642822 -22.087523
110.16347 100.03518 -22.180206
107.45455 98.722015 -23.078039
107.83532 98.652855 -23.309155
109.06006 99.262787 -23.004957
131.99161 94.541328 7.4410162
132.7796 95.326996 6.8225431
133.06763 95.400742 6.2762518
133.70154 95.91729 5.6859779
132.98981 95.000938 5.4860239
133.78685 95.790977 5.1501851
133.61418 95.555916 4.8875709
134.04951 95.887756 4.5949039
134.08034 95.834442 4.0392261
126.96805 88.314629 8.2629585
127.10587 88.577568 8.2442675
127.09478 88.53727 5.9687338
133.44443 95.292114 3.779676
131.64406 93.987556 3.234513
133.00812 94.94445 3.5043991
133.65067 95.470238 3.4894331
131.23474 93.599854 2.687942
131.6955 93.907143 2.6866641
132.99443 94.94912 2.9344659
132.13181 94.247711 2.6750889
132.77216 94.777771 2.6523509
134.28038 95.998863 2.897424
132.33139 94.435661 2.3819921
128.96286 91.053505 1.457387
130.84923 93.169556 1.866001
127.249 89.156174 1.030203
131.26938 93.532654 1.849609
131.6732 93.916481 1.828562
130.84259 93.171555 1.582747
130.0094 92.426903 1.335477
130.02434 92.401482 1.057566
127.56939 89.649162 0.40768999
128.67621 90.96154 0.58196598
129.24522 91.588257 0.53742999
130.40242 92.817055 0.74064398
128.45322 90.783936 0.020114001
130.79767 93.208206 0.4294
127.52763 89.685608 -0.455901
127.87805 90.147789 -0.49933699
132.24046 94.50251 0.083709002
128.4162 90.805901 -0.83394998
131.80931 94.148193 -0.184174
128.96793 91.458519 -1.175832
128.95328 91.468651 -1.460848
133.98094 95.860107 -0.238089
131.56268 93.996574 -1.038841
133.74944 95.700752 -0.51944602
130.51279 93.076683 -1.5612659
129.11026 91.701721 -2.0458441
131.10928 93.66011 -1.883538
127.4015 89.807884 -2.7655129
129.47827 92.134331 -2.3692031
133.25218 95.413574 -1.656063
130.05142 92.747536 -2.6958439
133.45912 95.591774 -1.953428
128.6698 91.345215 -3.1723599
131.90742 94.424164 -2.494154
132.32336 94.782265 -2.786238
129.40785 92.202225 -3.5228541
131.66 94.280945 -3.0674491
132.74597 95.133011 -3.087009
133.18202 95.472366 -3.0981469
134.25824 96.344826 -2.842361
131.42107 94.123962 -3.628068
130.57321 93.406166 -3.8828039
132.73369 95.14238 -3.37307
128.96603 91.851868 -4.364037
133.60139 95.826515 -3.394206
130.76097 93.611565 -4.1840959
131.99133 94.716629 -4.7976098
133.53624 95.884132 -4.5423632
128.85291 91.97551 -5.817893
129.21631 92.399101 -6.125309
128.42482 91.604408 -6.3612452
128.61111 91.817596 -6.3771591
133.71057 96.093918 -5.1191182
128.8008 92.027557 -6.3932991
132.81186 95.441521 -5.6777482
129.79909 92.99781 -6.4461799
134.26286 96.726898 -5.4506359
131.89734 94.807404 -6.238729
128.42056 91.596939 -7.2114139
131.44701 94.481247 -6.5156808
128.59698 91.816917 -7.2278018
131.00586 94.143669 -6.7918768
133.61751 96.191956 -6.2835569
132.30391 95.171196 -6.8215871
129.92967 93.255859 -7.604938
132.94449 95.688934 -7.1192479
134.14839 96.849022 -6.9037471
130.30984 93.668602 -7.9195938
133.56117 96.243912 -7.1443949
129.7588 93.021965 -8.1526947
129.94075 93.234459 -8.1679869
131.14262 94.394135 -7.9489861
130.91991 94.224121 -8.2260418
131.11884 94.411118 -8.5167379
130.72997 94.009361 -8.779233
134.05203 96.943558 -8.05616
131.10437 94.424294 -8.803957
131.30374 94.61734 -8.8127842
130.88425 94.25061 -9.0800848
131.93855 95.150154 -8.8368931
131.07878 94.449333 -9.0890121
131.04074 94.494797 -9.3847952
133.96722 97.034592 -8.9278975
132.49132 95.761879 -10.002525
131.81458 95.280281 -10.27977
131.35463 94.968201 -10.557712
131.54727 95.163658 -10.854742
133.39694 96.82711 -10.930024
130.61133 94.554832 -11.700586
132.99065 96.447098 -11.196315
133.54391 97.080223 -11.236168
130.78773 94.77179 -11.996471
131.90114 95.589142 -11.732493
131.0025 94.944695 -12.005767
132.7363 96.307411 -11.755444
133.29414 96.938057 -11.80065
132.69824 96.352188 -12.05087
133.93785 97.907707 -11.890289
133.24776 96.994942 -12.099356
133.41786 97.22683 -12.120144
132.65369 96.406876 -12.350263
129.80978 94.2136 -13.137246
133.87643 97.984451 -12.19343
130.02591 94.384171 -13.140215
133.50542 97.561356 -12.448961
130.87672 95.084328 -13.163721
132.95961 96.897728 -12.668004
129.99562 94.417877 -13.431483
133.54213 97.952385 -12.783336
132.72585 96.754669 -12.963808
131.05133 95.304573 -13.467689
131.26172 95.483101 -13.475526
132.6537 96.839851 -13.262844
128.79636 93.704391 -14.286994
131.00145 95.363625 -13.762183
129.45377 94.203873 -14.303682
133.22737 98.359413 -13.45207
132.82631 97.513824 -13.633954
128.9928 93.894493 -14.577766
130.06987 94.756386 -14.320147
129.20215 94.07383 -14.586837
126.37132 91.408279 -15.312289
132.45486 97.090752 -13.889969
129.34337 94.339211 -14.900433
128.44777 93.691193 -15.161753
130.58571 95.436821 -14.658226
126.69293 91.893005 -15.635843
126.49567 91.694733 -15.62178
123.5602 101.45532 -21.341663
126.99826 101.45192 -20.7136
126.66553 101.44017 -21.022182
129.369 101.46255 -20.202719
126.65608 101.43657 -21.301783
125.97049 101.42614 -21.647738
123.62641 101.36998 -22.427158
127.97219 101.4719 -21.179947
124.60303 101.4052 -22.613834
124.93414 101.41869 -22.582851
129.3584 101.45983 -21.315054
124.29111 101.36402 -22.915211
127.64875 101.45786 -22.039474
127.99059 101.45448 -22.282389
124.33681 101.29691 -23.454391
124.0341 101.23602 -23.751978
124.07089 101.18788 -24.018291
124.38476 101.21957 -23.992044
124.70307 101.25382 -23.966038
129.65344 101.47587 -22.680841
124.72279 101.21507 -24.235312
124.52375 101.01429 -25.05625
126.98089 101.37785 -24.315619
128.65625 101.42991 -23.880949
127.64449 101.39317 -24.530691
129.61975 101.46024 -24.35183
128.33121 101.35477 -25.291534
129.64937 101.43763 -24.8976
125.02861 100.7551 -26.352747
126.93587 100.93258 -26.751089
127.24174 100.98225 -26.729214
126.06026 100.72243 -27.080229
125.80709 100.59399 -27.361137
128.75832 101.2194 -26.617462
128.46516 101.14649 -26.91218
128.81419 101.11463 -27.428682
128.02519 100.80678 -28.014673
127.27343 100.41445 -28.857601
128.1505 100.62016 -28.807621
128.48181 100.62923 -29.055384
128.74393 100.22117 -31.467445
112.54123 100.92563 -20.709259
114.73031 100.64662 -22.097738
115.03156 100.69781 -22.076731
115.32393 100.74943 -22.053825
115.09055 100.61094 -22.332867
113.97204 100.2929 -22.666916
118.37939 101.1599 -21.536234
115.45222 100.56835 -22.565485
119.34424 101.24288 -21.45207
118.41678 101.1106 -21.800825
116.11943 100.56453 -22.773092
114.8139 100.06628 -23.38596
118.49712 101.00134 -22.328934
