# .PCD v0.7 - Point Cloud Data file format
VERSION 0.7
FIELDS x y z
SIZE 4 4 4
TYPE F F F
COUNT 1 1 1
WIDTH 1546
HEIGHT 1
VIEWPOINT 0 0 0 1 0 0 0
POINTS 1546
DATA ascii
-7.1980591 5.2800875 266.16092
-7.1402159 5.4029894 266.22562
-7.024816 5.6296015 266.53265
-7.0243611 5.5618086 266.4144
-6.8848681 5.6446028 267.04059
-6.7179556 5.9165163 267.29327
3.1690717 -14.286307 266.98672
9.2468319 -9.5852861 264.87247
8.4701433 8.4870625 267.17361
10.650805 -9.5828629 264.03943
11.410667 -9.5538731 263.85959
11.311719 8.8842249 267.33231
11.388086 8.8639498 267.30725
11.693042 8.7769289 267.22238
11.874257 8.7361317 267.19058
12.090779 8.6909456 267.1824
12.294111 8.6393089 267.18246
12.500323 8.5909634 267.18655
12.555284 8.5821238 267.19492
12.753693 7.9562392 266.45569
12.94495 8.516428 267.336
13.014357 8.5009565 267.36258
13.30048 -19.896233 266.01108
13.752128 -20.284534 266.12271
13.73925 8.3919992 267.26132
13.875856 8.3588724 267.21259
14.118773 8.2897921 267.14529
14.407292 8.17138 267.08301
14.51244 8.1621866 267.08035
14.754192 8.1327705 267.15598
14.959398 8.1015635 267.242
15.082338 8.0850096 267.28809
16.43862 7.5456138 266.59198
16.618919 7.6399603 267.33087
19.679476 -31.365562 266.91
16.833948 7.5688214 267.28851
16.980234 7.6326218 267.16211
17.085836 7.6252499 267.10052
17.242167 7.5637803 267.02802
17.291273 7.5717735 266.96277
17.332098 7.5451512 266.93887
17.457962 7.4682178 266.88983
17.719688 7.2065969 266.80545
17.947811 6.2048063 265.89685
17.980597 7.1252074 266.75009
18.112303 7.0658584 266.73352
18.168421 7.0449023 266.73099
18.525331 6.9263463 266.74332
18.895882 6.7952657 266.76868
18.944246 6.7776742 266.77466
18.995306 6.7624836 266.7749
19.34326 6.6184211 266.7244
19.550758 6.5371037 266.65488
19.716984 6.4707317 266.57568
19.92168 6.3613415 266.49823
20.052671 6.2876434 266.47342
20.104311 6.2676773 266.46964
20.175249 6.2386069 266.47363
21.045345 -31.404026 267.01199
20.527632 6.0782967 266.50998
20.654345 6.0237055 266.51205
20.932447 5.9191127 266.48288
21.179058 5.8075113 266.44403
21.327269 5.7376523 266.41125
21.621572 5.6204705 266.3291
21.713215 5.5843372 266.31012
22.091028 5.553463 266.22006
22.151834 5.5189676 266.22681
22.421558 5.2965202 266.39078
22.495996 5.2627459 266.40396
22.890293 5.0225925 266.50562
23.007385 4.9782667 266.51984
23.153393 4.9064269 266.52576
23.413523 4.7802658 266.48984
23.789833 4.5313263 266.40524
27.038292 2.5086107 266.07288
27.492092 2.2136886 266.13565
27.514246 0.3447715 264.22372
27.623587 2.1367214 266.14804
24.206415 4.4212694 266.36035
24.273422 4.3875942 266.35901
24.65262 4.2168069 266.32269
24.805603 4.0658703 266.35599
25.028927 3.948452 266.34003
25.393257 3.7680449 266.27716
25.754452 3.4414277 266.2435
25.838253 3.4011726 266.22168
26.161411 3.1718047 266.15332
26.242266 3.1157303 266.14679
26.411951 2.9959176 266.14886
26.522818 2.8989422 266.14972
26.65848 2.7565496 266.1413
28.08506 -29.824768 265.38525
27.80023 0.2311274 263.73221
27.907835 1.961054 266.13254
28.275328 1.704511 266.05762
28.68215 1.4871072 265.90485
28.954012 1.1870292 265.87503
29.556309 0.71235538 265.87131
29.925825 0.43101209 265.86594
30.363766 0.1387243 265.98474
30.425468 0.093601704 266.0007
30.741337 -0.12996989 266.05475
30.817984 -0.1878901 266.0513
31.205021 -0.47116211 265.93765
31.807535 -1.1864535 265.96265
32.073639 -1.3369437 266.05591
32.518452 -1.5524395 266.12448
32.555073 -1.5827006 266.14047
32.774242 -1.751724 266.2291
32.924503 -2.5001123 265.36603
32.943348 -1.898647 266.29092
33.039295 -2.0171895 266.31088
33.081036 -2.2446263 266.18723
33.304333 -2.3944674 266.28842
33.393795 -2.4881713 266.25113
33.519867 -2.6401901 266.18475
33.588394 -2.7707939 266.04727
33.711403 -2.8581502 266.1077
33.889473 -3.034657 266.06122
34.029018 -3.1904719 266.0441
34.074982 -3.2980535 265.91254
34.287617 -3.4954045 266.06204
34.371994 -3.5876052 266.09561
34.597881 -3.8393483 266.2355
34.654339 -3.8911486 266.26794
34.832394 -4.1108537 266.38739
31.539164 -0.68937421 265.99722
31.614655 -0.92428321 266.13776
31.735174 -1.0420834 266.14252
38.189671 -10.847491 265.85526
38.257317 -8.3925276 266.56833
38.356461 -8.5323286 266.55875
38.413639 -8.6567183 266.40536
35.585285 -4.7543483 266.22025
35.590023 -4.8963728 266.06381
35.791161 -5.075983 266.19836
35.86145 -5.1657505 266.20105
35.900177 -5.2136331 266.21259
36.02248 -5.4388676 266.30533
36.133457 -5.5589075 266.35449
36.413628 -5.7969971 266.44623
36.527271 -5.8788629 266.47458
36.60112 -5.9732265 266.4971
36.771481 -6.1898446 266.53561
36.820877 -6.2790818 266.53793
37.103683 -6.7574458 266.47092
37.322884 -7.0510197 266.58502
37.390625 -7.1243191 266.62115
37.530319 -7.322752 266.70865
37.674553 -7.4727225 266.74405
37.764198 -7.5851741 266.59369
37.950542 -7.7845588 266.75043
38.000175 -7.8564229 266.73996
38.042881 -7.9377918 266.71359
38.097282 -8.1205063 266.49744
38.187988 -8.2477226 266.60306
34.96851 -4.2209287 266.40866
35.156719 -4.4045963 266.36801
35.337875 -4.4759874 266.30234
42.151657 -29.276073 263.69562
40.627899 -12.176126 267.00671
40.72044 -12.304559 267.02896
40.795261 -12.440309 266.85776
40.960133 -12.697035 267.07455
41.158417 -12.987176 267.13797
41.236744 -13.118269 267.16302
41.260239 -13.254853 267.00674
41.4198 -13.517853 267.23068
41.690403 -14.071228 267.16443
42.021297 -14.892823 267.34705
38.643036 -8.9061842 266.6022
38.849796 -9.2012434 266.71118
38.915977 -9.3022299 266.72733
38.990467 -9.4653807 266.52631
39.193359 -9.7034283 266.71735
39.424328 -10.007582 266.76102
39.579433 -10.16387 266.76373
39.644806 -10.269967 266.62781
39.865505 -10.416644 266.72644
39.968769 -10.608719 266.72571
40.104774 -11.077028 266.77051
40.295868 -11.49387 266.86331
40.301479 -11.627279 266.71597
40.478081 -11.895986 266.94208
44.72496 -30.192831 266.88287
44.746628 -30.194386 266.93542
42.402172 -29.402496 263.79715
42.625023 -28.912773 265.44418
42.65498 -29.136337 264.00974
42.772308 -29.413649 264.26154
42.990871 -29.653278 264.52328
43.019318 -29.442221 265.33548
43.292015 -29.754759 265.24713
43.295277 -29.691101 264.97882
43.323257 -29.680925 265.50699
43.728325 -29.682484 265.4454
43.946049 -29.412931 265.67252
44.103226 -29.688147 265.91431
44.246513 -29.950682 266.17426
44.44384 -29.692348 266.39539
44.567101 -29.969347 266.64572
44.848679 -30.042179 267.20532
44.853138 -29.976418 267.14047
-6.5417604 6.1966076 267.53616
-6.3584328 6.4740839 267.78015
-6.1987886 6.8492808 267.82553
-6.0259452 6.9329658 267.81796
-5.9458628 7.0451059 267.87869
-5.8769317 7.0164013 268.80798
-5.8520355 8.3017788 271.12695
-5.8318863 8.2224331 270.58548
-5.8195548 7.2168751 268.05109
-5.7902761 7.2843323 268.13016
-5.6993675 7.2924404 269.05453
-5.6920934 8.3471708 271.09882
-5.5158753 7.5687909 269.29959
-5.4645209 8.4451246 271.0943
-5.3604012 8.4058619 270.21185
-5.2346849 8.5128317 271.07764
-5.0821967 8.5469656 271.03223
-5.0139771 8.5688648 270.97906
-4.9826312 8.2475243 269.75824
-4.8297305 8.6113319 270.78458
-4.7604933 8.6545343 270.72961
-4.5159068 8.8253727 270.63019
-4.3986096 8.8968391 270.61548
-4.3112488 8.8999119 270.63101
-3.9623346 8.8936529 270.74655
-3.5695307 8.943306 270.87708
-3.3800318 8.9857483 270.79797
-3.1821952 9.0273457 270.66956
-2.8205612 9.0432558 270.50693
-2.7335215 9.0459623 270.48328
-2.4314387 9.01614 270.44495
-2.1115959 9.0709419 270.37573
-2.0541525 9.0786686 270.35455
-1.9891202 9.0884943 270.3187
-1.8989332 8.5482292 269.25409
-1.7097192 9.1676054 270.13864
-0.31613529 -13.816107 270.34555
-0.032053702 -13.458384 270.47586
0.1956068 -13.237968 270.44482
0.37452519 -13.092035 270.56601
0.47520059 -13.018588 270.63275
0.74990481 -12.817988 270.81342
0.83199251 -12.772132 270.8494
1.0698872 -12.587179 270.85959
1.2191904 -12.464647 270.84991
1.3024418 -12.398362 270.84546
1.6433216 -12.110322 271.00754
-1.4882481 9.1611528 270.03625
-1.3513511 9.2073231 269.96802
-1.1224318 9.2736435 269.86832
-0.98924571 9.3045721 269.82434
-0.6776464 9.3710318 269.77908
-0.5985257 9.382432 269.79074
-0.52797991 9.408576 269.81754
-0.3771556 8.6675701 268.91544
-0.14559551 9.4697952 270.00726
-0.0147057 9.4535112 270.06363
0.1310287 9.5810833 270.0687
0.2441114 9.6398554 269.98895
0.25023809 9.6780224 270.02139
0.5463264 9.7134037 269.99014
0.63402659 9.7154284 269.95166
1.0208212 9.5955734 269.87701
1.4098504 9.5914469 269.80338
1.412589 9.6401329 269.82452
1.7612571 9.6705151 269.65634
2.1537015 9.5925512 269.55383
2.2390783 9.5836458 269.51694
2.5093448 9.5706949 269.35941
2.7055852 9.5730934 269.26083
2.8728778 9.5960169 269.20636
3.0606666 9.613162 269.18942
3.2705374 9.6308393 269.19141
3.3962176 9.6383314 269.18814
3.6661711 9.6381378 269.1626
3.7622774 9.6428738 269.147
3.8731935 9.4566584 268.34192
4.0484314 9.6719551 269.086
4.1269498 9.6720839 269.07001
4.4305444 9.6682482 269.00095
4.519496 9.6622286 268.98877
4.8272161 9.6409349 268.96902
4.8982615 9.638341 268.96255
5.2211003 9.6119032 268.92563
5.2917914 9.6103239 268.90778
5.5972018 9.5684576 268.80829
5.7353148 9.5643005 268.76266
5.9695487 9.5715733 268.68573
6.1507277 9.5532246 268.62897
6.3419757 9.5631475 268.56107
6.5215201 8.7816648 267.50494
6.5433764 9.5602665 268.5206
6.7376366 9.527585 268.52338
6.9154906 9.5230761 268.53137
7.1441455 9.5132227 268.53339
7.2836108 9.4988985 268.53094
7.544765 9.4937296 268.51886
7.8614268 9.4716511 268.51416
7.9463153 9.4717255 268.50751
8.0353727 9.4602642 268.47775
8.2995825 9.4300709 268.29944
8.5393257 9.2517757 267.60995
8.5668592 9.3276978 268.08109
8.6381378 9.3096828 268.0162
8.90588 9.2571573 267.80103
8.9823713 9.2467194 267.76767
9.1111469 9.2268696 267.74884
9.3846178 9.1656561 267.74667
9.5669556 9.1330948 267.76172
9.8083105 9.0743675 267.80911
10.159196 9.1101522 267.88129
10.229546 9.0957661 267.88538
10.497131 9.0800753 267.78482
10.593522 9.0736876 267.72415
10.837808 9.0197706 267.53198
10.9381 8.979063 267.47034
11.113953 8.9396143 267.39975
14.31284 -17.322416 270.28586
14.476977 -17.124119 270.53116
14.514295 -17.103113 270.58282
14.639157 -17.01232 269.23813
14.73174 -17.316973 270.74744
14.751919 -16.927479 269.20615
14.888706 -17.084721 270.95255
14.898272 -16.877514 269.18582
14.937187 -17.061867 271.00876
15.13339 -16.759138 269.15463
15.423403 -16.782513 269.13977
15.85599 -16.89382 269.01053
16.555864 -16.940231 269.20694
13.233845 8.5072098 267.39722
13.363203 8.5009317 267.39264
13.431063 8.4825954 267.38181
15.399864 8.0538359 267.38046
15.813749 7.9012299 267.3909
15.874611 7.8862691 267.39279
16.224501 7.7886539 267.39725
16.312904 7.7591648 267.38889
19.796684 -30.904285 267.44852
20.163692 -30.914808 267.92563
17.029985 -16.898449 269.68655
17.596703 -16.914257 270.03732
17.804033 -16.91753 270.12332
17.89847 -16.924894 270.17325
18.021559 -16.932257 270.26715
18.149055 -16.951563 270.45639
18.262545 -16.867996 270.707
20.58477 -30.810946 268.39178
20.917139 -30.380987 268.45773
21.326374 -30.316332 271.06552
21.391273 -30.242125 270.4299
21.396885 -30.187687 270.75961
21.671797 -30.635593 267.85812
22.732399 -30.628635 270.53818
23.02223 -30.815586 271.17932
29.026257 -28.311195 270.88135
29.332319 -28.84795 270.79187
29.610939 -29.386147 270.70926
29.945553 -29.921398 270.61261
32.529495 -49.688076 269.50574
41.559589 -13.820811 267.37769
41.603455 -13.889016 267.39011
41.788486 -14.302746 267.37006
41.812424 -14.372941 267.38818
42.022449 -14.621462 267.50305
42.056198 -14.719893 267.52502
42.153255 -15.087632 267.51019
42.218346 -15.237331 267.50095
45.666428 -34.778717 271.09857
45.719391 -34.223083 271.09802
45.737717 -31.742502 270.84656
45.76115 -33.107639 271.10571
45.772713 -32.164116 270.96625
45.781807 -30.90918 270.56122
45.783001 -30.846951 270.55396
45.789497 -31.43103 270.57028
45.790779 -30.458065 270.46017
45.806866 -32.622581 271.04599
45.811615 -32.469826 271.02576
45.483757 -26.85272 269.76465
45.541824 -27.228441 269.83496
45.549072 -27.305611 269.84085
45.601971 -27.818674 269.84656
45.64146 -29.212646 270.09357
45.659557 -29.089954 270.22189
45.693039 -28.229731 269.96918
45.694355 -29.531288 270.32013
45.696117 -28.65362 270.08939
45.76543 -30.041193 270.32422
44.793568 -23.108843 268.72977
44.891712 -23.427004 268.96091
44.903751 -23.474358 268.98718
44.967152 -23.794035 269.12769
45.013691 -23.952486 269.16846
45.062904 -24.203876 269.19061
45.14529 -24.773054 269.17731
45.236759 -25.126175 269.36261
45.266167 -25.28524 269.42395
45.290028 -25.535732 269.48984
45.328865 -25.747881 269.53836
45.357456 -25.976765 269.57834
45.428299 -26.437048 269.63834
43.839306 -19.334721 268.43585
43.886677 -19.463354 268.48117
43.978401 -19.74416 268.53674
43.993866 -19.823071 268.44586
44.055 -19.955406 268.56238
44.131462 -20.199183 268.58362
44.146358 -20.367901 268.3949
44.251453 -20.915222 268.35577
44.251888 -20.613056 268.61227
44.347038 -21.193481 268.60736
44.485546 -21.621258 268.69434
44.503353 -21.740973 268.5582
44.562107 -21.937006 268.73715
44.58963 -22.087622 268.7439
44.685604 -22.527739 268.7366
44.703556 -22.604044 268.73581
42.377476 -15.707534 267.51791
42.534447 -16.004463 267.74756
42.675766 -16.263813 267.83282
42.732788 -16.388018 267.85846
42.878902 -16.774845 267.90546
42.897808 -16.827238 267.91888
42.996944 -17.08569 268.01105
43.048775 -17.213251 268.04169
43.138969 -17.577785 268.08405
43.173103 -17.678911 268.08578
43.436573 -18.168127 268.04837
43.513874 -18.451588 268.17056
43.549076 -18.552816 268.19742
43.707798 -18.994118 268.24716
-31.071096 -17.730585 274.78616
-31.05126 -17.813301 274.86264
-31.03569 -17.912792 274.74927
-30.929634 -18.356821 274.8226
-19.918295 1.4667807 274.70624
-19.882347 1.5019937 274.7002
-19.84627 1.5813012 274.68042
-19.679123 1.6905798 274.77075
-19.510122 0.90575522 274.60822
-19.505444 1.8200842 274.81866
-19.449558 1.8512368 274.80646
-19.210234 1.7637814 274.37598
-19.166391 2.0088367 274.60226
-19.117186 2.0222158 274.58749
-18.84803 2.2434204 274.31293
-18.744299 0.98947752 274.46362
-18.656178 2.3922725 274.20459
-18.50631 2.4564669 274.11224
-18.493736 2.5059001 274.17276
-18.080719 1.914748 274.08777
-16.552765 2.0641942 273.78006
-18.310658 2.5422325 274.22107
-18.124706 2.7460439 274.08667
-18.035858 2.789511 274.07785
-17.770391 2.9302287 273.93018
-17.715443 2.9557579 273.92148
-17.663027 2.9909084 273.87598
-17.448385 3.1797736 273.65854
-17.397312 3.2401328 273.63147
-17.373959 3.2860193 273.62988
-17.166143 3.2558138 273.86316
-16.992958 3.4888477 273.93149
-16.743828 3.674531 273.81607
-16.681915 3.7266498 273.61365
-16.652142 2.9197125 273.56314
-16.640667 3.7265055 273.77814
-16.469324 3.8529551 273.7135
-16.349503 3.9094541 273.36951
-16.289024 3.9535308 273.61996
-16.052652 4.1957459 273.43515
-15.953241 4.2228551 273.40741
-15.892631 4.2396026 273.40906
-15.886447 3.0028081 273.41791
-15.605433 4.4408383 273.23206
-15.249949 4.561038 273.06677
-15.222785 3.9284737 273.04245
-15.209775 4.6572142 273.24719
-14.927633 4.8421903 273.27948
-14.800421 4.9156084 273.32578
-14.46518 4.9673724 273.06543
-14.460188 3.9964669 272.88168
-14.009995 5.1876073 273.31879
-13.784627 5.2540169 273.05389
-13.70015 5.2812018 272.96594
-13.513567 5.3712854 272.80045
-13.366155 5.4227624 272.71945
-13.229468 5.4700122 272.67529
-13.006015 5.6279426 272.59058
-12.847739 5.7203107 272.56076
-12.618788 5.8385563 272.57089
-12.207847 6.1111722 272.65878
-11.955488 6.2341194 272.75412
-11.777837 6.3219733 272.80975
-11.709174 6.3490834 272.82291
-11.442393 6.5420871 272.71094
-11.423966 6.5568419 272.66211
-11.280031 6.605855 272.68103
-11.062669 6.7459559 272.53452
-10.859848 6.7367692 272.54794
-10.667174 6.8006754 272.51508
-10.291104 6.9926968 272.44699
-9.9548359 7.1661272 272.38849
-9.929944 7.177886 272.31799
-9.6401072 7.2328854 272.14139
-9.5751038 7.2357149 272.13708
-9.2100658 7.3467946 272.00803
-8.9146585 7.3899837 271.91577
-8.8366423 7.3935237 271.89893
-8.7164145 7.4629178 271.87131
-8.4600363 7.5571489 271.827
-8.3216105 7.6308475 271.79633
-8.0727406 7.6500754 271.7829
-7.7361617 7.7306104 271.79483
-7.6710706 7.7531557 271.79825
-7.3483987 7.8694701 271.57477
-6.9866743 8.0056763 271.36429
-6.5878963 8.1324768 271.37311
-6.4101338 8.1588678 271.35632
-6.2103171 8.2039165 271.28574
-6.0399361 8.2587986 271.20062
0.76957297 -46.363689 274.81271
-0.31170991 -14.308674 271.18784
-0.25219971 -14.47907 271.37415
0.035859201 -14.67306 271.59052
0.072901502 -14.691479 271.63278
0.14371561 -14.687148 271.65146
0.3606132 -14.613987 271.79959
0.4601588 -14.549355 271.89786
0.51974219 -14.508369 271.953
0.54279459 -14.273774 272.82117
0.55728883 -14.250154 272.86554
0.57447243 -14.297289 272.71896
0.63157171 -14.225846 272.9617
0.75354153 -14.166113 273.10211
0.81621248 -14.136764 273.18381
1.0394815 -13.876068 273.43616
1.0820662 -12.752861 274.61877
1.1201324 -13.047378 274.49289
1.189768 -13.16692 274.36783
1.1959581 -13.725195 273.63071
1.2459956 -13.667993 273.74301
1.2847112 -13.40598 274.13037
1.2942642 -12.22185 274.59131
1.2977575 -13.455232 274.07623
1.6849105 -11.595178 274.49805
1.7684079 -11.985689 271.45203
1.7713424 -11.94088 271.85513
1.7782394 -11.967288 271.57565
1.7816809 -11.921556 271.93747
1.8995004 -11.809773 272.28854
1.9130266 -11.788987 272.33279
2.0047395 -11.605264 272.68625
2.0440733 -11.400514 273.02972
2.0506234 -11.409128 274.38739
2.092978 -11.257898 273.31647
2.1233387 -11.22897 273.39752
15.207029 -16.999058 271.20483
15.362094 -16.972963 271.38797
15.395121 -17.034832 271.44156
15.457082 -16.967133 271.49634
15.595202 -17.310459 271.66971
15.631605 -16.951395 271.66882
15.741188 -16.920723 271.81198
15.755843 -16.267952 273.34857
15.801258 -16.895983 271.90228
15.993173 -16.835388 272.06555
16.125067 -16.735674 272.13373
16.603113 -16.529119 272.35999
16.641245 -16.458996 272.38745
17.481089 -16.342916 272.00366
17.822399 -16.468639 271.89902
17.930588 -16.473152 271.89029
18.248295 -16.471685 271.98874
18.522268 -16.738846 271.41711
22.121288 -30.905165 273.13098
23.248028 -31.078114 271.41385
23.439369 -31.272129 271.73376
23.73011 -31.591595 272.14001
23.853113 -31.694275 272.32678
23.929106 -31.753454 272.49432
23.984245 -31.801474 272.76001
21.622494 -29.931126 271.39468
21.791937 -29.870161 271.63959
21.973692 -29.812258 272.00681
22.012859 -29.812254 272.08963
22.161283 -29.85071 272.49765
22.211462 -29.853714 272.64078
22.360275 -29.86096 273.01575
22.401941 -29.869816 273.08417
22.441111 -29.8748 273.16592
22.61944 -29.911928 273.47089
22.770807 -29.971334 273.74451
22.815048 -29.997894 273.77441
22.89521 -29.997295 273.88333
23.064106 -29.958288 274.08795
23.196148 -30.001286 274.15979
21.846775 -17.917646 271.56308
23.99987 -31.788912 273.06516
24.066437 -31.629211 273.44702
24.116608 -31.594336 273.53589
24.289043 -31.498659 273.82608
24.32634 -31.427496 274.2999
24.338917 -31.460558 274.20401
30.794722 -59.67923 272.72028
30.814215 -60.036263 273.50583
30.81612 -60.464447 274.21918
30.824934 -60.265823 273.84262
30.832182 -59.672585 272.60651
30.868261 -59.915581 273.00293
30.882832 -59.974178 273.11456
30.90379 -59.258915 272.2413
30.904613 -60.455284 274.2019
30.906824 -59.538662 272.33606
30.907646 -59.490032 272.30136
30.932432 -60.357906 273.70898
30.947987 -60.106373 273.38809
30.952135 -60.609634 274.60941
30.963434 -60.630852 274.58276
31.096003 -60.826714 274.91876
31.019133 -59.023487 272.18558
31.648827 -54.768372 271.31995
42.605999 -47.219025 275.00168
42.835773 -46.671261 274.93808
42.863091 -46.612068 274.91049
42.991837 -46.359737 274.63937
43.037312 -46.241718 274.75418
43.143951 -45.967075 274.61011
43.184044 -45.857334 274.53784
43.301846 -45.494583 274.2865
43.516731 -44.935802 274.25061
43.610462 -44.659088 274.24237
43.752754 -44.350117 274.1843
43.833836 -44.084614 273.90988
43.89526 -43.927952 274.06195
43.926128 -43.807449 274.01364
44.034184 -43.536732 273.8555
44.050728 -43.481419 273.83038
44.099461 -43.231647 273.57773
44.134876 -43.092937 273.7182
44.168182 -42.955151 273.67065
44.284771 -42.666191 273.54123
44.447411 -42.152317 273.46722
44.470932 -42.053383 273.4585
44.570358 -41.61124 273.42926
44.587357 -41.544353 273.40326
44.632133 -41.276569 273.18488
44.728333 -40.958622 272.89279
44.835041 -40.433727 272.86096
44.842331 -40.381317 272.85901
44.868973 -40.121338 272.60083
44.98452 -39.873913 272.83527
45.032101 -39.552856 272.56583
45.083385 -39.067108 272.50412
45.112644 -38.926952 272.49146
45.162201 -38.714073 272.27451
45.21455 -38.527706 272.46176
45.232632 -38.439758 272.4335
45.274734 -38.152443 272.25626
45.367397 -37.626064 272.21747
45.376705 -37.557056 272.20728
45.410019 -37.174393 272.10666
45.46981 -36.755867 271.95441
45.500156 -36.459526 271.66562
45.592155 -35.957108 271.60724
45.603542 -35.835396 271.58841
45.61628 -35.499229 271.50888
45.675789 -35.05962 271.3699
45.699936 -34.482803 271.35452
45.764694 -34.03907 271.28491
45.769722 -33.827404 271.2536
45.74802 -33.572258 271.20889
-31.323082 -16.502253 275.8436
-31.302414 -15.906943 276.42996
-31.257544 -17.120216 275.33063
-31.254128 -16.820953 275.58936
-31.23708 -17.437939 275.08511
-31.205906 -16.254564 276.12976
-31.198792 -15.662985 276.6539
-31.197065 -15.789556 276.5256
-31.190926 -16.529716 275.84393
-31.188944 -15.949406 276.38007
-31.181372 -16.824354 275.57812
-31.1588 -16.242779 276.10892
-31.137533 -17.132772 275.31891
-31.030342 -17.436543 275.04248
-30.844355 -18.648239 275.08298
-31.429123 -13.530178 278.47229
-31.410248 -13.54373 278.18564
-31.396263 -14.061598 277.88809
-31.384386 -14.732736 277.43756
-31.371895 -14.361864 277.62482
-31.361275 -13.655178 278.03629
-31.30477 -13.806671 278.72284
-31.248396 -14.067006 277.86386
-31.195044 -15.597637 276.73444
-31.184717 -14.871074 277.53226
-31.173679 -15.424764 276.96765
-31.166668 -15.139296 277.23907
-27.22439 -6.1619639 278.72144
-26.359978 -34.733547 276.80356
-26.971895 -5.8409567 278.58008
-26.88702 -5.725265 278.50348
-26.767385 -5.571898 278.36017
-26.661325 -5.3854146 278.21423
-26.579556 -5.2808852 278.16302
-26.50107 -5.1397657 278.14191
-26.386044 -4.9885635 277.97189
-26.174654 -4.7614503 278.15463
-26.099567 -4.6740465 278.1593
-25.926235 -4.4660063 278.11801
-25.779051 -4.3899145 278.02203
-25.753244 -4.1369276 277.56775
-25.751965 -4.3112893 277.92508
-25.705751 -4.0734782 277.49655
-25.450323 -3.8089986 277.36087
-25.26812 -3.6271799 277.32925
-25.150537 -3.5530672 277.33142
-25.094194 -3.4667051 277.33481
-24.894451 -3.242533 277.37143
-24.793554 -3.5083947 276.73419
-24.734659 -3.0462997 277.40463
-24.654499 -2.9528079 277.2977
-24.631498 -2.95577 277.41406
-24.405291 -2.6535544 276.95688
-24.164616 -2.3923812 277.16779
-24.035107 -2.2601931 276.93686
-23.983221 -2.1449239 276.79135
-23.885672 -1.938012 276.55756
-23.760706 -1.8631656 276.45837
-23.68158 -1.8356047 276.44537
-23.410263 -1.5863458 276.22131
-23.313555 -1.4717449 276.14001
-23.14913 -1.280232 276.02612
-23.079035 -1.2274587 276.00937
-22.89044 -1.1381174 276.022
-22.76663 -1.0104015 275.95959
-22.674185 -0.9408167 275.9303
-22.373518 -0.68115091 275.72128
-22.03359 -0.51427549 275.50375
-22.010023 -0.34335569 275.63361
-21.897547 -0.30122721 275.65646
-21.65197 -0.084970303 275.5076
-21.57819 0.0091436999 275.45425
-21.327211 0.1697143 275.24799
-21.302696 0.2701405 275.36682
-21.132284 0.40475601 275.33176
-20.976248 0.38771939 275.08521
-20.963238 0.69318748 275.20117
-20.884766 -0.50627649 275.26257
-20.597948 0.7726512 275.06647
-20.570637 0.83687758 275.18887
-20.405901 1.0056493 275.11081
-20.256857 1.0932627 275.0365
-20.228704 1.1286967 275.00555
-20.145926 1.1577939 275.00497
-18.035944 -19.820852 277.52054
-17.888685 -13.959576 276.19403
-13.378825 -47.635044 277.62308
-11.509694 -23.080885 276.08606
-11.487809 -23.135937 276.13522
-11.463033 -23.354162 276.04758
-10.347748 -23.934643 276.35287
-10.293871 -23.854021 276.59537
-10.27373 -23.816168 276.67303
-10.176353 -23.590963 277.24484
-10.155055 -23.47455 277.41809
-10.052887 -23.294567 277.65454
-10.017769 -23.095621 277.82706
-9.9820671 -23.009649 277.91376
-11.690246 -21.965235 275.58743
-11.56406 -21.425196 276.13794
-11.563089 -20.872297 276.15045
-11.55435 -20.952959 276.22714
-11.55008 -21.307186 276.26242
-11.545523 -20.809881 276.21313
-11.527569 -20.595984 276.20581
-11.519598 -21.59594 276.29514
-11.509983 -21.77442 276.33075
-11.504375 -22.261055 276.38852
-11.498149 -22.011621 276.39273
-11.493947 -22.735802 276.29773
-11.49373 -22.216761 276.43359
-11.4875 -22.310574 276.43332
-11.486807 -20.386953 276.21362
-11.486781 -20.315434 276.14404
-11.483788 -22.530556 276.37714
-11.455268 -20.201336 276.25888
-11.414084 -19.988773 276.3623
-11.40019 -19.907108 276.41656
-11.367826 -19.682343 276.6055
-11.346368 -19.586355 276.69531
-11.318721 -19.407227 276.87857
-11.294627 -19.317287 276.97342
-9.9889545 -22.22781 278.80609
-9.9413061 -22.866644 278.0463
-9.9276915 -22.535334 278.35178
-9.9247179 -22.724319 278.17526
-9.9239702 -22.45059 278.45935
-12.277523 -17.707811 278.64294
-11.290112 -18.472614 277.27667
-11.280237 -18.970425 277.2627
-11.274041 -18.757486 277.33862
-11.265105 -19.134401 277.15298
-11.229816 -16.734764 278.20087
-7.8170991 -56.938438 278.55472
-5.6756487 -47.123898 276.28796
0.084656604 -46.539795 275.26062
-0.38799381 -12.936137 278.81552
-0.0040372 -12.875987 278.72687
0.3890644 -12.722286 278.74301
0.55603713 -12.673271 278.73376
0.76815242 -12.582211 278.67606
1.0780181 -12.433895 278.55576
1.1276484 -12.41606 278.53644
1.4962666 -12.340525 278.41422
1.87474 -12.312608 278.32129
1.9517388 -12.292431 278.30316
2.1145792 -12.23146 278.27179
2.2369149 -12.207203 278.1796
2.3417661 -12.167754 278.24088
2.642514 -12.101499 278.21118
2.8414834 -12.048361 278.18787
3.0291288 -12.016209 278.16275
4.1834288 -12.037602 277.93723
5.1594138 -12.142549 276.983
3.1691229 -11.998541 278.14139
3.4138536 -11.969516 278.09872
3.5246813 -11.966479 278.08154
3.7984276 -11.955152 278.02728
3.8980625 -11.94795 278.00079
4.4747458 -11.921983 277.88086
4.5610728 -11.913828 277.86111
4.6500311 -11.907961 277.82227
4.9158826 -11.889142 277.67313
5.0918951 -11.901044 277.59705
5.2822046 -11.897148 277.5242
5.5188332 -11.908907 277.43082
5.643836 -11.915181 277.35446
6.0782166 -12.011626 277.1001
6.3868318 -12.021518 277.07895
6.4381137 -12.014984 277.08618
8.0036516 -12.010929 277.09659
8.3620253 -12.149609 276.88855
8.7491808 -12.199739 276.81387
9.1522455 -12.272664 276.79788
5.841578 -11.968041 277.22757
5.9954944 -11.998842 277.1312
6.5179391 -11.99277 277.11664
6.8309994 -11.934672 277.26041
6.9965625 -11.930681 277.29767
7.2385559 -11.921137 277.28046
7.3599305 -11.929052 277.26758
7.6336713 -11.956821 277.24057
7.7686672 -11.977793 277.20953
9.5485888 -12.329772 276.75839
9.6062613 -12.337905 276.75754
9.9614143 -12.386724 276.78467
10.358959 -12.466614 276.74521
10.409473 -12.480026 276.74631
10.774714 -12.544043 276.77887
11.179571 -12.695825 276.75351
11.276808 -12.726642 276.74841
11.576151 -12.763383 276.71277
11.682317 -12.786881 276.71634
11.981101 -12.816451 276.70844
12.070763 -12.833953 276.70389
12.385471 -12.943422 276.68634
12.572255 -13.046986 276.6861
12.7996 -13.200133 276.6759
14.672215 -48.589691 277.97849
14.699857 -48.548916 277.96771
14.742756 -48.488144 277.9436
14.927932 -48.259079 277.87543
15.100358 -48.063946 277.82971
15.176761 -47.969151 277.80713
15.227845 -47.859493 277.78583
15.448689 -47.480312 277.76874
15.508267 -47.400097 277.7728
15.545469 -47.33699 277.76471
15.648762 -47.108704 277.52203
15.79977 -46.814617 277.20587
15.890407 -46.640522 277.36795
15.933687 -46.533176 277.2381
16.060759 -46.241009 276.94727
16.157879 -46.000301 276.80304
16.180023 -45.953426 276.78067
16.311157 -45.662579 276.53378
16.400572 -45.505924 276.60941
16.485859 -45.061646 275.36395
16.558201 -45.07729 275.91519
15.319544 -44.075626 277.39001
15.830003 -43.701485 277.64105
15.838431 -43.678993 277.57831
15.912523 -43.493572 277.24902
15.913684 -43.834633 278.06058
15.935591 -43.842556 278.13907
16.050722 -43.346432 276.88647
16.054749 -43.868958 278.40121
16.103325 -43.257652 275.79041
16.114378 -43.869473 278.50049
16.11714 -43.25407 275.88132
16.123844 -43.281879 276.64468
16.170073 -43.260624 276.26047
16.170425 -43.270634 276.43726
16.197533 -43.860386 278.62735
13.192579 -13.396418 276.59381
13.618796 -13.586222 276.64566
13.665994 -13.605318 276.64459
14.01853 -13.753333 276.59662
14.196858 -13.832241 276.57898
14.418087 -13.935109 276.54379
14.814606 -14.183003 276.465
15.043497 -14.358373 276.39011
15.20274 -14.475758 276.34332
15.445193 -14.661016 276.27881
15.593175 -14.778704 276.22873
15.984717 -15.172672 276.09943
16.541973 -15.506278 276.24341
16.61611 -15.547038 276.26379
16.720089 -44.496479 275.31796
20.282785 -19.469809 276.13724
16.860384 -15.633286 276.27878
16.987 -15.725222 276.29504
17.264078 -16.073124 276.18832
17.270672 -15.938575 276.27734
17.601376 -16.277082 276.3136
18.139481 -16.723608 276.32678
18.466484 -16.977251 276.27728
18.52533 -17.598089 275.76843
18.545109 -17.065044 276.25607
18.783094 -17.512417 276.18414
18.928831 -17.755987 276.12173
19.02652 -17.857393 276.07529
19.147083 -18.0562 276.0899
19.218664 -18.131886 276.09143
19.256659 -18.16951 276.10068
19.316334 -18.222416 276.12457
19.612396 -18.465948 276.25818
19.768072 -18.669987 276.35519
19.910694 -18.806923 276.38474
19.955807 -18.934156 276.23196
20.332554 -19.203157 276.41293
23.909204 -30.719463 278.09824
23.960606 -30.573315 278.24191
23.96455 -30.16637 278.09421
23.966095 -31.555466 278.34955
23.975765 -31.004778 278.35696
23.979362 -31.415024 278.49872
23.719481 -26.556568 277.38446
23.841524 -26.962059 277.4949
23.932987 -27.384338 277.5965
23.944979 -29.878584 277.8237
22.272202 -22.987877 276.40964
22.453318 -23.177124 276.55756
22.517279 -23.321556 276.56058
22.644999 -23.810244 276.57849
22.845387 -24.101366 276.78964
23.070698 -24.373825 277.01349
23.261238 -24.776224 277.1062
23.351578 -25.128315 277.17514
23.374311 -25.216244 277.18176
23.478937 -25.730221 277.1792
23.528126 -26.277817 277.15701
23.565643 -26.133097 277.30341
20.657888 -19.643393 276.40955
20.758636 -19.891472 276.45239
20.814098 -20.010492 276.45309
20.859467 -20.100077 276.45291
21.070433 -20.526323 276.45718
21.098066 -20.575499 276.45114
21.185232 -20.781527 276.41202
21.324699 -21.026741 276.34268
21.351316 -21.089233 276.33099
21.379805 -21.154083 276.32352
21.618465 -21.637791 276.31268
21.834171 -21.900766 276.41476
21.887705 -21.994349 276.43121
22.066866 -22.405201 276.43436
22.092407 -22.468117 276.44168
22.128363 -22.539955 276.45621
22.297213 -22.873396 276.52689
24.019352 -31.841482 278.6116
24.036121 -32.121284 278.80667
24.003967 -29.3253 277.81876
24.004902 -28.974255 278.03311
24.011261 -27.808647 277.69989
24.012423 -29.740509 277.95361
24.039642 -28.776737 278.08398
24.047726 -28.21851 277.83197
24.068981 -28.54059 278.06451
31.118483 -60.828308 275.14767
31.123159 -60.724476 275.01608
31.158268 -60.84716 275.40717
31.175474 -60.855427 275.45355
31.401392 -60.484898 276.37894
31.433825 -61.014832 275.79059
31.611986 -61.091106 276.2561
31.638391 -61.057293 276.39877
35.820423 -57.61615 278.76193
36.024483 -57.320953 278.79898
36.179535 -57.13842 278.68915
36.343925 -57.051338 278.6033
36.373413 -57.019569 278.57254
36.657444 -56.686852 278.24149
36.871563 -56.424519 277.9436
37.182285 -56.124607 278.14035
37.434246 -55.851612 278.09445
37.622734 -55.541271 278.03555
37.880959 -55.265736 277.71603
38.025265 -55.081692 277.87244
38.104012 -54.982727 277.81705
38.303162 -54.711258 277.60046
38.346169 -54.648746 277.57355
38.518257 -54.393223 277.29068
38.699097 -54.180172 277.46747
38.751724 -54.111095 277.43091
38.894451 -53.813377 277.20209
39.118519 -53.522659 276.8746
39.282784 -53.347256 277.01541
39.360241 -53.238091 276.9541
39.560986 -52.979412 276.74054
39.590446 -52.943237 276.71762
39.629093 -52.875126 276.69336
39.731155 -52.651443 276.45544
39.855721 -52.497272 276.5853
39.936317 -52.368317 276.52991
40.069603 -52.070972 276.37378
40.248047 -51.785267 276.06027
40.426895 -51.504425 276.30188
40.642735 -51.221794 276.27078
40.770897 -50.935314 276.23016
40.930813 -50.643661 275.91458
41.073574 -50.418568 276.11624
41.104771 -50.365772 276.10236
41.138081 -50.304867 276.09418
41.363026 -49.855591 276.05087
41.390976 -49.797115 276.02115
41.537815 -49.537849 275.75317
41.555794 -49.502888 275.71863
41.712383 -49.200939 275.4563
41.859417 -48.916832 275.15063
42.00832 -48.631409 275.39377
42.136501 -48.358894 275.37149
42.273193 -48.096817 275.32745
42.2953 -48.048332 275.31985
42.382233 -47.783642 275.04504
42.500881 -47.561008 275.25146
42.523613 -47.507481 275.24139
42.546844 -47.440441 275.22885
42.687199 -47.073269 275.13574
42.755634 -46.938416 275.07849
-32.341263 -16.479099 282.62228
-32.233429 -16.183586 282.32098
-32.091213 -15.927387 282.55676
-32.047184 -15.620944 282.28702
-31.957357 -15.392185 282.509
-31.929161 -15.298667 282.50049
-31.875975 -15.059091 282.25684
-31.75972 -14.766829 281.94937
-31.605751 -14.511101 282.18103
-31.491425 -14.202751 281.89172
-31.417061 -13.909812 281.5979
-31.380289 -13.56223 279.01288
-31.275637 -13.64045 281.8483
-31.191132 -13.345081 281.55402
-31.177938 -13.700573 279.44092
-31.15914 -13.353552 281.84317
-30.940887 -12.779073 281.50403
-30.843361 -12.487796 281.20123
-28.148413 -49.146214 282.526
-28.135408 -49.271999 282.30923
-28.092043 -49.319454 282.22287
-27.945444 -49.508041 281.95044
-27.682669 -49.673798 281.72067
-27.587208 -49.795795 281.61591
-27.553337 -50.0723 281.69299
-27.217964 -50.199429 281.45093
-27.821949 -25.10277 281.85858
-30.651062 -12.213649 281.44119
-30.552479 -11.919649 281.14105
-30.429443 -11.62703 280.83191
-30.295599 -11.353291 281.08942
-30.191023 -11.061644 280.78488
-30.015659 -10.788387 281.02905
-29.89752 -10.49336 280.72403
-29.719414 -10.197845 280.40106
-29.564966 -9.9256887 280.65048
-29.4592 -9.6313114 280.34857
-29.335358 -9.4820881 280.47327
-29.258078 -9.3477983 280.40659
-29.13006 -9.0796509 280.25861
-28.959793 -8.7266779 279.91949
-28.761946 -8.4786692 279.89832
-28.728996 -8.2774029 279.82935
-28.708607 -7.9357486 279.60535
-28.633312 -7.8517609 279.55383
-28.300446 -7.6062317 279.2486
-28.236822 -7.4670763 279.38086
-28.135595 -7.3250527 279.32828
-28.02957 -7.1091652 279.26154
-27.982285 -7.0366507 279.18158
-27.938425 -6.9937243 279.2149
-27.665819 -6.7416382 279.05164
-27.54085 -6.5879889 278.94461
-27.434278 -6.448153 278.85696
-26.831724 -50.311054 281.30444
-26.778654 -50.61533 281.45227
-26.610868 -50.063721 282.23718
-26.062052 -50.724369 281.07095
-25.747093 -50.930065 280.67569
-25.440853 -51.182564 280.52847
-25.369822 -51.253357 280.5043
-25.07015 -51.704086 280.29953
-25.008919 -51.754696 280.24673
-24.610336 -51.062012 281.69531
-24.536739 -51.840427 280.2131
-24.150799 -51.688385 280.45016
-13.677701 -35.084915 282.06577
-13.587449 -35.59853 281.15997
-13.47213 -35.18457 282.38068
-13.449975 -35.733849 281.07339
-13.446376 -35.268497 282.45648
-13.402016 -35.783035 281.06161
-13.363483 -35.824829 281.05783
-13.187101 -36.049866 281.05142
-12.84397 -36.344296 280.99573
-12.766896 -36.422455 280.9751
-12.726866 -36.476028 280.9599
-11.208666 -37.869938 280.50183
-11.013422 -38.431545 279.3577
-10.666834 -38.779343 279.03906
-10.140844 -38.941242 279.12885
-9.9901094 -37.721024 281.96011
-9.9519253 -37.732929 281.8793
-9.9128523 -37.760452 281.78815
-9.7812738 -37.861935 281.57785
-9.7527599 -37.930267 281.37088
-9.6314545 -38.172382 280.88953
-9.616189 -38.889668 279.38791
-9.6104202 -38.145657 281.0015
-9.5845928 -38.214325 280.51266
-9.472436 -38.075695 280.35547
-9.4694853 -38.277378 280.13443
-9.4663372 -38.280392 280.06427
-9.4518738 -38.276302 279.996
-12.370826 -36.852249 280.81189
-11.843437 -37.364052 280.68146
-10.691685 -37.424221 282.44077
-10.558125 -37.419029 282.3493
-11.671989 -19.434122 278.93478
-11.641446 -20.274441 279.18948
-11.631761 -19.961756 279.13748
-11.628089 -19.807104 279.1048
-11.593354 -20.617901 279.21936
-11.568293 -20.690817 279.2377
-11.510042 -21.151091 279.37347
-11.405499 -21.981434 279.61627
-11.305946 -21.1413 279.32126
-11.104484 -21.525726 279.30414
-11.068849 -21.661146 279.27148
-11.000314 -21.706142 279.28723
-10.795806 -21.93339 279.31082
-10.732227 -21.968403 279.28464
-10.684052 -21.954401 279.28281
-10.296339 -22.004923 279.21027
-9.3210001 -20.987751 282.4209
-9.0298576 -20.419592 282.36066
-8.9383163 -20.108246 282.59003
-12.17383 -18.542297 278.8815
-11.729074 -18.991842 278.84445
-11.704255 -18.919521 278.82797
-8.7342291 -19.851196 282.29929
-8.6440945 -19.659323 282.4809
-8.5823212 -19.572355 282.43079
-8.4655752 -19.316332 282.20963
-8.1986523 -18.981007 281.89648
-7.8291688 -18.486746 281.7276
-7.761013 -18.399723 281.67926
-7.4960246 -18.117126 281.46649
-7.2043471 -17.856277 281.15457
-7.0737023 -17.650074 281.27475
-6.9728236 -17.541788 281.21872
-6.8415833 -17.378637 281.09332
-6.5077262 -17.107809 280.83801
-6.1173453 -16.637787 280.85342
-5.898469 -16.390778 280.9082
-5.7137957 -16.235342 280.93192
-5.3679428 -15.790691 280.87073
-5.3182087 -15.74385 280.84552
-1.8552701 -48.568386 281.57251
-1.6441762 -48.605061 281.32776
-1.5777282 -48.616447 281.25815
-5.0234714 -15.595776 280.67722
-4.7004261 -15.362701 280.40625
-4.3624649 -15.138521 280.1459
-4.0007477 -14.859995 280.08572
-3.6939647 -14.640796 279.99423
-3.6382658 -14.602996 279.97705
-3.5651608 -14.55041 279.96524
-3.2601581 -14.321036 279.93597
-3.1182461 -14.230358 279.90405
-3.1157897 -14.618708 278.84103
-2.8996093 -14.113195 279.8093
-2.6092737 -13.939852 279.64548
-2.5562699 -13.911131 279.61276
-2.5073204 -13.887957 279.58084
-2.2226501 -13.76628 279.36548
-2.1400776 -13.738139 279.30621
-1.8896081 -13.629873 279.11411
-1.7840044 -13.586336 279.05502
-1.1710607 -68.747406 282.43497
-1.0469774 -68.696022 282.18289
-0.7963931 -68.656136 281.5824
-0.70092911 -68.785683 281.93597
-0.68150359 -68.585922 281.25592
-0.55335909 -68.557625 280.96411
-0.27899989 -68.556366 280.45035
-0.2051509 -68.678192 280.71933
-0.15352631 -68.506927 280.29971
0.0375016 -68.41893 280.13321
0.067393601 -68.504288 280.23453
0.26293999 -68.319397 279.98306
0.38394761 -68.284012 279.935
0.77402562 -68.097076 279.92169
1.1700439 -68.085846 279.89526
1.8340888 -67.7033 279.40741
-1.5364006 -48.626007 281.22394
-1.454576 -48.624683 281.18332
-1.1536649 -48.64222 281.13876
-0.84191108 -48.567947 281.13156
-0.75861228 -48.547653 281.12595
-0.69482827 -48.540009 281.0744
-0.52499139 -48.527699 280.88065
-0.4422529 -48.506958 280.78796
-0.2893745 -48.480968 280.64551
-0.1515096 -48.469147 280.3472
-0.1167492 -48.45277 280.48926
0.082355604 -48.469254 280.30063
0.1638445 -48.4888 280.22412
0.21175811 -48.484859 280.18448
0.47276211 -48.428528 280.04181
0.4882198 -48.480202 279.67981
0.56885147 -48.408192 280.01651
0.63908422 -48.388706 280.01254
0.80474198 -48.340408 280.03113
1.1052513 -48.410858 278.93875
0.53975952 -46.107285 282.31577
0.95498532 -48.307713 279.96936
0.97170532 -48.263474 280.04532
1.1251152 -46.259041 281.33304
1.1692117 -48.149929 280.04608
1.183242 -46.266453 281.30789
1.3359158 -46.434513 280.27325
1.3679262 -48.108444 280.04984
1.387596 -46.299366 281.23245
1.4802692 -48.076569 280.02655
1.5344328 -46.344246 281.08398
1.6461974 -46.419998 280.74768
1.7055126 -46.441086 280.5986
1.7376986 -48.02533 279.93378
1.7903664 -46.478649 280.46826
1.8997556 -46.509644 280.35492
1.9878238 -47.9856 279.8298
2.0441544 -46.536354 280.23099
-1.5322295 -13.49216 278.96005
-1.1285671 -13.335226 278.84747
-0.7747528 -13.087396 278.84952
-0.66269791 -13.023524 278.84152
2.6564009 -67.111221 279.18533
2.0986338 -47.944248 279.78207
2.1191096 -46.556599 280.15479
2.2392344 -46.808643 279.9064
5.9664006 -46.905766 282.55984
5.9835863 -46.861599 282.63763
6.2430344 -46.842407 282.63806
6.3717966 -46.779533 282.59491
6.5558567 -46.772049 282.61908
7.1767488 -46.76849 282.59113
7.2757163 -46.76548 282.57001
7.5624557 -46.754967 282.52405
7.6312814 -46.741596 282.52313
14.620517 -48.654907 279.23114
14.667292 -48.595352 279.2854
14.866274 -48.408657 279.49304
14.930357 -48.317604 279.59204
14.968136 -48.136791 279.75876
15.074253 -48.043095 279.84003
15.214961 -47.81802 279.94992
15.355211 -47.632809 279.99356
15.438086 -47.54641 279.99524
15.551222 -47.425152 279.97076
15.793611 -47.244766 279.89587
15.876269 -47.204437 279.85187
15.99569 -46.958054 279.94199
16.055714 -46.896297 279.92734
16.060204 -46.898155 279.98749
16.086779 -46.778568 279.86588
16.130875 -46.604393 279.69571
16.52294 -46.024975 279.31754
16.599453 -43.720516 278.99658
17.079235 -45.330074 279.32327
17.090515 -43.653984 282.62
17.42244 -43.385933 282.34918
17.785906 -43.143543 282.24139
18.270508 -42.718502 282.08673
18.553606 -42.469898 281.978
18.816881 -42.254978 281.84305
19.245081 -41.83548 281.57834
19.520548 -41.542095 281.52423
19.789396 -41.274864 281.43185
20.005196 -40.957626 281.12097
20.192209 -40.65786 280.7999
20.418892 -40.469173 280.93597
20.501146 -40.371376 280.91
20.583166 -40.264297 280.88956
20.717567 -40.083519 280.8606
20.873922 -39.899258 280.82715
20.959332 -39.794445 280.80829
21.034674 -39.686199 280.78763
21.104589 -39.504181 280.59665
21.22753 -39.358978 280.71722
21.309689 -39.221275 280.6777
21.45973 -39.017128 280.60251
21.509495 -38.930038 280.50787
21.586748 -38.867054 280.5528
21.759804 -38.641781 280.49042
21.923655 -38.358669 280.41321
22.198135 -37.839504 280.30463
22.230196 -37.78434 280.29129
22.255445 -37.722099 280.28506
22.470732 -37.302402 280.21622
22.517933 -37.214462 280.17627
22.601885 -36.930561 279.991
22.837786 -36.444759 279.85791
22.869493 -36.356831 279.81839
22.90826 -36.076504 279.64746
23.132689 -35.531025 279.58304
23.277912 -35.224209 279.58206
23.381668 -34.944859 279.55542
23.486101 -34.490738 279.42825
23.5166 -34.376949 279.38214
23.590359 -34.095871 279.23645
23.714174 -33.611176 279.13669
23.726629 -33.528324 279.1055
23.752594 -33.247498 278.93115
23.901642 -32.716579 278.87402
23.920916 -32.643528 278.86636
23.970528 -32.402416 278.85367
25.844423 -65.248383 282.60352
25.890425 -65.221924 282.59378
25.951067 -65.170525 282.57455
26.26535 -64.899666 282.48175
26.474415 -64.79274 282.43466
26.624533 -64.741913 282.40582
26.991749 -64.583145 282.29544
27.280266 -64.432144 282.0722
27.323038 -64.41037 282.04471
24.033092 -32.181488 278.8269
27.68457 -64.2192 281.85376
28.045538 -64.002403 281.79532
28.30283 -63.80851 281.72137
28.404449 -63.738972 281.67377
28.692625 -63.600735 281.51031
28.74906 -63.571587 281.47504
28.799303 -63.54229 281.44107
29.086645 -63.380486 281.25327
29.429636 -63.151657 281.01764
29.835855 -62.948509 280.94775
29.932127 -62.703125 280.9245
29.989679 -62.656292 280.89963
30.14731 -62.526344 280.81668
30.499464 -62.431431 280.65408
30.552557 -62.358135 280.8812
30.622234 -62.306751 280.86713
30.920839 -62.074581 280.69818
30.977083 -62.02607 280.65836
31.235147 -61.827747 280.47058
31.626635 -61.527306 280.3577
31.768173 -61.414619 280.31888
31.954151 -61.248268 280.271
32.01004 -61.201416 280.2572
32.180412 -61.118717 279.59229
32.309155 -60.913502 280.14883
32.642509 -60.67313 280.01398
32.744396 -60.588406 279.95239
32.803703 -60.537136 279.90982
32.990818 -60.360939 279.76691
33.315742 -60.095699 279.47162
33.772129 -59.63773 279.48557
34.073273 -59.408676 279.44086
34.433029 -59.058556 279.34082
34.795315 -58.740608 279.26239
35.036762 -58.453827 279.18262
35.584404 -57.901726 279.03653
35.636723 -57.837551 279.01395
35.895287 -57.481979 278.87445
-34.125393 -31.059988 286.15845
-34.1199 -30.506851 286.16983
-34.07056 -30.740984 286.3877
-34.065262 -30.810602 286.41208
-34.064991 -30.389349 286.28113
-34.059895 -30.858788 286.43149
-34.05732 -31.342554 286.41971
-34.18998 -29.135109 285.91666
-34.182617 -29.236561 285.92999
-34.178318 -28.628622 285.87521
-34.174282 -28.076059 285.88641
-34.173286 -27.941357 285.88705
-34.171844 -28.562475 285.87225
-34.164215 -27.17264 285.68805
-34.155857 -28.496117 285.87271
-34.153011 -29.571348 286.01978
-34.132977 -27.070147 285.79028
-34.119492 -27.347136 285.84885
-34.108162 -27.53261 285.86853
-34.079941 -29.910009 286.13181
-34.071598 -29.96698 286.15353
-34.064987 -26.698818 285.67398
-34.056194 -26.64275 285.64246
-34.11171 -25.487425 285.01306
-34.108131 -25.582443 285.04382
-34.093456 -25.209204 284.85602
-34.092098 -24.918558 284.58221
-34.073311 -26.338352 285.38934
-34.072712 -26.046429 285.11713
-34.038719 -24.092083 284.75208
-34.032581 -24.179457 284.77988
-34.029087 -24.672171 284.8317
-34.021965 -24.622002 284.83023
-33.856941 -23.804232 284.54465
-33.82056 -23.284641 284.50989
-33.802666 -23.200853 284.50516
-33.741272 -22.116415 283.98862
-33.722286 -22.720015 284.50522
-33.722202 -22.40156 284.26215
-33.714081 -22.655237 284.50726
-33.642944 -21.844543 284.255
-33.632378 -21.55784 283.97406
-33.577766 -21.369293 284.16299
-33.484447 -21.121721 283.94684
-33.476784 -21.053394 283.88605
-33.4669 -20.992546 283.83572
-33.435497 -20.716095 283.65082
-33.352955 -20.192154 283.6066
-33.340782 -19.864511 283.36981
-33.337391 -20.108316 283.60626
-33.274815 -19.610191 283.62704
-33.194881 -19.303989 283.34598
-33.115192 -19.013651 283.04767
-33.01857 -18.751995 283.30347
-32.987007 -18.456942 283.02515
-32.841042 -17.943579 282.94983
-32.805023 -17.832762 282.93814
-32.739357 -17.602039 282.70062
-32.593964 -17.389769 282.88751
-32.563747 -17.323801 282.88028
-32.546051 -17.246256 282.86649
-32.536045 -17.038498 282.66241
-32.46936 -16.918867 282.77243
-29.071262 -48.414364 284.16327
-28.781532 -48.460426 283.93988
-28.744518 -48.507236 283.87613
-28.70686 -48.547596 283.81348
-28.580355 -48.722408 283.51489
-28.555435 -48.749039 283.44592
-28.523579 -48.850525 283.19717
-28.438564 -48.871918 283.08154
-28.414337 -48.588882 285.0033
-28.346996 -48.959778 282.86523
-28.216173 -49.062382 282.67194
-29.757408 -47.410339 286.3269
-29.749048 -47.536591 285.89758
-29.695589 -47.586426 285.80093
-29.672928 -47.371449 286.27222
-29.668795 -47.761215 285.54956
-29.606749 -47.513336 286.10422
-29.58423 -47.88237 285.3295
-29.528961 -47.899845 285.26328
-29.394718 -47.933075 285.11154
-29.320377 -48.104706 284.83969
-29.26931 -48.105072 284.78311
-29.26013 -48.21196 284.33459
-29.211895 -48.278343 284.30994
-28.906656 -48.047115 286.15112
-28.724674 -48.025169 284.51694
-28.642984 -48.067421 284.2168
-30.093943 -25.680561 283.10928
-22.454512 -39.075298 285.03638
-14.173273 -36.170738 283.29227
-13.51286 -35.260902 282.90051
-13.40908 -36.094963 283.1395
-13.180365 -35.382442 282.66544
-13.072978 -35.611317 282.97318
-12.822059 -35.690529 282.80939
-12.779209 -35.78112 282.81131
-12.679449 -35.882504 282.87753
-12.644337 -36.016506 282.98947
-12.588497 -35.958733 282.92566
-12.539543 -36.845631 283.23355
-12.521404 -36.017376 282.95065
-12.384449 -36.15881 282.96664
-12.237403 -36.356937 282.9328
-12.179449 -36.433319 282.93845
-12.154624 -36.496155 282.90573
-11.977172 -36.68634 282.89658
-11.800262 -36.755642 282.94357
-11.776477 -36.821175 282.93124
-11.718407 -36.868988 282.91656
-11.59304 -37.109821 282.8056
-11.426739 -37.117477 282.78998
-11.174865 -37.238792 282.71399
-10.244452 -34.063797 285.96539
-10.207534 -34.225708 285.9649
-10.08863 -34.666687 285.97021
-10.067747 -34.716263 285.97705
-9.8833227 -35.103424 286.08832
-9.7884865 -35.245026 286.16678
-9.7017927 -35.455795 286.2384
-9.6837339 -35.517033 286.16602
-9.6456738 -35.617584 286.25623
-9.6101017 -35.760414 285.28711
-9.5103846 -35.933056 286.24918
-9.4486856 -36.057518 286.09433
-9.3997831 -36.202251 286.22534
-9.3484039 -36.332771 286.18289
-9.1993647 -36.592258 286.01422
-8.9867258 -36.996342 286.10861
-8.9008522 -37.152309 286.2825
-11.066137 -30.357473 285.43814
-11.013891 -30.569115 285.47226
-10.980868 -31.079609 285.41174
-10.966399 -31.163231 285.40674
-10.864839 -31.665285 285.40775
-10.779498 -32.107067 285.50031
-10.750598 -32.217148 285.37125
-10.701234 -32.388252 285.5278
-10.650376 -32.578457 285.53665
-10.558507 -33.026386 285.56952
-10.492765 -33.325565 285.75766
-10.478224 -33.378975 285.79117
