121.417 62.9225 29.7325
-82.3523 48.2924 9.96386
118.274 59.0243 27.0809
-66.3068 55.0575 5.97094
121.743 62.7983 27.6261
-58.6453 58.9219 9.28274
123.107 65.0907 27.6218
-49.4559 62.9923 6.07044
123.499 68.8005 27.5268
-43.3786 65.9292 4.26791
126.339 70.0705 22.354
-48.5746 63.3804 5.41086
-32.672 71.7155 6.93062
-51.9796 61.7571 5.8477
-63.3881 56.2641 4.04973
-67.5049 54.5087 5.79607
-80.8995 48.7936 8.39741
115.522 55.746 25.6523
34.5451 -5.66218 23.616
72.0493 10.9413 22.4853
70.8698 9.83251 20.435
-520.611 -100.695 10.9035
-12.9174 0.608324 21.5908
74.4614 13.3953 21.1834
-296.724 -27.6389 20.2175
74.8966 13.7934 23.4499
-553.348 -108.461 120.304
75.8778 14.5008 28.2169
-631.954 -134.244 93.735
74.6231 13.489 26.5997
73.0198 11.8075 27.9752
71.1327 10.4187 26.3741
71.1844 9.71146 29.2728
21.4164 -29.0044 26.4357
71.6375 10.7489 25.0199
41.964 -64.8544 25.8938
72.8471 11.0019 29.2443
50.9251 -75.0373 25.1978
71.8936 9.69784 31.1211
50.3324 -41.0774 25.4551
72.22 11.2568 25.3265
69.3215 7.47895 29.6209
42.3816 -13.0733 26.8384
71.534 10.4686 26.793
71.0166 9.0523 30.3052
52.1794 -24.4386 24.7154
70.8848 10.1051 23.7206
-293.252 -662.391 9.26835
70.9385 9.764 20.8011
55.4376 -54.5805 25.2963
72.8403 11.7206 24.8784
73.7124 12.304 20.3032
95.2644 34.6617 31.4098
94.7439 33.8161 22.6504
97.2662 36.8825 31.2893
99.0704 38.5848 32.0664
104.393 43.5549 33.1176
99.6607 38.8499 32.7291
95.2858 34.6624 31.5026
88.4761 27.6078 30.3697
91.7298 30.7198 32.1353
85.5761 24.6639 29.1883
90.8498 30.1953 29.9442
88.9665 28.2279 24.8911
59.6899 -289.965 18.4617
79.1319 18.0489 27.0682
89.0527 27.3866 20.9161
81.8718 21.0172 25.2692
82.542 21.5656 27.1162
83.9983 22.6513 30.7573
80.3936 18.9557 29.8064
58.6177 -86.0194 24.9332
75.2352 13.8843 27.1168
61.0426 -95.6883 24.7095
75.3828 12.936 32.3095
60.8893 -127.806 23.9307
77.0155 15.8337 25.0586
55.4355 -149.075 22.3846
74.6806 13.5088 23.2506
80.0144 18.4861 19.7086
76.7063 15.4939 20.9066
-205.717 2.24234 7.17284
-189.892 7.66385 5.54016
-238.848 -8.82939 12.2634
81.6123 20.6591 21.9772
-243.649 -10.2229 17.1128
82.4852 21.735 25.0351
-274.471 -19.9305 26.499
80.4568 19.5929 25.7234
-311.175 -29.2572 71.5141
82.057 21.0054 28.8896
-396.249 -57.1552 82.1224
76.4342 15.2255 27.8461
-395.415 -56.6564 101.552
78.649 17.4005 28.7283
-286.568 -23.7772 28.9197
79.6857 18.7437 27.3457
-295.04 -26.5967 28.5277
76.7413 15.6761 24.4861
-268.522 -18.5374 16.1991
-236.261 -8.01162 10.445
-210.311 1.12711 16.5085
87.7574 27.2946 27.0891
-185.792 9.09814 5.71812
89.2261 28.3636 23.4722
-208.661 1.29174 8.63846
85.5357 24.841 24.6063
-240.99 -8.88132 23.7476
84.4073 23.6888 27.079
-228.707 -2.01823 56.3035
85.3293 24.63 28.2401
-286.245 -21.7169 54.9646
82.672 21.7495 28.6867
-195.255 8.2442 37.691
91.0118 30.7302 27.9549
-203.666 6.72349 55.6482
92.8892 32.6454 28.5509
-216.282 2.13412 53.1362
89.7219 29.2937 28.6288
-189.762 8.37198 17.0219
91.3688 31.1428 27.0724
-174.701 12.9177 3.05058
89.6119 28.8258 23.443
-157.957 18.8099 3.49776
-110.631 36.6905 8.25975
107.118 46.5565 23.6466
-113.246 35.5688 6.59883
105.338 44.4669 22.5739
-131.087 28.6935 5.79798
102.143 42.0452 25.7649
-103.347 39.4089 5.63809
-102.435 40.1172 10.6972
111.804 52.2745 27.0015
-95.9132 42.5133 7.56783
111.474 51.756 26.2348
-127.324 30.0721 4.40947
-113.246 35.5688 6.59883
-128.936 29.4904 5.35776
101.853 41.5998 25.0598
-131.321 28.6044 5.7412
-145.709 23.2052 2.67346
-152.13 20.9246 4.07159
95.9659 35.6146 24.6121
-147.934 22.5203 5.42524
95.9679 35.9189 26.7969
-178.891 12.7954 23.9472
93.03 32.8452 27.7854
-176.455 15.405 42.8287
94.9067 34.8484 28.4293
-156.064 20.8176 20.6584
97.1788 37.2497 27.9357
-157.637 22.1942 41.6171
98.2347 38.3482 28.5683
-153.251 23.9545 42.8934
100.095 40.2929 29.2679
-120.408 35.8634 35.5899
106.698 47.2804 29.6255
-104.742 40.8603 25.6558
104.552 47.2797 29.5851
-119.856 35.0475 27.1424
105.348 45.7978 28.8885
-119.782 33.3658 11.1792
105.016 45.4198 28.5071
-134.998 30.0701 34.4599
102.351 42.6201 29.6511
-136.863 28.6619 28.2171
100.255 40.4629 29.1886
-155.093 24.9696 62.3097
104.75 45.1904 30.3338
-175.324 16.6475 52.0497
97.3296 37.3388 29.5216
-177.282 17.4754 75.6647
99.5092 39.4613 30.9279
-139.781 29.5772 47.8108
104.605 45.0428 30.225
-134.806 32.8501 61.5479
107.137 47.7337 30.3512
-118.115 38.2188 47.8
109.506 50.2705 30.5437
-158.541 20.6744 74.9404
101.554 41.5551 31.3482
-150.862 26.2847 67.7219
105.082 45.4763 30.7593
-196.09 10.9116 81.8202
96.0961 35.6079 31.575
-217.487 3.11645 80.9958
93.0642 32.2508 32.0859
-242.376 -4.78683 96.6168
91.5387 30.4114 33.073
-241.229 -5.13119 84.1899
90.0052 29.1834 31.1403
-79.0636 12.6214 101.331
95.2937 34.3918 33.0184
-135.342 8.33328 98.6816
91.1422 29.8927 33.3692
-248.019 -9.22921 102.198
91.2184 30.0072 33.2749
-144.888 9.92118 94.59
94.5901 33.7589 32.7184
-77.5425 26.4598 84.0077
95.1884 40.4611 33.4533
-71.5142 30.7149 79.3831
94.9677 45.0611 33.842
-70.5877 33.1786 75.9969
100.515 46.7105 32.5863
-94.2088 34.7383 68.5437
105.583 49.6144 31.4342
-112.195 29.2066 72.6738
99.8397 45.258 32.3102
-120.429 23.1931 79.9446
95.723 41.3751 33.1745
-118.543 22.1498 81.994
93.9091 37.8756 33.0597
-204.407 3.51959 91.9123
94.6892 33.833 32.5625
-267.279 -13.8642 91.1763
88.4256 27.051 32.9146
-309.808 -27.5647 107.798
85.5231 23.8097 33.501
-268.335 -16.6238 109.236
87.8202 26.2618 33.5954
-273.365 -15.9921 90.8274
87.0109 26.0589 30.718
-269.6 -15.2873 74.7499
85.4646 24.4565 29.9587
-239.589 -5.51393 61.0352
88.1352 27.4997 29.286
-591.001 -120.333 152.472
76.9845 15.083 31.0439
-399.023 -57.8358 102.908
79.6318 18.244 29.5683
-303.948 -26.65 83.9048
83.8748 22.5125 31.0164
-356.761 -43.6291 105.761
81.4582 19.8643 31.5198
-432.392 -68.3971 125.025
79.6757 17.7562 32.3435
-369.835 -46.9476 134.07
83.7485 21.6636 34.1137
-770.399 -177.171 226.034
77.736 14.4688 36.2459
-433.83 -75.0948 162.799
80.3789 17.2596 36.8584
75.5497 12.7224 34.4606
-569.936 -113.4 150.392
77.6692 15.3377 33.7457
71.8004 9.29555 31.8876
73.7995 12.1906 29.8015
-187.816 -4.97242 107.986
88.9367 27.3348 33.9458
-357.451 -50.9023 142.214
82.3279 19.8505 35.2903
-460.317 -76.3597 159.736
80.6663 18.2665 34.4685
-224.843 -26.816 131.232
83.97 21.3959 35.5755
-156.512 -13.0427 123.076
85.6704 23.3888 34.9969
-124.468 0.815918 109.878
90.6228 29.0123 34.1671
60.3614 -400.44 29.9886
80.3565 15.9779 39.0417
76.7958 11.2619 41.8226
77.8991 14.2106 37.4161
82.3094 18.8989 37.172
66.1998 -114.65 26.7616
75.5388 12.7022 34.4768
43.6272 -534.438 17.5004
79.6304 17.1264 33.8776
84.6597 22.1475 35.3122
86.9129 25.2803 32.9281
88.1794 24.5418 37.6692
85.3114 20.3322 40.4476
89.7832 23.0484 42.858
84.4587 18.5183 41.8064
91.0411 25.9095 40.3674
101.213 35.7572 40.5801
95.9018 29.8662 41.5426
92.3776 29.5501 36.32
96.1837 33.5619 35.989
90.0707 28.5295 33.7384
94.423 33.4695 32.714
122.724 -782.046 17.4432
104.393 43.5549 33.1176
99.6607 38.8499 32.7291
103.29 41.0224 35.6326
98.1685 35.4406 36.1892
106.063 42.1491 38.4208
74.8228 9.79928 39.771
76.2156 9.48726 43.494
73.7796 9.83113 36.6696
74.11 8.10551 42.003
73.1634 8.19813 39.0511
73.7609 7.63186 42.5899
71.4821 8.38555 33.7752
69.8305 7.43371 31.6579
71.835 7.42929 37.0955
72.068 8.91532 33.63
72.699 8.73718 36.2714
72.3978 9.28931 33.7197
71.9781 8.84296 33.8058
73.8717 9.13961 38.9733
73.1477 9.27442 36.745
75.2354 11.2943 38.0274
77.5639 14.153 36.5903
74.4644 11.2643 35.638
-325.293 -59.9148 160.288
80.0244 16.642 37.4118
-115.379 1.24471 110.544
88.3986 26.0168 35.8538
-183.171 -20.1114 128.556
82.5615 19.4297 36.7688
77.1959 13.3652 38.133
-434.529 -109.858 211.572
76.9225 12.5184 39.5047
73.9917 8.45583 41.4759
75.7212 10.889 40.0562
-76.9589 -58.0586 185.575
82.5807 10.0023 53.1629
80.4009 8.00578 53.5432
-12.0546 -2.89882 129.037
87.9794 15.7286 51.5904
-28.0412 -14.021 140.817
84.6293 13.0645 51.4039
-6.56282 0.0775264 126.092
89.795 18.882 49.3611
-39.6452 -18.6184 145.129
84.0292 13.076 50.6818
5.62751 1.3878 125.628
91.8767 19.7557 50.4445
10.1612 11.7119 114.146
98.2108 29.9058 44.729
11.8815 16.5021 108.874
105.725 40.2582 40.8677
-3.2565 -5.05214 132.406
88.2942 15.993 51.6727
-72.7396 -78.3229 205.503
84.3264 9.20432 56.1256
-5.08183 -15.5722 144.169
87.0876 12.5709 54.792
85.4597 8.16456 58.7699
86.5375 9.16868 58.241
85.3755 7.31716 59.969
83.7231 6.94718 58.8413
82.6184 7.2206 57.0183
81.9152 7.89657 55.6723
77.5868 8.07492 49.4553
78.5475 7.3713 52.2454
80.3903 8.54973 52.4309
82.3725 7.56701 56.6071
81.9475 8.43443 54.476
105.67 27.0844 54.816
96.2558 17.829 56.6629
98.906 22.067 54.3726
102.24 26.9054 52.1418
101.334 20.8361 57.4735
94.2719 13.5176 59.9316
92.2263 11.5561 60.3396
95.4876 20.4438 53.0698
93.3092 14.2498 58.1097
98.2043 25.0401 50.3574
91.722 19.503 50.5543
103.011 30.5758 48.8415
97.8195 28.5238 45.8137
89.7317 21.4232 45.2562
88.2183 19.8382 45.7222
84.1437 14.2218 48.7025
86.5034 16.4553 48.6843
87.2766 14.8696 51.6624
87.4375 13.1571 54.1072
86.2662 9.72296 57.4956
89.8573 12.0818 57.738
84.5523 10.1531 55.0615
83.0417 10.9588 51.8464
80.2257 10.8031 48.225
80.5756 10.5458 49.6551
-167.119 -73.1265 197.141
80.6451 10.7196 49.5539
-84.3218 -24.4329 147.625
82.1291 13.6046 47.0937
-48.9667 -4.76567 127.028
85.2008 17.3567 45.4501
-76.231 -30.763 156.115
81.9447 11.9193 49.906
-265.675 -170.563 293.416
80.8645 8.98749 52.7277
-38.7848 -7.90405 132.036
86.3621 16.8092 48.1848
77.624 8.40667 48.998
79.217 8.45646 51.1795
78.1198 7.14371 51.2021
77.0388 8.03811 47.8914
76.8795 8.82114 46.7313
75.4748 8.42675 44.6752
-356.638 -120.86 236.193
78.0377 11.4572 43.6793
-176.237 -37.3711 152.167
79.284 14.2275 41.1024
76.0155 10.3539 42.3304
76.5901 8.49691 46.9091
-145.657 -37.0552 156.065
79.3412 12.7185 43.6911
-523.716 -252.272 369.535
78.8887 10.9644 46.5484
-84.8098 -18.435 139.975
82.51 15.2248 44.7331
-57.9689 -2.7487 123.099
86.3177 20.0204 43.0713
-88.0894 -10.4814 128.998
82.5328 15.7387 44.0293
-111.647 -17.2367 134.62
81.9985 16.5961 41.8121
-132.633 -14.5323 128.033
82.3136 18.5264 38.3814
-199.892 -32.8837 142.957
79.6693 15.4448 39.0492
-130.55 -8.62756 120.927
85.2177 22.318 36.6712
-93.9101 -7.32712 123.951
85.5108 20.8588 39.999
-80.6568 0.968372 115.065
89.2967 26.7818 36.1758
-61.5894 9.6782 106.577
95.2713 34.3215 33.118
-37.1228 18.5717 99.0516
100.481 39.2334 33.7922
-47.6979 17.9644 98.4436
99.9772 39.5788 32.0745
-48.4828 5.25007 113.89
91.6394 27.5199 38.9719
-49.6835 10.8908 106.582
95.2632 33.0227 35.4632
-27.9244 14.5772 105.039
99.2458 36.7345 36.1022
-61.1703 3.09026 114.904
89.8262 27.1255 36.4297
-41.5143 5.14733 115.115
90.6825 24.782 41.8448
-70.4179 -2.47236 120.787
86.6587 21.2437 41.3411
-4.01193 10.616 113.616
96.256 29.8927 42.1593
-13.0241 2.92106 121.7
92.0006 23.6063 45.436
-21.1326 5.27862 117.869
89.3496 21.3045 45.0636
2.85432 13.0805 111.636
99.8012 33.6282 41.9357
-1.77888 16.3613 107.036
102.243 37.7982 39.328
4.67748 16.5295 107.796
103.75 39.1165 39.7364
-14.4839 14.7025 107.006
98.5138 34.3744 38.7737
-20.7618 16.3997 103.902
100.216 36.9499 37.5143
-5.33471 16.8971 105.72
102.254 38.2258 38.7299
-25.4793 10.7983 110.159
94.0718 28.7196 40.8204
-13.4631 8.02959 115.536
92.9852 26.478 42.8088
-29.729 -1.43483 125.143
86.598 19.4523 44.4774
17.5695 10.8337 115.962
100.871 33.1134 43.9046
19.9382 7.43332 119.976
98.4395 28.8708 46.2752
21.5614 12.2301 114.913
103.881 35.9997 43.8881
12.0304 15.8549 109.7
103.086 36.776 42.0109
25.7473 16.5582 110.856
107.169 41.0266 41.796
28.8318 19.0896 108.711
110.542 44.7251 41.4602
27.002 11.8823 115.861
104.915 36.4137 44.5906
32.8518 11.2561 117.173
105.622 37.051 44.6478
35.0369 9.56206 119.333
103.09 32.8872 46.6187
24.2841 8.76646 118.967
100.167 30.5277 46.4249
34.1145 6.88152 122.03
101.831 29.2482 49.2988
29.7224 6.31683 122.128
100.14 29.2552 47.7307
46.5588 3.41402 127.226
103.696 26.7723 53.6309
44.8785 2.50064 128.036
101.632 26.1594 52.5192
44.008 6.31795 123.763
104.621 30.9978 50.1026
51.3199 6.88127 124.128
107.947 34.2532 49.7554
52.9214 12.8397 118.339
111.15 40.6303 46.2906
44.7446 8.62343 121.434
108.339 36.845 47.4985
40.4182 12.4938 116.929
109.032 40.1125 44.8021
50.1085 15.2506 115.576
112.196 43.9944 43.9847
35.6378 14.4821 114.284
109.878 43.0964 42.5099
39.9722 11.4862 117.861
108.931 39.3773 45.4075
38.1171 7.01262 122.378
104.743 32.8247 48.4313
38.3726 3.27086 126.413
101.647 26.7487 51.9067
28.2827 0.671896 128.273
95.7279 22.2642 51.4124
31.3748 -1.13724 130.666
95.7434 19.5882 54.4815
34.1772 3.61833 125.603
98.4252 24.6082 51.225
22.1054 0.515556 127.989
93.4901 19.9735 52.0051
19.3807 5.20173 122.441
96.1391 24.506 49.2259
14.131 -1.85186 130.009
92.0633 19.5714 50.9848
15.0549 -6.93966 135.878
90.4844 15.5507 54.2547
-160.411 -224.528 338.023
85.4388 8.725 58.2985
-73.495 -129.172 252.02
87.3161 8.59125 60.0083
5.22438 -17.1379 146.447
89.0652 12.1438 57.2221
18.4717 -17.5494 147.784
89.8117 11.8076 58.0981
24.4064 -6.02073 135.5
92.1625 16.1163 55.3291
88.2943 7.00313 63.0462
1.2468 -65.0903 193.392
90.9024 9.84005 61.5918
-20.4805 -80.9142 207.933
88.9938 8.82691 60.7369
88.8872 7.82587 62.1746
88.9313 8.94208 60.4458
86.5591 6.82435 61.7162
29.7665 -5.01399 134.8
94.7916 16.6852 56.8232
28.4129 -14.3943 145.034
93.0788 13.4096 59.0427
30.0361 -20.2535 151.303
94.0908 13.3264 60.0414
37.3003 -7.22506 137.922
95.5264 17.436 56.6467
38.5112 -0.00454795 130.037
98.6052 21.818 54.4324
43.9502 -0.769559 131.416
100.781 22.5281 55.5259
97.1621 9.50453 65.8217
23.8622 -109.734 232.183
99.1714 11.0366 65.8374
30.6684 -66.06 193.917
95.3555 11.2877 63.0602
30.6572 -38.3802 169.002
95.3707 12.0332 62.3515
94.8632 8.5967 65.3191
91.5974 8.24128 63.7926
95.6218 12.7125 61.5838
89.7822 9.2748 61.282
93.1285 10.4094 62.281
95.833 11.3479 63.1394
93.5092 8.66169 64.2223
96.3916 9.67387 65.3215
105.102 13.7952 66.305
99.2731 10.2427 66.5922
103.863 12.8497 66.1453
103.837 14.8133 64.7198
99.5666 13.1138 63.7752
97.9934 16.0755 59.7139
58.1907 -54.6165 184.399
102.408 14.0912 64.9136
102.191 10.2305 68.0202
104.507 10.5559 68.6034
30.0142 -306.179 400.055
106.893 11.7088 68.6317
56.4194 -66.7524 194.893
105.09 15.1596 65.415
67.6916 -73.2432 201.192
105.32 14.7853 65.8156
70.4289 -25.0663 158.537
107.152 21.6041 61.0389
73.5737 -34.7791 167.542
108.836 20.8273 62.708
81.2632 -51.2277 182.599
109.128 18.6122 64.3136
66.5804 -31.1087 163.786
103.395 17.6895 62.2264
61.9142 -16.433 149.653
106.714 21.0187 61.2998
57.946 -27.5369 159.95
102.618 16.5522 62.9043
42.8756 -3.16367 133.955
99.4027 18.8704 58.222
42.008 -14.6295 146.124
96.0651 15.6593 59.1275
49.573 -5.90885 137.536
102.15 22.3352 56.8847
43.1342 -20.9148 152.662
97.9231 14.9551 61.3149
51.989 -11.801 144.028
102.171 18.9863 60.2705
52.4781 -18.2664 150.609
103.044 18.5411 61.2355
58.8268 2.60617 129.806
108.552 30.3698 54.1021
58.3576 -5.86051 138.548
105.628 23.7107 58.1531
54.5217 -0.353493 132.287
105.793 27.0675 54.9593
55.1577 4.42392 127.352
108.679 32.3141 52.2498
54.6839 9.10821 122.379
111.094 37.901 49.0043
50.3828 0.939468 130.299
105.166 28.3042 53.4033
64.839 16.5248 116.554
114.193 44.4431 45.1747
60.0673 15.953 116.366
113.299 42.9831 45.8334
61.0488 9.14764 123.381
111.519 37.5804 49.6756
61.762 4.83295 128.007
110.076 32.1754 53.4531
60.4156 -3.29047 136.175
108.321 27.8267 56.3372
60.7562 -10.8314 143.865
107.362 24.0341 59.0418
116.153 50.2471 41.3269
66.3822 23.1056 110.551
115.328 48.4339 42.2249
62.1472 24.0004 109.009
116.095 50.7732 40.8066
58.2605 22.0928 110.161
118.815 56.1715 37.9263
66.8677 29.153 104.914
118.919 57.564 36.7342
65.3144 29.9849 103.908
118.77 59.5473 37.1772
67.9883 36.4672 98.5784
118.851 58.9984 36.9416
62.1361 35.1713 98.7433
118.105 61.5988 38.1943
68.1423 40.6983 94.8545
117.868 55.8255 37.402
52.6983 26.6603 104.895
117.487 54.6832 38.1669
58.1162 28.7372 103.985
115.307 50.9938 39.8556
56.5725 22.729 109.365
47.0619 18.0658 112.304
112.997 46.9893 41.5794
28.9624 24.6958 102.78
115.786 53.1858 37.9442
32.0599 21.3114 106.973
113.148 49.0921 39.4059
23.1874 19.5696 107.321
110.37 46.0465 39.634
118.895 58.8444 36.8092
38.2436 31.9945 97.0184
114.83 59.634 40.909
46.7161 36.1212 94.6556
118.433 60.878 37.823
37.246 36.0029 92.5878
116.761 54.2083 37.9347
47.3104 26.7703 104.188
116.356 58.3841 39.2755
48.4743 31.7974 99.2941
114.25 61.879 42.0911
55.9878 39.3811 93.6353
37.9117 22.8628 106.296
114.77 51.1185 39.1133
39.5427 20.7521 108.554
113.888 49.0397 40.3403
44.3742 18.2254 111.756
112.473 46.3207 41.7537
10.1899 20.6587 103.806
108.635 44.4164 39.36
19.8374 19.164 107.258
109.002 44.6681 39.5466
22.0557 24.4451 101.809
114.516 51.6281 38.1211
15.2683 24.9487 99.9558
112.457 49.6391 37.7288
4.99586 20.9127 102.692
108.441 44.9537 38.2784
4.82812 25.7132 97.0437
111.271 48.7961 36.9273
-8.46553 25.5387 94.927
107.638 45.9764 35.1819
-19.59 21.6404 97.8482
104.103 42.5584 34.5717
-17.9735 21.8465 97.8389
102.756 40.455 35.7613
-8.83239 25.2977 95.153
106.25 43.7112 36.6017
1.94784 25.8808 96.31
110.574 48.5432 36.1138
-8.60297 21.3078 99.9285
103.995 41.0119 36.928
6.08114 37.8222 83.3153
116.227 55.6965 34.6559
10.828 36.3527 85.8404
118.398 57.9115 35.1609
0.81422 31.6548 89.3424
112.736 51.6629 34.9032
-0.826553 34.0078 86.4594
113.025 52.3345 34.2359
-8.67681 28.5273 91.4586
108.965 47.8641 34.3437
7.574 38.6317 82.6807
117.37 57.6037 33.3099
14.3187 30.2329 93.74
115.74 54.4039 36.0781
15.6394 37.1951 85.9504
119.387 59.0152 35.2638
8.28135 31.443 91.0472
115.813 54.5326 36.0077
23.6803 32.7425 92.8722
119.126 58.2464 36.0978
17.9338 28.885 95.9237
116.206 54.2369 37.0911
119.074 58.4078 36.2472
27.5124 33.13 93.4596
116.349 68.7385 41.6569
42.67 46.9181 82.2017
116.654 64.935 40.2944
45.1659 42.4972 87.689
118.463 63.7754 38.1867
31.5483 42.5729 83.7278
21.8512 35.7498 88.9373
119.172 59.3744 35.9007
117.983 67.6716 39.7316
31.9868 45.9604 80.0482
118.538 66.2104 38.2305
26.2402 44.9241 79.8412
12.0309 40.1523 81.7927
119.835 60.0903 34.0177
120.221 63.8503 32.9681
14.8114 43.4946 78.6672
119.445 64.1001 35.305
18.4472 46.1451 76.7291
119.649 60.7765 34.5227
16.4095 41.9878 80.7046
118.82 63.1888 37.0118
21.3872 45.7719 77.652
16.2413 41.1505 81.5062
119.414 60.0649 35.199
118.091 70.7519 40.4447
32.5254 49.2676 76.4732
117.962 73.9382 41.7029
44.5655 52.1448 76.2555
117.418 67.6235 40.2277
40.2902 47.2541 80.8762
118.301 73.4233 40.4643
36.031 53.3235 73.1463
118.761 69.9612 38.2365
28.7755 48.8669 75.9596
119.412 68.4489 35.8997
22.4129 48.6802 74.755
114.461 83.7512 48.2486
51.6353 58.2858 71.6718
105.31 88.4434 58.2179
45.8894 57.2348 71.5444
117.991 79.6084 43.5483
49.2853 56.2888 72.9889
117.282 85.4509 48.215
56.1207 57.7232 73.2088
117.655 83.0545 46.0498
56.0664 55.0194 76.4466
117.104 70.6386 41.4923
48.7097 47.9434 82.4522
110.658 76.0757 50.1478
68.1717 52.262 83.9504
112.038 85.0998 53.8591
65.096 53.2753 81.7392
106.102 72.4685 53.0593
62.6659 50.0079 84.3769
113.473 72.2843 45.926
66.9486 50.6267 85.0841
110.899 92.6514 59.5757
68.5624 53.4912 82.472
115.181 84.4238 50.5221
71.3937 51.8785 85.1044
114.577 67.0693 42.8593
67.9032 47.5889 88.3093
116.852 65.1419 40.1952
68.4484 42.5874 93.1854
114.298 65.34 42.7265
62.1054 41.9444 92.4242
112.505 66.8881 44.6318
63.6454 45.5655 89.284
112.74 65.5077 44.5351
55.9715 43.7787 88.973
115.411 66.3944 41.772
54.6558 43.2143 89.2118
117.208 87.7556 50.0601
58.9011 58.0834 73.8323
116.995 61.897 39.2413
45.4034 39.1316 91.2784
116.441 71.7724 42.6076
54.9108 49.544 82.3966
117.617 83.2548 46.2647
60.3881 54.5262 78.2346
111.879 98.7865 63.1044
61.1825 54.193 79.3305
113.145 92.2913 56.6099
63.7001 54.801 79.0298
101.869 97.3355 70.6211
48.1247 50.5165 79.8707
107.778 99.881 67.613
57.2897 52.2067 80.3408
103.455 100.233 72.6253
46.4455 49.2205 80.9202
100.589 94.46 68.3601
47.3547 51.9753 77.6334
112.505 95.5022 59.8164
59.2069 55.5376 77.1286
108.994 91.373 58.2881
52.8445 56.9578 73.7191
108.807 98.4505 64.9952
36.3691 57.5886 69.122
111.511 99.4727 63.8623
42.4868 64.1192 64.5858
105.632 95.3661 64.575
39.2859 61.4019 66.3255
108.624 102.773 69.6116
32.3384 54.6333 70.9985
105.681 102.516 72.7286
25.8673 51.7615 72.4946
19.8246 46.4352 76.7246
100.185 99.425 75.7041
100.99 98.5107 73.1231
32.4304 49.2372 76.4837
98.9991 97.1441 73.8677
32.9616 47.6143 78.7175
100.899 96.575 70.6608
38.5239 54.2769 72.8348
102.26 92.7699 64.6591
38.7699 55.5217 71.6061
101.777 85.79 57.9748
40.5562 60.2561 67.5495
109.61 91.3331 57.8678
41.8933 63.2298 65.1288
112.304 105.484 68.5617
34.5003 59.6554 66.8062
113.781 106.19 67.8287
32.6237 62.1005 63.9027
111.383 105.238 69.1979
29.9338 57.0118 68.3154
112.105 107.613 71.0791
23.3536 51.1366 72.6387
-1.50121 39.714 80.1819
109.068 107.656 75.6809
3.23389 39.2626 81.4496
98.8811 99.5171 78.2961
113.591 110.238 72.4488
14.4201 49.4844 72.375
2.47572 43.1312 77.1173
112.128 109.89 74.2111
114.885 111.267 72.0063
12.9489 51.855 69.6696
114.345 109.808 70.857
22.7739 56.6261 66.8184
114.983 109.175 69.464
29.5238 61.6677 63.5688
114.79 105.882 66.6607
39.0461 67.1389 60.6751
115.061 104.211 65.0457
40.3673 71.0284 56.7502
116.493 99.2685 59.5686
42.738 76.8076 51.2042
112.031 100.732 62.2306
41.8133 75.7719 52.0887
116.429 99.8569 60.1345
42.0305 73.1853 55.091
116.014 96.1802 57.4157
46.8994 74.2034 55.4251
117.945 85.7249 46.9482
40.0494 70.9953 56.652
119.779 83.9117 41.4038
34.6915 78.3938 47.7895
119.244 87.9885 45.3168
41.5659 77.0386 50.5417
119.315 78.7201 39.5182
26.7782 72.0061 51.7294
120.575 81.7685 38.2386
26.2528 78.1762 45.7375
119.799 89.3272 44.9169
41.3755 82.1335 46.3597
118.51 95.1911 52.0572
42.9533 80.0236 48.499
118.777 78.3893 40.6329
30.5501 70.6316 54.5597
119.544 76.0917 37.7017
16.9301 69.0167 52.4129
119.961 76.4674 36.8937
17.5186 73.1602 48.3925
118.989 77.8335 39.818
24.8014 67.5854 56.0655
115.363 76.9468 40.5
20.7941 63.2987 59.6053
114.156 76.8196 40.8472
25.486 64.3921 59.8629
114.541 82.5291 47.0721
36.8521 66.4881 60.5515
110.973 91.5881 57.26
42.2912 66.6753 61.9614
113.06 100.044 63.0519
43.3705 67.1073 61.9842
113.597 88.5007 52.6868
43.7214 70.1303 58.7612
116.409 80.6355 43.9
31.9118 67.0985 58.7931
117.376 88.4925 50.0951
41.8723 70.765 57.7718
117.197 75.9169 39.171
19.4465 61.8784 60.8821
7.29794 57.4622 62.516
116.752 72.763 36.626
6.27976 60.8406 58.8086
116.131 72.7748 36.862
-3.88404 45.8271 72.7563
113.368 60.7034 31.827
5.28605 51.0578 68.6955
120.414 68.6655 33.0588
6.96198 49.8802 70.4829
119.685 65.8682 32.0428
-11.6097 52.8338 63.3591
112.07 66.2249 34.2591
-21.4686 50.0316 64.4406
110.151 62.0819 33.0826
-11.7665 47.7665 69.1603
112.996 59.6823 31.6693
-4.80214 56.8176 60.506
117.117 68.7924 33.8593
-18.2204 55.5879 58.8565
114.223 67.7617 34.2869
119.758 73.9329 36.3032
5.84068 64.0444 55.1463
-26.1672 41.7738 73.5656
106.816 52.8441 31.817
-24.174 44.268 70.8408
108.429 55.62 31.833
-43.6446 36.2432 77.264
105.73 49.7329 31.429
-39.3511 28.3942 87.649
103.428 45.4122 31.2904
-22.4014 37.0122 79.8431
111.002 51.8577 30.4314
-64.2286 20.3091 93.7985
100.124 39.8879 31.7842
-11.0799 31.5055 87.8572
109.229 49.8107 30.9519
-17.5483 26.1067 92.9904
105.744 45.4497 32.3917
-30.9534 25.3827 92.1287
103.216 43.0723 31.8304
-20.6882 28.9903 89.3715
106.231 46.6245 31.0051
4.81075 47.0285 73.0799
120.828 63.745 31.1781
-6.3072 42.8421 75.7432
112.776 56.4134 30.9416
120.201 70.2435 34.0198
15.1153 51.5076 70.3572
120.763 64.2974 31.3999
12.2047 47.2545 74.1594
119.758 72.9898 35.9683
21.9802 56.2675 66.9767
119.763 72.957 35.9445
11.9851 54.4023 66.6759
119.504 74.8441 37.295
20.5728 59.7956 63.0988
116.659 78.7895 42.07
27.88 62.0134 62.6425
11.214 42.2411 79.3543
120.448 61.505 32.2251
9.4214 44.9176 76.2495
120.958 62.5947 30.7605
120.294 64.0339 32.7605
14.7836 45.9735 76.0858
5.20587 42.0758 78.5164
118.31 59.4052 31.4338
-3.31181 37.2225 82.5388
114.52 55.3268 31.2432
0.894217 37.8771 82.4869
114.913 55.3207 32.2541
118.758 76.6142 40.0442
30.3254 53.815 71.2673
119.132 73.0846 37.884
25.5635 50.8991 73.1315
116.783 83.2119 46.6991
43.9974 58.0456 69.8414
104.04 84.6938 54.9688
42.1645 58.7994 69.1422
100.606 94.2378 67.8258
45.4533 54.4204 74.0777
100.135 96.1739 71.1256
39.3283 50.9408 76.6134
111.961 81.9443 47.8413
37.3003 59.3551 67.4486
115.679 81.018 44.6627
32.847 62.1669 63.8822
116.423 80.6375 43.8967
32.5387 58.5139 67.3006
119.034 76.7972 39.2538
26.7444 58.2492 66.0348
118.878 76.9348 39.767
33.7575 55.9084 70.0277
119.355 75.2285 37.834
25.7186 54.3028 69.8056
119.982 69.5034 34.4496
19.5021 50.1009 72.744
118.595 145.741 72.4328
-0.48183 133.366 73.5865
117.832 143.441 74.8249
-10.489 131.564 79.0082
119.368 148.325 70.0497
6.31023 135.201 70.1834
116.641 146.963 75.0994
-5.05706 134.59 77.8254
117.848 147.967 72.6493
4.70095 138.028 73.9079
119.605 149.867 69.0079
10.716 139.646 71.0126
113.07 151.774 76.6043
2.6117 145.659 80.2907
120.675 156.288 64.9182
18.7413 144.746 69.4122
116.045 152.086 73.9112
7.94835 145.191 76.817
118.66 153.558 69.0435
13.5083 143.493 72.0444
116.558 151.2 73.3906
6.40742 141.417 75.2341
115.284 149.69 75.9444
0.489316 141.804 79.2403
115.179 155.829 58.3073
19.636 140.423 63.5956
121.009 152.976 62.2073
17.1146 140.136 65.8894
120.782 154.205 65.5034
15.5252 141.132 68.3954
121.46 156.472 59.9821
19.5834 142.485 66.0605
114.63 157.065 57.1758
25.2117 143.535 61.0715
121.903 159.993 57.4526
21.4939 145.533 67.8648
120.569 150.051 64.0693
12.8896 137.137 66.5035
120.372 149.96 65.3553
11.7026 136.725 67.181
110.481 148.438 61.5148
14.7575 137.176 64.4115
96.1165 144.537 58.7057
14.132 134.624 62.7215
119.812 146.392 66.1418
5.81345 131.538 66.4558
108.74 144.687 63.297
9.90836 133.041 64.1048
67.3627 141.731 48.5732
26.6034 134.818 57.492
75.6837 140.555 53.164
19.4381 134.918 61.0251
86.826 144.844 55.0332
20.1383 135.294 60.8614
70.5338 144.376 48.2124
32.4316 140.894 56.2324
64.221 141.565 47.1575
32.6443 138.111 56.2768
61.284 144.909 43.3415
35.2351 142.145 54.4618
-2.87735 123.911 64.6911
47.7216 142.109 42.9734
-1.88779 124.621 60.8377
46.2599 141.516 42.8955
9.07602 127.846 55.5989
50.7149 140.665 41.3339
14.6575 136.137 62.8911
45.8962 143.308 43.7035
15.0956 134.912 62.3997
47.8906 142.144 42.9543
54.6788 141.677 42.2083
27.6174 134.807 56.8634
70.9999 153.643 41.3094
31.2104 145.13 55.2432
68.4655 150.453 42.5793
33.3528 144.759 54.4859
66.608 159.551 41.8243
29.8249 145.858 55.4179
54.118 147.631 42.4591
33.1927 145.066 53.9321
50.6548 149.083 42.9595
31.3607 147.471 51.5435
25.1031 143.722 55.5545
44.4332 144.368 43.6956
81.5373 157.572 43.0862
28.3793 144.22 57.4974
89.4516 165.411 40.4405
28.6077 144.905 56.8563
100.331 160.95 48.4021
26.6433 143.956 58.9128
77.1759 147.204 49.2357
29.2331 141.781 58.0086
90.2654 153.877 50.0059
25.9091 143.446 58.9313
97.5921 152.042 54.3578
22.3499 141.279 61.2134
122.945 174.207 50.6519
25.3085 149.607 68.242
122.44 166.857 55.6551
24.3871 148.243 67.7137
123.049 171.975 49.801
25.8505 145.548 63.6505
123.544 175.395 45.1874
27.8619 146.555 62.3297
123.942 181.839 40.5357
29.0333 149.201 64.4025
112.503 181.42 40.4437
32.3166 150.983 62.7177
74.0553 170.463 41.0408
30.5683 146.444 54.9714
52.62 155.63 43.2061
31.0765 147.488 50.7353
90.257 178.387 39.3797
31.7577 147.893 57.9175
99.4107 181.96 38.2715
31.9703 149.923 62.2819
96.7591 171.544 38.902
28.7408 145.033 56.9321
120.748 182.589 39.2027
29.5768 146.6 59.8357
62.038 173.975 46.1452
28.8902 149.716 64.8762
123.295 177.562 47.1108
27.1331 153.964 70.2709
79.7791 174.146 48.7882
29.9455 153.484 67.9656
59.788 171.156 50.1501
26.5592 152.704 69.4563
58.1483 174.742 44.6503
30.1883 149.422 63.4053
59.4911 173.515 46.3162
26.2386 156.228 71.7084
86.8721 179.514 42.6071
27.0465 160.369 73.2073
86.5915 181.856 39.1097
24.6632 164.875 76.5636
89.0439 181.544 39.9191
26.6449 163.208 74.5203
84.904 178.094 44.4023
27.9929 157.282 71.0801
96.5065 177.304 45.7035
26.7828 160.798 73.4725
105.961 177.072 47.887
28.2995 158.566 71.7606
120.526 170.922 60.4234
19.511 167.557 81.3947
122.156 172.191 57.0008
23.1517 159.718 75.3015
118.494 167.929 64.412
19.1814 159.44 77.4541
123.465 181.321 48.7425
23.605 175 82.6111
117.38 167.587 66.3042
16.2604 164.3 81.7489
114 163.717 70.5873
12.759 157.91 80.7807
115.991 161.878 69.6203
14.4842 154.462 78.1043
112.468 154.785 75.632
4.37258 149.824 81.6017
116.508 161.504 69.3489
13.2027 153.542 78.4471
116.799 158.552 70.0801
12.2071 148.084 76.0035
120.435 165.354 62.0806
19.3928 148.582 71.6879
121.465 169.426 59.3081
21.8907 156.423 74.6388
123.096 176.311 49.1777
26.5528 159.369 73.1208
123.03 175.708 49.8772
25.9032 156.854 72.3665
111.887 179.398 44.037
25.8147 164.734 75.9636
106.996 176.402 48.8933
24.867 162.125 75.346
123.147 176.67 48.6447
23.6924 165.434 77.686
119.643 183.13 38.4796
26.1954 168.384 77.68
125.712 196.01 28.398
24.5493 175.616 82.5645
124.879 189.344 33.9649
25.7949 173.5 80.2875
123.836 181.164 41.6783
26.0897 170.139 78.2775
121.64 188.647 34.0055
25.3829 172.733 80.3658
95.7358 191.948 32.6432
24.4287 171.029 79.8434
93.1565 186.239 36.4333
25.1923 168.881 78.2627
61.1437 188.078 34.7211
11.1465 170.681 87.7352
60.9037 187.682 35.0387
17.748 166.157 81.6095
66.5455 188.762 34.5359
20.6559 169.877 81.6055
67.8028 192.144 31.7659
18.6734 172.523 84.1688
77.3383 188.699 34.8835
23.5988 172.955 81.5183
82.1688 195.782 29.5283
22.0567 173.852 82.7271
64.1634 184.521 37.6544
20.8484 165.792 79.5038
75.257 187.401 35.76
23.6221 167.206 78.3529
63.0138 182.248 39.162
21.4677 162.968 77.664
56.269 186.004 35.7923
16.19 165.147 82.0978
57.1845 184.338 37.2143
17.8414 162.212 79.6404
55.1533 179.527 40.4832
17.9533 159.763 78.2954
5.07721 160.354 86.5433
47.186 181.918 37.5501
-6.48338 157.197 91.8218
44.9053 180.773 37.8715
1.6001 161.49 89.1041
49.1993 182.895 37.1496
51.2451 182.296 37.9508
13.5487 159.558 80.9453
52.318 184.445 36.3115
12.9346 163.834 83.5035
4.41056 164.668 88.9929
49.1801 183.223 38.949
0.881942 168.31 92.671
54.5633 185.733 35.6939
60.1565 191.052 31.6689
3.6475 170.208 91.9536
57.0772 186.7 35.3392
12.1809 167.798 85.8699
-0.0819184 168.243 93.2056
52.661 186.452 34.289
51.8892 186.438 34.8257
10.9551 173.334 75.9557
-11.5772 164.507 98.2174
46.0199 181.494 38.2073
-12.7078 166.804 88.0134
41.2621 179.14 39.3985
42.204 179.47 38.7409
8.99892 176.727 61.3734
-38.6255 160.671 103.038
35.2482 177.696 42.4816
45.8124 181.592 37.2564
12.547 176.612 62.8947
48.0775 183.149 36.3729
9.73846 173.593 70.5698
-25.5438 160.521 104.076
41.5282 179.6 40.4455
-169.151 127.189 163.052
27.9258 176.306 44.398
-112.232 142.433 141.576
28.9857 176.288 45.587
-70.1452 157.452 104.092
28.1922 176.401 44.0939
-19.7618 173.009 66.7623
26.6624 175.914 42.6927
-11.2028 174.981 56.3904
27.8644 175.939 41.8931
-419.828 54.1184 245.017
24.5026 174.236 40.6901
2.63634 159.802 58.4922
33.9182 176.251 38.0544
34.886 174.58 34.8237
5.58634 161.219 54.3993
-46.4626 137.735 93.6632
31.9695 176.97 42.6691
40.4544 178.143 37.3233
3.14093 158.705 61.1321
-72.3051 128.823 111.684
33.4042 177.201 43.1413
-2.64899 154.878 68.4557
42.7586 179.46 38.1977
-22.6611 140.854 91.5704
42.7941 179.482 38.201
4.27867 155.316 84.5622
45.5136 178.734 39.8348
-6.85977 149.189 87.6731
42.9915 179.617 38.1747
-31.1047 142.81 97.7893
39.1398 178.298 41.3983
-39.3227 136.465 98.1444
40.9505 179.021 39.6261
-58.6242 154.556 119.244
33.0451 176.66 44.7717
42.0713 178.6 38.5634
7.31727 158.842 62.3913
7.19046 160.152 58.4442
34.1557 170.651 40.6007
-37.6751 136.79 97.423
29.8963 165.706 43.486
6.47928 157.468 64.4428
34.9057 170.183 41.817
-20.3453 132.01 85.0793
29.8405 165.117 44.5528
-0.105692 130.715 70.5248
31.4587 165.197 45.5329
-15.6489 129.536 80.5636
27.553 164.229 43.8706
2.71287 129.85 67.0772
29.4556 164.805 44.5224
-53.5265 124.922 99.3341
26.5565 164.068 42.0618
40.1205 177.955 37.1852
10.6534 162.488 53.8062
-36.9898 142.248 84.5135
26.7902 165.679 39.5732
32.7039 172.091 35.9317
10.7208 162.518 53.7236
41.8353 165.73 44.9899
30.3435 147.767 49.2817
6.69108 131.298 56.2078
29.1961 165.288 43.4221
18.2593 140.027 52.6191
32.3526 167.366 42.9453
47.0057 157.61 43.3035
30.3462 148.991 45.68
22.4871 142.804 47.607
42.5155 145.638 44.289
8.31796 132.099 59.6154
44.0134 142.467 44.2904
44.415 172.689 43.9364
28.2346 145.901 53.4098
54.4967 163.433 43.0336
31.1144 147.444 51.3899
50.6129 172.647 43.4713
29.9147 146.648 53.2825
44.3459 173.142 43.562
27.8785 146.701 49.2737
22.6578 143.058 52.3934
36.6241 168.413 45.0404
14.0915 135.781 63.0176
34.0913 165.694 46.566
-5.01654 145.689 84.5079
38.3649 171.562 43.4007
-24.6954 140.122 92.3009
32.9837 167.228 44.1968
-7.71699 138.999 82.184
34.4699 167.301 45.2356
-14.9957 142.898 88.4721
36.221 169.952 43.6587
-11.3006 144.574 86.5704
40.4087 175.805 40.349
-12.5059 143.886 87.6883
41.7842 177.541 39.4716
14.8253 137.171 64.3086
36.5348 165.823 47.6684
1.83093 138.171 75.7269
33.7065 165.259 46.9359
4.44001 144.166 78.219
36.9638 168.245 45.5868
46.6488 171.628 45.9881
28.1332 145.334 59.5083
60.1302 176.27 43.0476
30.0058 146.454 57.4492
51.0981 175.137 43.0851
29.7607 146.299 57.3398
57.3699 174.484 44.8976
23.8761 158.534 74.1555
46.6002 170.296 47.6097
27.6757 146.482 62.4423
50.53 172.107 46.717
21.138 153.955 73.6022
50.0632 174.982 43.2042
19.6907 154.344 74.6847
68.0089 177.664 42.8053
25.1687 159.165 73.7042
57.4582 177.244 42.0172
20.3592 159.618 76.7683
7.21828 153.375 81.7915
43.6129 175.515 41.8231
-0.756267 148.859 83.9676
41.7445 176.162 40.7502
14.44 156.393 78.9446
49.7419 175.025 43.0827
11.4622 149.569 77.2661
44.8724 173.507 43.456
5.85096 147.589 79.3593
40.5747 170.264 45.0402
16.4937 149.408 73.8494
46.0302 171.633 45.9248
23.2614 144.847 65.1211
41.0487 168.184 47.7898
118.476 144.55 72.2514
-5.53983 130.247 74.4287
117.287 142.677 75.9016
-23.1912 125.614 82.5655
118.093 142.201 72.7987
-14.3915 125.778 76.7748
118.76 142.126 69.1458
-5.60351 127.106 71.4017
119.273 145.296 68.4221
1.61067 131.582 70.1332
119.185 143.34 67.568
-2.8267 124.545 65.6858
101.103 140.529 62.8124
5.07354 125.443 63.3118
5.06009 126.471 63.5161
81.1159 137.955 56.828
115.381 140.647 67.5796
-9.18146 119.942 65.4917
118.714 141.977 69.3304
-9.62641 122.521 69.5431
117.998 141.384 72.7894
-20.5307 119.074 74.7557
117.449 141.123 75.3717
-27.4786 120.021 80.7264
-34.2847 103.432 68.2365
117.934 137.407 71.2238
-40.5518 100.429 69.9025
117.347 136.946 73.8371
-28.7707 110.566 71.79
118.08 138.662 70.9724
118.518 139.319 69.0408
-22.1078 109.944 65.3684
112.975 138.852 67.3408
-1.1333 116.721 63.3607
103.762 136.746 64.7782
12.8829 116.716 61.0919
100.131 138.245 63.1584
9.91963 119.602 62.0105
87.0875 137.361 59.0576
17.2784 120.015 60.9149
106.968 139.433 65.1278
-0.933668 120.21 63.9735
118.72 140.697 68.6178
-17.4646 113.792 65.7669
-40.923 110.385 80.6714
116.919 138.453 76.4224
118.171 140.228 71.2869
-23.1589 114.137 71.0222
-73.5422 87.0991 80.2418
116.227 134.331 77.0423
-40.3657 97.009 65.607
117.623 135.051 71.895
-57.1701 93.8899 75.4977
116.606 135.014 76.3482
-36.7691 97.93 63.5057
117.669 134.04 71.3402
-55.5275 89.8927 69.6684
116.983 133.541 74.1993
-67.4675 86.3883 74.9428
116.695 132.625 75.1461
-70.7038 78.9158 68.5546
116.967 130.389 73.3039
-108.334 66.3722 82.9336
116.218 131.1 76.7919
-54.5744 83.8295 61.104
114.19 127.256 72.1506
-61.4213 83.1483 66.1551
117.195 129.709 72.1411
-82.5386 76.6472 75.1503
116.675 130.727 74.6649
-88.1966 76.4477 79.2665
116.388 132.324 76.3574
104.075 129.058 68.1427
-3.86774 100.576 55.8311
109.367 131.552 68.9136
-4.02412 103.26 58.0281
99.6623 131.5 65.6018
13.67 107.883 56.4171
-24.8614 94.5505 57.606
110.451 129.494 70.1417
-42.245 92.2319 61.266
115.706 129.322 71.8104
99.8608 128.376 66.8368
2.36892 97.5312 49.997
117.946 137.141 69.7279
-3.55157 109.087 61.5082
-21.3696 99.6885 60.5634
114.081 132.363 70.2795
-27.3289 104.766 64.6232
118.217 137.195 69.7991
109.511 136.126 67.0533
9.23787 110.718 59.1686
92.8634 133.729 61.9774
16.682 111.705 58.4449
117.95 138.372 69.1278
-8.29847 110.945 63.1222
18.6118 105.199 51.3377
61.2926 129.61 51.8741
21.3745 112.499 57.7066
69.8297 130.474 55.3231
17.1272 103.454 50.0001
59.884 129.271 51.3207
70.5598 130.735 55.3718
28.3759 109.068 51.5044
77.1135 129.575 58.1573
23.2531 109.543 54.6732
89.8737 131.763 61.7962
25.8686 108.293 52.0287
94.3849 127.731 65.1538
15.8368 102.318 49.3275
92.5171 129.19 63.668
16.2314 98.7973 43.2349
98.1015 127.989 66.2839
5.7743 96.3023 46.5961
99.4405 131.301 65.6157
14.0268 104.918 53.6342
88.5155 131.903 61.0649
28.6134 104.783 44.1694
77.378 131.536 57.0332
31.7369 107.194 45.8461
98.7705 131.843 64.9957
27.4387 103.12 39.5761
96.6614 134.368 63.0208
28.5801 103.402 33.7262
102.009 133.908 65.1501
25.2308 101.369 35.5223
113.054 134.818 68.8521
19.34 97.6599 32.1626
103.112 129.93 67.2904
18.4542 98.2562 38.2472
109.299 133.03 68.2804
17.4585 96.8824 33.8957
24.8969 101.598 36.9267
63.3167 130.208 52.1555
79.0136 131.942 57.4051
30.2744 104.704 39.7835
27.286 104.122 43.8557
66.4869 129.535 53.344
20.207 99.6304 39.8193
61.1549 129.978 51.4279
14.746 95.1819 30.9566
58.8753 130.36 50.3421
5.33285 92.3444 38.4308
55.7832 130.211 49.3027
1.30829 125.032 63.9511
54.9905 135.298 46.0571
-22.069 109.974 65.3687
52.6421 133.226 46.08
12.9526 128.201 59.1551
52.9628 138.397 42.9421
-17.9276 112.958 64.3771
50.7351 134.377 44.5088
18.1148 130.557 53.4044
51.9042 140.519 41.0713
-5.90162 121.595 61.5467
51.3403 137.419 42.3653
70.2917 138.594 51.9153
17.3328 131.03 60.5107
1.49429 123.576 63.711
56.8167 133.747 48.0052
22.7148 131.831 57.5917
56.766 138.8 44.976
10.7769 122.662 61.9965
62.579 134.162 50.5919
82.626 140.145 56.2835
14.1078 130.139 61.5919
8.37335 127.595 62.7398
70.3806 137.008 52.7885
16.5518 114.339 59.0939
72.1913 131.526 55.3481
6.06549 108.008 58.2519
61.3848 130.077 51.4907
10.0231 116.321 61.3959
61.7403 131.396 51.3551
12.9797 122.675 61.7773
68.481 134.863 52.9052
3.1631 117.849 62.6477
61.2288 133.213 50.3528
-6.32322 113.444 63.2716
56.2094 131.474 48.7418
-21.4924 81.872 40.355
50.6549 131.109 46.6757
-33.6226 95.5037 60.8413
53.0006 131.292 47.752
-16.4531 93.5226 53.4211
53.201 129.566 48.5477
-4.67701 87.598 37.1988
54.6097 130.439 48.4526
2.99418 104.443 56.7727
57.1989 129.528 50.206
-4.47458 88.2423 38.8621
53.9512 129.267 49.2398
117.19 129.655 72.1482
-7.81664 82.915 31.4925
118.067 135.959 70.1792
14.7535 94.0568 29.0622
117.692 133.41 71.0754
6.31023 89.4213 29.7947
109.125 129.319 69.736
5.5128 90.0453 31.4568
-20.129 77.7919 33.0271
112.499 126.003 71.9669
108.684 127.794 70.016
0.738198 88.4512 34.1204
-20.0469 85.2292 45.241
106.693 126.366 70.1931
-42.8668 80.244 50.3748
105.343 125.131 70.166
-55.1143 72.3488 46.6989
109.379 125.613 71.2843
-18.3427 82.2145 38.9951
109.476 127.802 70.258
-70.9283 60.8514 45.6347
104.468 119.279 70.9765
-46.8287 71.1541 40.6207
109.986 123.967 71.7301
-26.4348 66.2802 44.3814
109.049 112.966 71.3651
-31.8702 58.9817 51.7994
116.211 114.538 72.5071
-51.5347 59.0528 46.5468
108.391 114.243 71.1191
-71.0842 51.8415 50.7227
116.415 118.502 73.2967
-83.9711 52.636 45.9302
109.654 119.534 71.9419
-68.8657 58.9334 41.3629
106.962 119.311 71.3102
-15.9161 78.5492 33.5995
116.645 123.35 73.166
-42.6346 69.376 35.881
113.149 123.603 72.3424
-20.878 73.8268 37.2866
115.825 120.315 73.1006
-30.2922 70.8872 37.9402
113.867 117.75 72.7191
116.862 125.831 72.7837
4.95573 85.2696 33.1941
116.697 122.64 72.9691
7.46781 85.3591 33.8661
116.389 114.302 71.8625
20.6791 81.4988 41.4483
115.722 109.732 69.3094
29.6864 80.7447 44.4908
117.74 118.013 69.9871
29.6622 88.5524 37.9706
116.984 119.212 71.9596
20.463 84.9664 38.1396
116.493 119.603 73.176
4.81684 78.6574 39.7368
118.065 122.855 69.6868
26.9281 91.6338 34.6288
119.283 111.816 63.3128
38.9119 88.0036 41.2653
119.666 109.893 60.86
39.0853 88.0551 41.2763
116.594 109.439 67.345
36.9409 83.4417 44.26
120.359 95.5164 48.0136
39.6126 85.3215 43.611
110.102 104.074 65.7549
32.6339 78.1151 47.5916
107.705 102.026 64.0788
37.1024 77.8903 49.2272
115.34 110.26 70.2748
11.5508 63.6661 57.2683
112.238 107.499 68.5442
28.0237 66.6468 58.4246
104.546 102.929 65.5973
28.5519 73.8333 50.6851
105.917 104.943 67.1553
21.662 70.7286 51.924
104.666 104.567 66.9899
17.9574 74.418 47.4828
115.196 109.644 69.7575
18.7456 77.5835 44.7157
-16.8992 64.5688 48.9818
105.543 108.944 69.8462
116.446 116.467 72.9156
1.27621 75.4983 41.9011
115.07 113.019 71.803
-0.400758 70.8884 46.3811
5.37478 67.8798 51.0914
108.65 109.053 69.6219
-11.874 59.8189 55.6736
115.958 113.41 72.0332
0.568196 65.1244 52.9307
112.273 109.892 70.2187
-22.5304 54.4438 59.3014
115.675 113.201 72.6732
-34.2028 49.5371 62.5086
108.88 110.215 72.8749
-48.7501 42.557 68.0012
110.191 111.56 73.8444
-53.4098 46.9778 61.3895
116.009 115.092 73.8212
-45.743 52.4001 56.4682
116.392 115.778 72.9492
-93.1174 39.9871 61.2926
114.817 114.846 73.686
115.616 111.586 71.186
5.81887 60.9897 58.596
-21.8786 46.7916 68.413
114.09 112.413 73.1863
-13.9906 47.9563 68.5903
115.444 113.042 73.269
1.73875 50.3887 68.8612
115.389 112.205 72.5139
115.179 110.073 70.2309
17.0452 60.8904 61.4079
114.427 109.975 70.9573
12.4439 55.3889 65.8931
-40.7926 31.1181 84.3387
113.648 112.175 76.0838
-22.9022 35.8531 81.2711
110.213 109.032 76.4217
-14.7283 42.1452 75.3793
114.694 112.32 74.0401
-60.1744 29.0651 83.8591
114.407 112.887 75.9928
-34.4079 40.9788 73.0724
115.536 113.991 74.1321
-68.462 31.5234 78.9054
114.423 113.066 74.6985
-87.2948 37.1001 66.8642
108.858 111.657 73.7558
-141.761 17.5321 84.1089
115.545 115.441 76.4058
-107.227 28.8417 74.4766
115.607 114.186 74.1255
-104.28 24.712 81.4121
115.551 114.059 74.1792
-68.7002 34.6588 74.4282
110.803 111.855 73.8952
-98.4097 23.8285 83.9628
115.066 113.625 75.8201
-139.159 23.2806 75.741
116.124 115.818 73.9104
-204.335 8.09491 84.5758
115.873 118.718 75.5665
-181.099 12.3666 83.1528
115.868 116.521 75.2071
-140.21 27.0063 69.4738
112.717 114.649 73.7297
-136.05 31.467 63.4411
103.19 112.011 73.0646
-91.8973 46.0822 53.301
116.316 117.61 73.496
-141.339 30.4557 63.7149
116.409 118.943 73.3699
-107.944 43.1225 53.3677
116.501 120.277 73.24
-135.811 37.5592 68.932
116.557 121.44 73.2353
-162.854 22.6278 70.8993
116.375 118.656 73.468
-141.563 40.0358 76.6718
116.648 123.452 73.1692
-165.365 24.2326 75.1608
116.42 120.692 73.6494
-105.357 67.3698 81.8728
116.471 130.213 75.4028
-126.95 55.7408 84.4724
116.381 127.361 75.1328
-96.4124 64.4967 71.3957
116.945 127.865 72.737
-67.9556 73.1139 58.705
104.607 124.216 70.7862
-47.321 82.5262 54.49
109.264 126.8 70.7238
-67.6565 71.2103 55.886
108.337 123.951 71.4845
-96.0637 60.1606 65.6165
112.674 124.536 72.2158
-89.1193 58.167 57.3185
103.882 121.248 71.5855
-110.228 51.8765 66.7179
112.88 122.378 72.4988
-118.793 52.2814 74.0303
116.783 125.764 72.9681
-119.576 55.5647 78.7181
116.799 127.283 73.2633
-151.781 43.3299 88.1679
116.117 124.772 75.7374
-152.398 37.6707 81.9018
116.481 124.489 74.0611
-278.658 -18.9856 110.786
113.804 117.063 81.7503
-195.5 5.09177 91.5232
115.471 116.041 76.795
-249.3 -7.89054 100.032
114.977 117.434 79.2123
-236.332 -2.73625 94.8003
115.561 117.88 76.7628
-254.58 -8.84897 100.369
115.131 120.289 79.1187
-246.773 1.26325 106.093
113.448 120.101 81.5733
-144.439 7.58059 98.1527
114.38 114.219 81.3547
-172.647 5.86483 95.3071
114.897 115.396 79.2634
-224.878 -8.5735 106.197
114.31 115.463 81.5124
-125.843 16.2419 89.5082
115.075 114.639 77.9395
-105.096 15.1806 94.6647
113.692 113.165 79.7716
-78.2385 21.9434 89.9872
112.875 112.385 79.5812
-169.353 -1.44766 106.427
113.714 113.813 82.9678
-133.707 5.73084 102.545
113.532 113.421 83.0489
-163.471 -2.16022 108.393
112.207 112.312 85.872
-214.34 -15.3351 117.741
112.077 113.884 85.4106
-194.106 -3.34933 104.486
113.864 114.269 82.5721
-280.166 -27.0626 122.471
111.141 114.458 86.683
-311.992 -23.0838 122.461
111.808 118.846 84.3414
-254.045 3.68866 113.351
111.799 120.16 84.0903
-309.1 -21.5489 122.214
109.987 118.787 85.8672
-296.438 -22.7137 112.791
113.119 118.76 82.3487
-306.627 -31.6712 124.133
111.846 115.736 85.1179
-244.21 -13.4907 109.616
112.531 115.16 84.2501
-289.45 -35.2344 132.473
110.056 112.824 88.3737
-488.262 -95.5781 182.715
107.588 113.223 89.8534
-202.844 -14.7736 118.8
111.391 112.346 87.1296
-274.371 -38.3901 139.376
109.388 110.75 90.0091
-207.697 -26.5367 133.659
109.978 110.62 89.704
-159.58 -5.60421 113.254
110.687 110.935 88.9438
-366.756 -80.1994 182.067
108.367 111.303 90.3699
107.628 110.967 91.1111
106.211 112.101 91.565
107.423 112.413 90.4111
106.991 113.083 90.3663
-680.908 -167.166 250.295
106.878 111.285 90.7749
106.635 113.728 90.3169
105.394 115.766 90.4046
104.452 113.642 92.2198
102.803 112.729 94.2274
104.569 110.718 93.8446
99.1636 113.616 97.3563
-465.803 -78.1263 161.309
108.583 116.17 87.7963
106.518 114.599 89.9966
-628.175 -130.371 207.057
107.229 114.799 89.3678
-642.85 -121.277 224.141
107.12 115.884 88.9875
-672.522 -106.391 254.642
106.521 117.624 88.7857
-344.791 -22.9548 142.482
108.467 119.474 86.7125
-654.621 -67.9322 278.325
105.375 121.125 88.6925
-573.793 -58.3242 241.933
106.548 120.206 87.9536
-447.154 -44.3472 182.16
107.271 119.253 87.6721
105.385 118.15 89.5329
103.566 116.282 91.7958
104.248 118.52 90.3795
98.9747 119.58 95.1017
101.017 115.425 94.5724
95.1411 114.307 101.48
101.908 117.142 92.9984
100.673 117.919 93.8966
101.592 119.259 92.5735
97.5243 119.811 96.6069
98.7968 120.739 94.986
98.1818 123.006 95.2627
95.0299 120.537 99.3017
96.4016 118.296 98.3143
94.538 116.685 101.087
101.067 123.078 92.2174
98.8766 122.611 94.5696
100.229 119.619 93.8145
-462.456 -9.38947 221.301
106.111 123.981 87.4992
-537.461 -15.9135 256.649
105.707 126.87 87.4831
-353.163 22.809 187.343
106.834 125.64 86.6483
-211.772 44.126 126.146
109.402 127.024 84.4817
-244.757 43.7541 144.303
108.477 128.339 85.0559
-180.773 52.1078 115.046
111.061 129.735 82.9785
-156.386 57.6382 105.412
112.545 129.637 81.9251
-124.848 63.5308 91.3303
114.745 131.229 78.9016
-117.434 66.5816 89.4041
115.698 131.252 77.5218
-155.896 46.049 94.1276
114.694 126.247 79.0115
-158.308 40.9728 90.1565
115.727 125.437 77.6171
-145.207 58.1623 99.1246
113.94 128.508 80.0403
-180.146 46.1814 109.404
111.544 127.299 82.888
-203.428 39.4675 117.119
110 125.043 84.3354
-282.708 24.7225 149.837
107.37 125.173 86.2818
-215.971 18.4558 104.402
112.498 122.123 82.6889
-234.708 17.8514 115.682
111.595 122.035 83.8354
-332.723 -8.86973 148.584
108.758 120.011 86.3434
-187.052 35.3934 103.356
113.323 123.912 81.2071
-192.141 23.6579 94.1682
114.63 122.914 79.4133
-188.531 24.9624 93.1381
115.763 122.631 76.8222
-246.82 24.6657 129.164
108.336 123.409 85.8494
-197.642 35.8129 110.345
111.654 124.608 83.2371
-233.356 28.3635 124.631
109.381 122.408 85.2986
-346.336 -1.80926 162.906
107.068 122.066 87.0927
-345.963 10.4557 173.198
106.855 125.413 86.658
-389.645 -8.17131 181.728
106.841 122.158 87.2507
-322.797 -75.518 182.529
104.361 107.395 91.9453
-627.291 -171.267 265.537
109.025 109.996 90.7369
-508.724 -150.764 255.54
105.08 107.385 93.3161
-374.72 -83.565 185.457
108.923 109.941 90.757
-202.258 -25.5185 133.099
107.605 109.201 90.9586
-155.557 -11.3759 121.176
108.368 109.443 90.0073
-90.6764 15.5817 96.361
110.669 110.81 82.7258
-36.4254 31.736 84.2178
110.554 109.957 78.2024
-69.5447 17.9356 96.1287
106.578 107.389 84.9354
-112.442 7.14912 103.929
110.043 110.427 85.3731
-103.883 0.408655 113.206
103.17 105.614 88.3381
-183.621 -34.8991 148.141
100.034 105.061 92.6206
-76.73 4.36139 111.466
104.21 106.409 88.8549
-85.7145 -7.64257 125.661
106.682 108.521 90.7131
-112.773 -28.7218 149.89
105.655 107.345 93.6654
-69.2175 15.0103 99.7706
105.786 106.713 85.2138
-44.5382 26.2518 89.4959
107.5 107.841 81.7793
-22.516 31.9998 85.8771
107.077 106.608 77.9867
-124.157 -25.3829 143.846
102.446 105.993 93.6238
-121.179 -7.02706 120.213
105.379 107.852 90.9204
-148.492 -25.1228 139.963
101.023 105.407 92.9758
-202.49 -46.5542 160.787
96.3495 102.653 95.227
-196.289 -57.7575 176.531
98.3248 103.412 95.6526
-304.685 -85.74 198.114
