17.4459126 -23.0856892 122.2065538
17.4696371 -25.4973806 122.6392686
17.5141152 -22.0465958 121.9854355
17.6379420 -24.0091160 122.1380085
17.6994540 -23.7784721 122.0335141
17.7234411 -24.5736707 122.2262010
17.7546274 -30.8031067 124.0142956
17.8062581 -25.1397993 122.3071367
17.8468991 -24.1134558 122.0098883
17.9805513 -23.6484855 121.8198538
18.1940086 -31.0020633 123.8242388
18.1914251 -26.3727121 122.3560274
18.3579791 -25.8900356 122.2633347
18.4082892 -26.4733359 122.2488731
18.5384005 -26.8219337 122.1552566
18.6160412 -24.9630865 121.8663007
18.8277550 -27.4925083 122.1124232
18.8630689 -25.0476710 121.8453348
18.8812669 -27.2666011 121.9816506
19.0062393 -26.8077627 121.7530370
19.1480517 -29.1538164 122.5370318
19.4324963 -29.0211253 122.3379150
19.4892883 -27.7898721 121.8120381
19.6069553 -30.3481407 122.8068992
20.3170385 -30.6203011 122.6537079
20.7901336 -29.7949016 122.1429184
20.8598953 -30.5623319 122.4688068
21.1070850 -30.6474399 122.4486306
21.1631190 -30.4192584 122.3258972
21.3017315 -30.9592187 122.5599945
22.4358849 -30.8208875 122.3357096
22.9049567 -31.1950818 122.5177571
23.4960206 -31.1137997 122.4760935
25.1817368 -31.3089825 122.6700172
25.5238507 -31.1433319 122.6476058
25.5869552 -30.9093967 122.5562841
25.7954504 -31.2142465 122.6975247
26.6860686 -31.1802179 122.8169948
27.0023830 -30.0391726 122.2862229
27.7635790 -30.6574870 122.8965446
28.4359250 -30.5162799 123.1434792
29.0800799 -29.0156156 122.2722679
29.1520543 -30.3684995 123.4682724
29.2842872 -29.9129337 123.2647821
30.0913136 -29.3138698 123.3191863
30.1059838 -29.1023906 123.0925173
30.4580331 -29.3192174 123.6901209
30.6773577 -27.6530944 121.9843850
30.8242999 -29.5392480 124.3010163
30.8546014 -29.1176680 123.8502786
31.0825612 -27.2532031 121.8744963
31.7314044 -27.9108696 123.2105717
31.7714959 -27.2964686 122.4697754
32.1180709 -27.7153980 123.3415231
32.6025151 -29.2086080 126.4008582
32.8970328 -26.7434437 122.7280274
32.9681858 -28.2709561 125.2623349
33.3357900 -25.5657826 121.5016842
34.1733806 -27.2843912 125.1957715
34.4149023 -25.0505079 121.6025651
34.8155349 -26.0117762 123.5649437
34.8523669 -26.1906516 123.9649355
35.1256356 -24.7181263 121.6362342
35.6881432 -26.3326000 125.3418624
35.8503051 -25.1240041 122.9625419
36.2698063 -26.6142320 126.9576550
36.5669392 -26.2769200 126.5245378
36.7911831 -23.9054933 121.4555427
36.8643999 -24.6358588 122.8933036
37.8571302 -25.4644901 125.9658784
38.1557830 -24.2112316 122.9173690
38.4000242 -25.0277799 125.2043992
39.3584780 -24.7656517 125.2753437
40.4627211 -24.9746740 126.7378926
40.7633558 -23.5699452 122.2645715
41.0800129 -24.5233364 125.1204014
41.1681831 -24.6647317 125.7077754
41.5535234 -25.5223643 129.8624426
41.6385420 -23.9225216 122.9901388
41.9466272 -25.0278376 127.2296607
42.0851782 -26.0359272 130.5842698
42.1687476 -24.5967023 125.1290143
42.2610380 -24.1941791 123.7039566
42.3676446 -25.1953378 128.0942708
42.5712727 -26.0005146 130.2495599
42.5550900 -23.7165205 121.8153462
42.8446233 -25.9002894 130.0619990
42.9103300 -24.6452224 124.8170510
43.0381410 -25.4390873 128.9712340
42.9950468 -23.7177350 121.3166937
43.5654856 -25.7707071 129.4050515
43.6353795 -25.3833290 127.8999299
43.6519422 -24.8850342 124.8130649
43.7469929 -24.1468344 121.6503531
43.9880602 -25.5882852 128.5521835
44.4977805 -25.5892780 127.1929741
44.7822213 -25.0120908 122.7253899
44.8618568 -25.6393850 126.4653653
45.0184941 -25.4316255 124.4198456
45.3949943 -26.4524277 128.8995743
45.5015749 -26.5986770 129.5859963
45.9370092 -26.6119130 129.1076392
46.1829975 -26.6811829 129.0930957
46.5446897 -26.5884101 126.9228309
46.7756055 -27.1507371 130.0429404
46.8627326 -26.8159229 127.4862438
46.9416752 -26.8083196 126.6135722
47.0221937 -26.6654268 124.3301630
47.6580560 -27.3904465 128.2980591
47.8709564 -27.3946095 125.6152242
48.7348326 -28.2488856 128.4063011
48.9482619 -28.1679295 123.1139004
49.4905971 -29.0280189 129.4066757
49.6492349 -29.1613787 129.1134208
49.6650413 -29.0666036 126.5735328
49.9618389 -29.2012244 124.4013757
50.3724255 -29.6134781 124.4409233
50.3748544 -29.7980160 124.8162389
50.6108776 -30.2244052 130.3041428
73.7510845 -23.0350588 128.2561272
75.0499591 -22.1740510 129.0592253
85.2688476 -30.4608159 128.6062300
85.6215209 -29.4834096 128.6635846
85.6078267 -30.9938062 127.0515621
85.7513025 -28.1887222 129.6503693
85.8324319 -31.3492194 126.0118783
86.2547457 -28.2252152 128.1189770
86.2802863 -28.6366269 127.6158988
86.7107213 -30.8627654 123.8745973
86.9330540 -31.2409308 122.7476969
87.0511010 -26.4988076 127.5163144
87.0817229 -30.3267688 123.3034506
87.3454139 -29.6062939 123.2877150
87.5390247 -23.6178301 128.8947016
87.7598301 -22.4836227 129.4218749
87.7846256 -22.9155943 128.8215965
88.2126689 -26.1409786 124.1946295
88.3647799 -23.1514983 126.5795380
88.3152634 -26.3064336 123.6885414
88.4375572 -22.9148082 126.5506893
88.4489045 -25.4372973 124.0922436
88.7316838 -24.0876637 124.4661286
88.7839273 -22.4067215 125.8457899
88.7621418 -24.5017521 123.9452362
88.8786763 -24.6928539 123.3586743
88.8577029 -27.2193961 120.8867654
89.0750512 -23.5704891 123.7837151
89.0953243 -25.0285938 122.3361120
89.1721696 -24.7959886 122.2909018
89.2172530 -24.1582133 122.7303371
89.1775265 -26.2956452 120.6853166
90.1519582 -22.8357948 120.6787601
90.1819766 -22.1990142 121.1004034
-7.4646389 -13.7202693 123.1652871
-6.0861139 -14.5100020 123.9163280
-5.6696697 -13.9185935 123.5097349
-5.6213881 -18.3675885 126.6925633
-5.4292525 -17.4689665 126.1219382
-5.3930203 -15.6143019 124.7688830
-5.3992691 -12.3470128 122.3635897
-5.0643156 -15.4633336 124.6820688
-4.1376194 -15.2247706 124.5597005
-3.8853213 -12.2562535 122.4044785
-3.5668656 -15.3630907 124.7068569
-3.4999137 -20.0145599 128.1698048
-3.4121934 -17.9526377 126.6701370
-3.3376676 -17.5063442 126.3404936
-3.1414933 -21.2614313 129.0902197
-2.8472142 -19.7113827 127.9961616
-2.8278204 -14.6198841 124.2079809
-2.5734701 -16.5333655 125.6681532
-2.5243885 -16.3181834 125.5128086
-2.5447607 -14.6880262 124.2794991
-2.3303670 -20.0654306 128.2860190
-2.3888729 -12.1668391 122.4130988
-2.2875422 -19.8440440 128.1308532
-2.2801145 -18.2291940 126.9468218
-2.1348866 -17.3344873 126.2834370
-1.9608405 -19.6904745 128.0485094
-1.8768274 -20.8624694 128.9272308
-1.8560449 -12.5273596 122.7330044
-1.6763833 -18.1473810 126.9175708
-1.6079402 -14.4539168 124.1746992
-1.3170996 -14.5265609 124.2557839
-1.2400289 -14.0811307 123.9245832
-1.0977878 -21.5132013 129.4721514
-1.2007176 -12.2290663 122.5521490
-1.1669002 -13.6314984 123.5914081
-0.9625482 -12.5188855 122.7810532
-0.6318538 -15.6225003 125.1123101
-0.6322878 -14.0021406 123.8993332
-0.6361289 -12.3681389 122.6910502
-0.4585161 -21.2043598 129.2871088
-0.3413206 -18.9297087 127.6004910
-0.3925213 -14.2957633 124.1244823
-0.2881575 -20.3240160 128.6593527
-0.0881153 -20.8257660 129.0606558
-0.1255217 -14.3652540 124.1627783
-0.0358909 -20.6091702 128.9153546
0.0564622 -16.7222098 125.9670705
0.0467779 -11.8318330 122.3463342
0.2441678 -13.9970770 123.9102632
0.3417264 -18.4028223 127.2541285
0.3988588 -21.4088466 129.5178682
0.5761228 -13.8355028 123.8502786
0.7932726 -17.5813269 126.7039627
0.7535428 -12.9371174 123.2438534
0.8863298 -15.5262155 125.1871288
1.0105936 -21.3120095 129.5376122
1.0597602 -17.8917330 126.9463152
1.1336646 -13.9886215 123.9503250
1.1926240 -13.7516623 123.8523722
1.2095399 -12.1209491 122.6785257
1.3992481 -14.0651036 123.9768043
1.6100551 -21.2254394 129.5168400
1.5852730 -13.3691663 123.6659735
1.6602025 -14.1430357 123.9947155
1.6985515 -12.6972571 123.1703609
1.9379145 -21.0811235 129.4202507
2.2253243 -20.9260918 129.2793751
2.2778325 -14.0579026 124.0008622
2.5230185 -13.1276445 123.5849336
2.7508824 -21.5165652 129.7883838
2.7013049 -13.6576099 123.9080504
2.9771377 -12.3135252 123.0147853
3.0160132 -12.0927896 122.8456646
3.4692485 -12.8908558 123.5125139
3.5103280 -12.6688220 123.3503371
3.6963641 -20.8350290 129.2421967
3.6511316 -13.4145739 123.8556355
3.7175792 -14.2005412 124.1315752
4.2141378 -21.6218159 130.0356984
4.2518675 -21.4063879 129.8636943
4.1883574 -12.1381683 122.9944825
4.3324362 -14.1101517 124.1568029
4.6094093 -14.1880671 124.1952553
4.6830443 -13.9486101 124.1337582
4.7705257 -14.4987246 124.2741868
4.8032464 -12.0582944 122.9922771
4.8661702 -14.2661156 124.2100671
5.2524852 -12.8633752 123.6426011
5.2972357 -13.8663072 124.1285279
5.5599655 -13.9427669 124.1550893
6.0450980 -13.3027472 123.9864901
6.1932709 -13.8515895 124.2089719
6.3265520 -21.4321986 130.1116794
6.9662905 -21.1290680 129.9285740
6.9906036 -20.9179614 129.7231764
7.1409680 -13.7732727 124.5160922
7.5824042 -13.1895402 124.1493970
7.8828996 -21.1166274 130.0445944
8.0891363 -20.0003758 129.2783916
8.2524288 -17.7145842 127.6978105
8.4503442 -13.3929197 124.4258583
8.5742520 -12.7297994 123.9383072
8.8380007 -17.6413450 127.6339144
9.0526612 -21.1480521 130.2232444
9.0127150 -13.5305319 124.5750859
9.1234492 -16.0998888 126.5008450
9.1920504 -18.8797452 128.5769790
9.1862911 -12.6413889 123.9508986
9.3303984 -21.2113578 130.2988082
9.3229748 -18.2210431 128.1095296
9.3228621 -11.9842263 123.4772727
9.3935085 -13.1587209 124.3576109
9.5252385 -17.1158556 127.3065805
9.5872087 -19.8915862 129.3661147
9.5058624 -12.4797169 123.8735393
9.8210210 -15.5682303 126.2022406
10.0078350 -17.6917762 127.7849823
10.0839930 -18.8623592 128.6591142
10.1544801 -15.4187726 126.1340380
10.3554428 -14.3086556 125.3271103
10.4192123 -18.7162254 128.5909712
10.5020739 -21.2611724 130.4550171
10.9272934 -19.0591030 128.8978755
11.0085923 -18.6195299 128.5756081
11.0413833 -15.3961517 126.2174249
11.1822374 -13.1138135 124.5532036
11.4047118 -19.6348280 129.3640882
11.5839597 -14.1355228 125.3620535
11.6710858 -21.1046916 130.3476393
11.7239570 -19.4925107 129.2634755
11.6864126 -12.0720146 123.8606423
11.7183430 -13.4745445 124.8951778
11.8904840 -21.4021727 130.5276155
11.8003748 -13.0300624 124.5743930
12.0042693 -17.9534592 128.1244755
12.0226312 -19.3489026 129.1198879
12.0976809 -20.3054566 129.7310293
12.1870544 -19.8629368 129.4301897
12.1713104 -17.0704778 127.4899393
12.1677453 -15.6734232 126.5221387
12.2203836 -16.8545488 127.3413301
12.2707561 -19.4247756 129.1121691
12.2698853 -18.0307571 128.1565726
12.3116681 -19.2034058 128.9520413
12.3962434 -20.1687776 129.5815259
12.3957284 -17.3684023 127.6818365
12.5298090 -18.1083176 128.1760782
12.5603238 -19.2887373 128.9374381
12.5250220 -15.3071946 126.2547374
12.6198949 -21.6547288 130.4467618
12.6621602 -14.6422386 125.8035749
12.7472179 -14.1947577 125.4941076
12.8355138 -20.5572788 129.6707392
12.8266979 -12.3525010 124.1936088
12.9433386 -18.7108647 128.4712106
12.9753472 -21.0934207 129.9129426
13.0188195 -20.8751597 129.7622025
13.0461082 -19.4627456 128.8806051
13.1526235 -13.6054466 125.0812560
13.1447688 -12.1964710 124.1057441
13.2309003 -19.7771695 128.9698780
13.2832304 -12.9376920 124.6163994
13.3620761 -20.3127544 129.1762590
13.3227436 -14.1266454 125.4058629
13.3247450 -12.7185155 124.4523153
13.3672981 -13.9021212 125.2555251
13.4385806 -17.4804721 127.4882704
13.5004008 -18.4523966 128.0630976
13.4920385 -14.6471141 125.7281303
13.5532506 -15.6268682 126.2978166
13.5850320 -18.0074703 127.7383864
13.6348838 -12.5729069 124.3322194
13.7197673 -19.7474472 128.6460608
13.8334408 -20.2933736 128.8028210
13.8179865 -13.0959135 124.6866137
13.9004197 -21.0614707 129.1014254
14.0857771 -15.5711602 126.0928065
14.1388094 -16.5505540 126.6437620
14.1567066 -12.7289901 124.3745536
14.2701361 -15.8858169 126.1754632
14.2805437 -14.6772265 125.5273968
14.3674854 -20.8441541 128.4708977
14.3777737 -19.8413488 128.0733943
14.4118536 -21.6273405 128.6780387
14.4101763 -16.4268725 126.4274120
14.5369442 -16.9637259 126.6097277
14.5060308 -12.3613784 124.0873709
14.5646380 -19.9547876 127.8929114
14.5748071 -18.9487804 127.5334656
14.6175176 -19.7314061 127.7486682
14.5686334 -13.3387716 124.6655658
14.6263326 -18.7248420 127.3933053
14.6760726 -16.2982736 126.1710525
14.7090312 -12.6695950 124.2232621
14.8065044 -21.6472615 128.0916929
14.7570791 -12.4464333 124.0790039
14.8025947 -14.6341203 125.2908409
14.8086166 -13.4265264 124.6271133
14.8539701 -21.4244127 127.9528588
14.8727717 -18.6108835 127.0843148
14.9111142 -21.2002210 127.8201193
14.9547122 -17.1702560 126.3614446
14.9931973 -13.7404893 124.7103438
15.0010530 -12.5309946 124.0518764
15.0777828 -14.5066818 125.0778437
15.1559180 -18.2793252 126.6126335
15.2072301 -18.0551950 126.4768839
15.3091671 -19.4103364 126.7397553
15.3378341 -12.1725816 123.7270236
15.4325543 -19.7564270 126.6401112
15.4286791 -12.9328482 124.1046339
15.4755786 -12.7105201 123.9585802
15.5060105 -20.9297445 126.5293956
15.5212367 -15.7022029 125.2897978
15.6058734 -13.2524362 124.1692528
15.6256706 -12.0366812 123.5428751
15.6450476 -17.0475543 125.6230623
15.6699736 -16.0337035 125.2819151
15.7806650 -17.3871238 125.5551130
15.7950185 -21.6138139 125.4544258
15.8255473 -13.3512234 124.0790114
15.9200113 -18.5246449 125.6461143
15.9272850 -14.9095990 124.6158406
15.9561690 -17.5049715 125.3440380
15.9664024 -19.1033334 125.6312430
15.9842074 -13.6778727 124.0846142
16.0331596 -14.4586191 124.3445426
16.0568915 -16.2552800 124.9321848
16.0851032 -14.2334048 124.2081225
16.1300283 -17.6233351 125.1281649
16.1460731 -12.9994750 123.7082630
16.2450783 -17.1738006 124.8593330
16.3010936 -18.5578149 124.9682978
16.3149498 -19.1510115 124.8714179
16.4662935 -16.2619408 124.3982986
16.5109187 -15.2395098 124.1014600
16.4819714 -21.5029661 123.6976460
16.5290609 -16.0373300 124.2580786
16.5182035 -12.4218287 123.1955290
16.5579990 -20.0565346 123.9364296
16.5708363 -18.2226971 124.4983450
16.6442618 -16.3788851 124.1877452
16.6968871 -15.3531618 123.9117309
16.6778564 -21.4161463 123.2440397
16.7755913 -18.7401921 123.8889694
16.8122686 -17.3044931 124.0688190
16.8291945 -16.4990649 123.9608377
16.8054160 -20.3474537 123.2006550
16.8781374 -20.7213070 122.9554862
17.0038901 -15.8119388 123.6270666
17.0216225 -18.4217226 123.3212054
17.0467459 -21.4473158 122.5759685
17.0901492 -12.9569946 122.9432598
17.0856044 -20.6217635 122.5604862
17.1565935 -17.9599468 123.1262684
17.1866864 -15.1268486 123.2821196
17.1816051 -20.9881384 122.3645210
17.2171611 -21.5761252 122.3145500
17.3038039 -14.6696828 123.0527386
17.2978770 -13.8637563 122.9404360
17.3158497 -12.0466352 122.4541813
17.3434261 -21.1132877 122.1129075
17.4292773 -17.6350586 122.6047352
17.4334105 -17.0215275 122.8011400
17.4828172 -13.9791416 122.7363199
17.4738448 -20.6480976 121.9232827
17.4849741 -19.2275979 121.9955459
17.5459646 -15.3622599 122.8555813
17.5582822 -18.3900427 122.0626831
17.6024530 -15.1310442 122.7527335
17.6368896 -15.7165267 122.7016002
17.8210065 -15.0263682 122.3824397
17.8621486 -16.2195750 122.1612170
17.8828426 -14.8010235 122.2527698
17.8965349 -13.9913280 122.1593693
17.9302022 -15.9843937 122.0811009
17.9659706 -12.9496176 121.9663769
74.8407617 -21.0098363 127.0931065
76.0368183 -20.5481537 128.2848716
77.1314949 -20.3475691 129.4015199
78.2487020 -18.2922632 128.4086853
78.3015490 -18.0876236 128.2395869
78.7767693 -17.2662772 127.8456897
78.7596032 -13.9051806 124.0982562
78.8054988 -13.6935217 123.9287704
79.0064856 -14.5393377 125.1315624
80.1134408 -15.6307016 127.5634766
80.1638588 -12.4244196 124.3630871
81.0746551 -13.1122563 126.0918528
88.1442875 -20.9110025 129.8065037
88.2557184 -21.5155482 128.6353916
89.0118405 -18.7826324 128.8248152
89.0692174 -18.1696545 129.2185336
89.3253237 -19.7546910 126.4458597
89.3886760 -20.5637757 125.4483163
89.6129683 -18.8379474 126.2184978
89.5646885 -21.5538647 123.8924563
89.7612199 -16.9111751 127.7165413
89.8812637 -14.6047957 129.6754777
90.0769681 -17.8622250 125.3926903
90.1896060 -13.0963055 129.7550052
90.1675597 -16.6080371 126.2583733
90.1124775 -21.4014500 122.0294312
90.2547911 -15.3453862 127.1697581
90.2843177 -13.2624125 129.2064786
90.3198570 -17.6003408 124.6179491
90.7199234 -14.7996852 125.6818473
90.7501727 -18.2970818 122.3906726
90.8087343 -14.9781033 125.0751615
90.9012035 -12.6866754 126.9567460
90.8517390 -18.4711423 121.8270957
90.9816921 -13.9047103 125.3366172
90.9237340 -19.2816351 120.8275631
91.0581797 -12.6559036 126.1963993
91.0368115 -15.7506820 123.3191863
91.2153795 -16.7258158 121.7730418
91.4895386 -13.1717091 123.5471889
91.5338770 -15.6078888 121.2955415
91.5962383 -15.3843854 121.1982667
91.8856934 -12.2373132 122.4335581
92.2443271 -12.5513943 120.5004826
4.0650144 -11.1829089 122.2549751
7.0164432 -11.4257885 122.7773875
7.2970414 -11.4891585 122.8597760
7.4413726 -10.8359028 122.3915219
7.5518154 -11.7892167 123.1105849
7.8304885 -11.8517550 123.1907755
8.9564156 -10.7247857 122.5140095
9.5700761 -10.6417127 122.5211695
13.0903777 -11.0197887 123.2594475
13.2359704 -11.7521919 123.8020360
13.4019656 -9.4631109 122.1727952
13.6098200 -11.3793071 123.5753298
14.2818540 -10.8545432 123.2105643
14.7098210 -11.4600612 123.5443652
14.7315972 -10.0415684 122.6394176
14.8063768 -11.0205989 123.2499555
14.9091920 -11.7740538 123.6679479
15.1371174 -9.4415518 122.2338304
15.5424057 -10.0654615 122.4981919
15.7276150 -11.5909707 123.2747212
16.4684244 -11.6385156 122.9220331
16.5077299 -10.4143983 122.3587841
16.8422982 -10.0551788 122.0245883
17.0109291 -11.3852872 122.4686205
79.8926875 -10.6920814 122.2994477
80.0171718 -11.5577523 123.3177930
80.6127340 -12.0078921 124.4841740
80.8748603 -9.5962584 122.6142943
80.9513181 -10.5034057 123.4028190
81.0631141 -10.0756809 123.1130958
81.1137706 -11.3783395 124.4541258
81.2041685 -9.6291760 122.9385808
81.3533515 -10.3077870 123.6647442
81.3818127 -8.9517320 122.6440668
81.4561471 -9.8745525 123.3777106
81.5766752 -6.7661433 120.8160147
81.7572176 -7.4347346 121.6509193
82.1842998 -8.3553512 122.8914559
82.2370350 -9.4702700 123.9079386
82.5808048 -9.4828950 124.3328974
82.8358829 -8.6186742 123.8460094
83.0141231 -6.4173727 122.0638379
84.1387510 -3.5731054 120.9539473
84.1596350 -3.3483678 120.7820997
84.5940337 -3.1302571 121.2076470
87.4398202 -7.8450944 130.1684976
88.1996453 -8.0466270 130.3950995
88.2872418 -6.6769887 129.5880079
88.7661576 -5.8838259 129.1546226
88.9593586 -7.1124751 129.8110634
89.0436098 -4.8032706 128.5103858
89.1765058 -5.3052795 128.8103461
89.4192830 -5.3854994 128.8367063
89.4873664 -8.0025820 130.1548779
89.5264149 -8.7454598 130.4179877
89.7403434 -8.8378889 130.3302944
89.8040310 -3.8728842 127.9136688
89.8928940 -9.1490243 130.3487867
89.9366513 -5.3281737 128.6734939
89.9306834 -4.3904944 128.1839907
90.1432335 -7.3231594 129.4863075
90.1851207 -8.0646770 129.7574788
90.2110413 -6.1527421 128.9506853
90.2106315 -3.2995280 127.5411546
90.3246477 -5.7201013 128.6984980
90.3634131 -11.4318645 130.3081810
90.4429480 -4.3358440 128.0012280
90.5277133 -6.7677060 129.0144473
90.7337368 -10.1166004 129.6927184
90.7210559 -4.2068004 127.8197765
90.7590687 -9.3359873 129.6662837
90.7929465 -6.6479952 128.7783384
90.7730460 -3.0420229 127.1983534
90.8546820 -6.4294245 128.6609471
90.9407437 -6.9631627 128.7729442
91.0118669 -9.8320395 129.0424019
91.0243317 -7.4961213 128.8902909
91.0770148 -9.6035032 128.9862692
91.1121443 -8.0315890 128.9751083
91.1044106 -3.6498331 127.3442507
91.1650732 -7.8168400 128.8444996
91.1548138 -3.4380225 127.2006333
91.1549404 -11.8067302 126.5461147
91.2105590 -3.2212797 127.0553023
91.2484452 -4.9176118 127.7795285
91.2639722 -9.9446550 127.8229356
91.3439244 -11.1351097 126.2875199
91.4507136 -6.7321495 128.2514334
91.4745629 -4.0521906 127.2854209
91.5102065 -4.7996864 127.5315881
91.5094092 -9.0775751 127.3488402
91.5385783 -8.4586991 127.7691424
91.5411040 -5.5475868 127.7860701
91.5972739 -8.2354611 127.6805997
91.5614367 -10.8791981 125.4352927
91.6248709 -10.6655871 125.3005117
91.7323381 -5.6546712 127.6000887
91.7865112 -3.7205981 126.9017011
91.7982161 -2.7637340 126.4623702
91.8983221 -3.2900320 126.6170740
91.9052213 -8.1578195 126.1879504
91.9240788 -7.5437822 126.5766472
92.0041129 -2.8613161 126.3392270
92.0792148 -5.1298128 126.9248724
92.0166075 -8.7234378 125.0789762
92.1575800 -5.4940437 126.6070902
92.1325684 -8.3014742 124.7684732
92.1838433 -3.9268602 126.5676618
92.1834707 -8.0832411 124.6425807
92.2958031 -3.4970869 126.2893230
92.2409147 -9.9093243 122.6120815
92.3925936 -4.6254508 126.1190623
92.4578384 -2.8522583 125.8752197
92.4624652 -3.6173270 126.0186881
92.5135314 -3.4051978 125.8614659
92.5455913 -3.9790994 125.7081032
92.5694257 -3.1941819 125.6962270
92.6151872 -4.7586262 124.7203797
92.6269442 -4.1585853 125.0424832
92.6771089 -2.7609870 125.4409999
92.6633030 -7.7529694 122.1895218
92.7115828 -6.5326910 122.9238808
92.7535444 -7.9474319 121.4712411
92.9088145 -7.2940472 121.0704148
92.9349214 -6.6807787 121.4522421
92.9987058 -4.2649009 122.7860674
93.2773501 -4.1788304 121.2485433
93.4014767 -3.5637452 120.6098720
88.5728747 -2.3845350 126.8413961
88.7936354 -1.5128342 126.3336688
88.9835432 -0.8679490 125.9862930
89.1420841 -0.2197874 125.5679131
89.2348662 -0.9218816 126.0969937
89.4148126 -2.3523951 127.0591915
89.5854235 -1.7054400 126.6762167
89.5701274 0.3822811 125.3283769
89.6096751 -0.5585815 125.9371340
89.6327272 0.5985104 125.2144575
89.7467136 3.1248445 123.6430407
89.8289829 -1.7706245 126.7275363
89.8367688 2.4038150 124.1233572
90.0723785 -1.8446405 126.7597377
90.1546106 0.4555779 125.4029721
90.1889503 -1.4179922 126.5105009
90.2294293 -0.2638940 125.8364618
90.3583989 -0.7653876 126.1322051
90.4032886 2.4933738 124.1823286
90.4918611 1.7622286 124.6404052
90.5491635 -2.0019657 126.7786473
90.6053707 -1.7906210 126.6524345
90.7214358 -2.3072050 126.8836409
90.7111764 2.6323816 124.1083518
90.7786563 -2.0891998 126.7582476
90.7589048 5.9023770 122.1541166
90.8005834 4.0135607 123.2840568
90.8405110 2.1270986 124.4015843
90.9441561 -2.3952131 126.8402189
90.9699202 4.6618050 122.8901744
91.1125168 -1.7436283 126.4433414
91.1014006 0.1556061 125.4519075
91.1692604 -1.5266289 126.3161898
91.2112370 0.5823585 125.1890212
91.2278518 3.6415611 123.4665737
91.3314596 -1.8325265 126.3702512
91.4361104 -2.3555402 126.5368611
91.4466307 4.5089792 122.9217649
91.4618745 3.5602101 123.4622449
91.4992690 -1.1840288 125.9852499
91.5176943 6.8343640 121.5308979
91.5654898 3.9948067 123.1620684
91.5739313 7.0536290 121.4012280
91.7024091 -2.2349069 126.3075322
91.6915610 3.4832999 123.4302968
91.7005613 6.5366835 121.6777861
91.7698070 -1.0594594 125.7582903
91.8168128 -1.8007874 126.0668486
91.7925835 3.9064637 123.1281012
91.9278264 -1.3687944 125.7971674
91.9298679 2.4475139 123.9136606
91.9873789 -0.1977474 125.2158433
91.9547454 5.5139889 122.2318783
92.0437723 0.9724042 124.6137992
92.0574293 5.9430222 121.9293252
92.0934826 7.1088672 121.2327778
92.1998471 1.6162711 124.1571158
92.1997279 2.5684263 123.7128899
92.2357589 -1.9923898 125.8390844
92.2141522 6.5902080 121.4833334
92.2538936 2.7853276 123.5644966
92.3008695 3.9558257 122.8954792
92.3004225 4.9126670 122.4194840
92.3609361 1.3076857 124.2181584
92.4054161 3.4244098 123.1274977
92.4605206 1.7334353 123.9202023
92.5543308 -0.7058042 124.9738410
92.6203057 1.4250665 123.9632517
92.6363617 -1.2382682 125.1242459
92.6225930 5.2486900 122.0684350
92.6537067 -0.2780619 124.6934980
92.6726907 0.6866897 124.3109778
92.6757231 4.5081144 122.3904267
92.7325040 3.7692941 122.7445155
92.7855819 2.0726616 123.5097870
92.7982330 -0.5992096 124.6376857
92.8436965 -0.3842203 124.5090365
92.8618610 0.5837188 124.1684556
92.8823650 5.3665969 121.8256354
92.9280296 -2.2872807 124.3985891
92.9631665 0.0462293 124.2088377
92.9915309 5.8012111 121.5063483
93.0707157 -1.0698611 124.1201013
93.0285826 6.9665760 120.8060682
93.1140706 1.6480597 123.3489439
93.1582674 0.8965991 123.5723570
93.1395665 3.5718796 122.4944517
93.1952149 3.7873900 122.3232448
93.1980610 5.7034483 121.3898361
93.2897702 4.2123152 121.9979227
93.2857171 -2.3834135 122.1532449
93.3464244 5.3877328 121.3997230
93.3678299 2.7197616 122.6040721
93.3991149 1.9587961 122.7594614
93.4697390 3.1428509 122.2364828
93.4774280 4.1039549 121.7926070
93.5741886 4.5270654 121.4312166
93.6228856 2.9995318 121.7666864
93.6620831 4.9491003 121.0759059
93.6939791 3.4147573 121.3657409
93.7491134 5.3712549 120.7173988
91.1458954 7.4333725 121.2270185
91.9755176 7.6286392 120.9956706
-12.4786170 -62.5248179 134.2624277
-11.9704567 -62.7575144 141.0546452
-10.4056774 -62.8249347 140.5827552
-10.2463719 -62.9174411 141.2352622
-9.1590760 -62.7484098 133.9798272
-9.0703014 -62.8850088 134.4653666
-6.5347957 -63.1036013 141.3817704
-39.3096618 -54.5450188 133.5054338
-39.2681099 -54.3234460 132.4927956
-38.2262878 -55.6010492 136.1969858
-38.0866043 -54.9880043 133.2475692
-37.8880687 -55.8502637 136.6103441
-37.9491299 -54.9408235 132.7163726
-37.6571268 -55.5656292 135.2000237
-37.6324356 -55.9398606 136.5920752
-37.5409126 -55.7189733 135.7182413
-36.4589281 -56.2130734 135.9999180
-36.1487605 -55.7195321 132.8042895
-35.5959274 -57.3586598 139.0593499
-34.9823870 -56.9224209 136.8321329
-34.6890204 -56.2804937 132.5051934
-34.4275720 -56.8897612 135.7953697
-34.1802165 -57.5283542 138.1890178
-33.9508206 -57.2492033 136.7695034
-33.8586420 -58.1409894 139.8955435
-33.7986387 -57.1914390 136.2678409
-33.7361991 -57.9120666 139.0910596
-33.5342512 -57.2822206 136.2758726
-33.2825370 -57.1740344 135.1324767
-33.0325067 -57.4381873 136.2020224
-32.8880250 -57.2221987 134.5872730
-32.4523821 -57.9400994 137.6662999
-32.2228372 -59.1560788 141.6023970
-31.6736698 -58.1771955 137.6340389
-30.8505762 -58.0667220 135.5100572
-30.6265522 -57.9872094 134.3000382
-30.5119976 -58.6316250 138.1305605
-30.4841474 -58.1064299 134.8790377
-29.6224952 -58.3259538 134.1706365
-28.3860210 -59.2445470 138.1800920
-28.4701064 -58.6365461 132.6469332
-28.2704309 -58.7218776 133.3669573
-27.8709866 -60.2956526 141.9588625
-27.5794044 -59.4652109 138.2214874
-27.2566862 -59.8663762 139.7158653
-27.2242445 -60.2035783 141.1416382
13.9312595 -51.3487458 137.7151161
13.9251705 -51.5903942 136.9989812
14.1139366 -51.3658710 139.4814551
14.1015928 -51.6114049 138.7505978
14.0942223 -51.8540330 138.0338371
14.0474178 -52.4142645 135.5228722
14.0820248 -52.5868349 135.8360201
14.2262215 -51.9574061 138.6645138
16.1407348 -58.6664937 132.3245317
12.0048514 -42.8972021 141.1869377
12.0654562 -42.7897312 138.1684840
12.1778185 -44.0957062 139.3718719
12.2395353 -44.3228222 137.9123330
12.2254957 -44.1368110 137.6289427
12.2343237 -42.6054373 135.4866475
12.3533690 -44.9247696 141.2685961
12.2789582 -43.1986712 135.4115605
12.3882461 -45.4100519 138.9821619
12.4083813 -45.6239022 138.3738369
12.4875112 -45.6884764 140.7358199
12.3967249 -44.4150120 133.5454285
12.4991005 -44.8546410 136.5478933
12.5091271 -44.6611606 136.2842917
12.4812694 -44.4697030 136.0628456
12.6397153 -46.5143733 138.4233385
12.5126038 -45.0442247 131.7327172
12.5507200 -43.3798768 132.5460225
12.7438791 -46.1203866 137.1507645
12.8063792 -46.9348170 140.6545043
12.6690697 -42.1197638 132.2127134
12.8961680 -46.6228761 137.5630200
13.0502805 -47.5240611 138.2997930
13.0927982 -47.6874933 138.6650652
13.3536644 -48.5115610 139.7759616
13.6212995 -49.5153852 141.1838979
13.7501014 -49.8542152 141.1358863
13.8385510 -50.0849225 139.7043616
13.9067955 -50.6936759 138.8090700
1.6045405 -35.9827578 139.7112459
1.6893256 -34.3603939 138.7594342
1.8111707 -32.3137417 137.3948753
2.3865071 -33.8312238 138.4703815
2.5704035 -34.3341008 138.8190091
2.8017522 -33.2389511 138.1055713
2.8624022 -38.3367054 141.3889825
3.0794221 -33.3041027 138.1708533
3.1753737 -35.6266350 139.7251040
3.2545081 -37.9549861 141.2236542
3.2078680 -32.6405838 137.7344728
3.3678785 -36.1339524 140.0767267
3.6890726 -37.3536050 140.9147531
3.6810853 -33.2124010 138.1642222
3.8332164 -33.9355171 138.6792511
4.1604061 -36.5435071 140.4312253
4.1914461 -37.6974978 141.1833316
4.2105867 -33.5672386 138.4646595
4.2928173 -33.1235901 138.1709278
4.3831407 -32.6855853 137.8811747
4.4396152 -35.2262557 139.5931393
4.9856771 -33.9745656 138.7973279
5.0321831 -36.5134850 140.4849291
5.3605489 -33.6037502 138.5837793
5.4014255 -33.3795920 138.4411305
5.5966601 -33.8896289 138.7977600
5.8174655 -35.5491191 139.9095803
6.2383264 -36.3344848 140.4749453
6.5482343 -37.5543647 141.2924975
6.6061513 -35.9615088 140.2564049
6.6579357 -31.6057950 137.3659670
6.7602112 -32.5531252 138.0125582
6.8441131 -32.1104228 137.7196014
6.8892101 -33.2660638 138.5059655
6.9373930 -37.1904001 141.0953701
7.3589049 -33.8384807 138.9299035
7.6201996 -35.2745987 139.8988217
7.7117071 -36.2166427 140.5242383
8.1002321 -34.4678462 139.4246072
8.1412718 -32.8690670 138.3566707
8.3285924 -31.9975056 137.7829015
8.3778119 -31.7823701 137.6383305
8.5103316 -35.2542587 139.9731934
8.7961406 -32.5626135 138.2195950
9.0745725 -32.6267406 138.2916719
9.5176939 -34.5735624 139.5961791
9.5730266 -32.9723880 138.5577023
9.7940285 -31.8855941 137.8137469
9.8349992 -34.4229862 139.5063698
9.9163353 -35.3674702 140.1133835
9.9960752 -36.3061912 140.7216638
9.9817272 -32.3929042 138.1685138
10.0221643 -32.1792141 138.0076855
10.1763504 -35.4398042 140.1382089
10.2055604 -36.6006494 140.8745646
10.2749253 -37.5480726 141.4508075
10.2423579 -32.4674919 138.1926984
10.3206784 -37.3261981 141.3088292
10.3669027 -37.1142440 141.1658227
10.4942797 -32.5375833 138.1996423
10.6276060 -35.8160026 140.2674764
10.6241778 -31.8902880 137.7439648
10.6967734 -37.9373282 141.4986551
10.6899831 -34.2186615 139.2425746
10.7849054 -37.5057496 141.2034482
10.8143175 -36.1212939 140.3592229
10.8965999 -35.6930606 140.0496811
10.8725112 -31.9753587 137.7358586
11.0983448 -34.6185938 139.2508298
11.1470288 -35.5800539 139.7866905
11.1860521 -31.6289812 137.3623163
11.2429168 -36.3192484 140.1580870
11.2549467 -33.7612368 138.5942400
11.2763681 -37.2857712 140.6498700
11.3194725 -37.0704420 140.4743642
11.3575319 -36.8575826 140.3158903
11.3292569 -32.1547799 137.6086771
11.3455672 -34.5084220 138.9868110
11.3919405 -36.6457850 140.1672363
11.4910873 -38.3694619 140.9287155
11.4577683 -32.6861851 137.8019005
11.5062324 -36.0062979 139.6732628
11.5398299 -36.9750261 140.1289105
11.5434164 -34.6153863 138.8362199
11.5730818 -37.9392393 140.6288445
11.5819462 -34.4020054 138.6585534
11.6205495 -36.5461148 139.8156881
11.6190864 -31.8252705 137.1659935
11.6528329 -31.6141546 137.0015889
11.6965408 -32.5794742 137.4930590
11.7254555 -34.7311758 138.6527270
11.7367217 -32.3642083 137.3403221
11.7794685 -40.4259153 140.8637762
11.7868409 -39.4406803 140.4744387
11.7616327 -34.5186442 138.4814233
11.8219946 -41.0108157 140.8038884
11.8338587 -39.6340303 139.9294883
11.8436078 -37.2412577 139.6044493
11.8704066 -36.0501260 139.0041560
11.8521545 -31.7210853 136.8477792
11.9272238 -34.6454643 138.2366270
11.9184777 -32.4801616 137.1635497
11.9378194 -39.4148044 138.9904767
11.9466055 -37.4035053 139.1982138
11.9686788 -35.4176387 138.4728998
12.0040094 -35.2112539 138.2662803
12.0135723 -36.7930941 138.5603994
12.0149218 -37.5886373 138.6834383
12.0001445 -40.0162302 138.0569786
12.0398263 -36.5890749 138.3498758
12.0324390 -34.0067483 137.7332509
12.0292930 -39.8104973 137.8565878
12.0503139 -35.7813500 138.2870823
12.0952139 -41.0249010 136.7539316
12.1557163 -36.3620110 137.4290287
12.1827694 -36.1530222 137.2392029
12.2104902 -34.5463455 137.0601803
12.2098783 -37.1565148 136.7413849
12.2132096 -38.3680910 136.4457607
12.2288316 -35.1335332 136.9932592
12.2415135 -36.3474637 136.6780847
12.2612333 -37.3488627 136.1906379
12.2701852 -39.1661450 135.7574463
12.3222526 -38.7524664 135.3556365
12.5184888 -32.8250676 135.7671320
12.5287659 -36.6762839 134.1833174
12.5966230 -36.8567295 133.6863339
12.6215536 -38.0670577 133.4180981
12.7439583 -31.5411836 134.7485483
12.6950322 -39.8473330 133.1895590
12.7263656 -35.4109332 133.0674589
12.7234245 -37.4242216 132.9062879
12.7575230 -37.2133926 132.7191442
12.8265722 -32.1258567 133.8455379
12.7980160 -35.5919972 132.5644702
12.7898240 -37.8060788 132.6475888
12.8422482 -35.9794982 132.2710663
12.9373316 -37.7530269 132.0774853
13.0001931 -31.6649191 132.8085214
13.1132863 -39.8937501 131.7017972
13.1761488 -39.0601270 131.7327470
46.2798662 -32.0548303 140.6858116
47.2262353 -32.3837325 140.6119615
47.4985614 -32.0750289 140.1062012
47.7270186 -32.1622454 140.0622278
49.0422808 -32.9015739 139.9245113
49.0653403 -32.5117707 139.3636465
49.0746200 -32.3319621 139.1134411
49.9029458 -33.8190719 140.4708475
50.3542423 -32.7280946 138.2357031
50.7799797 -34.3674012 140.4802054
51.0033704 -33.7345302 139.2011046
50.9922765 -33.3857499 138.5734528
51.0902964 -32.2893225 135.9538287
51.2185022 -34.1852829 139.7076845
51.6520031 -34.9150077 140.4663920
51.6500771 -34.7405449 140.1658952
51.8369228 -32.0712514 132.7758729
51.9092269 -33.0573618 136.0265464
52.0833358 -34.9241681 139.9902105
52.1029681 -33.1682265 135.8669400
52.4225608 -32.5845852 132.6085776
52.7281351 -35.0296348 139.4190490
53.1020910 -32.9144746 131.3150227
53.1915165 -33.2191437 132.2573125
53.3212312 -34.9897221 138.3561045
53.3839501 -35.6633961 139.7986561
53.5260364 -35.0926109 138.2346600
53.5260923 -34.2548266 135.5504245
53.6720529 -34.8769873 137.2961700
53.6847599 -33.4303044 131.1220527
53.7454188 -33.5700773 131.6390187
53.8379960 -34.8309018 136.7504448
54.0033840 -35.7859693 139.1359121
54.2334318 -36.0447541 139.3923312
54.6616428 -36.2397060 139.2212659
54.5136929 -34.2020951 131.2424392
54.7060817 -35.5571769 136.9888335
54.6223447 -34.4893783 132.2470456
54.9494401 -36.9942226 140.6115890
55.0109372 -35.4790278 135.7628554
55.3476587 -36.0276364 137.0264143
55.4262809 -36.3254212 137.9019618
55.5092990 -36.6352610 138.8469338
55.6396954 -35.9597355 135.7538998
55.7161644 -36.7352329 138.7277246
56.1655536 -36.1530483 134.7530484
56.1466850 -35.8722322 132.8859776
56.4375818 -37.4911092 139.6302432
56.4565323 -36.8405133 137.3213828
56.6206649 -37.4291651 139.1144693
56.9530278 -36.8721150 135.8901709
57.0842996 -37.7687439 139.3555254
57.4688949 -37.3588689 136.6350502
57.7209406 -38.0644128 139.0759349
58.0752566 -37.3885594 134.4287694
58.3530068 -38.3525416 138.7481540
58.2305677 -37.2464657 132.3329210
58.2889393 -37.4875814 134.3356222
58.4752336 -38.1661095 137.7202570
58.9641370 -39.1171202 140.4628605
59.4422296 -37.9078053 134.1360509
59.7197488 -39.0415527 138.8009042
59.6953593 -38.4336449 136.2962574
59.7723313 -38.5556445 136.8838400
59.9059910 -38.3619741 135.8736157
59.9976629 -39.2766856 139.2591447
60.0532368 -38.1559543 134.9047422
60.1153821 -38.2804498 135.4421377
60.1738319 -37.7889387 133.5181594
60.3822321 -38.9595665 137.9652321
60.6186390 -38.8771445 137.6335472
60.7397258 -37.7026536 133.4878951
60.8110502 -38.6323333 136.8275732
60.9116778 -38.1080769 135.0552589
60.9663464 -38.2414944 135.5700791
61.1094572 -38.6672877 137.0289773
61.2635873 -39.4294858 139.1604841
61.7368892 -38.8732478 137.8763914
61.9425029 -38.0991884 136.1587197
61.9904138 -38.2572860 136.6219223
62.0290898 -38.5733135 137.4073923
62.1528663 -39.7004932 140.0765628
62.7349168 -39.4334942 139.7951692
62.7130121 -38.5633260 138.1462365
62.8520027 -36.4589654 133.5501820
63.0355850 -39.6275260 140.3432935
63.0762205 -38.5608003 138.5605633
63.4018555 -37.6920700 137.2770816
63.6685267 -39.3085703 140.2671188
63.7773126 -37.4994725 137.4257356
63.9727414 -35.3086479 133.0938339
64.5104349 -36.0607617 135.7569396
64.8369491 -37.6576744 138.9472485
64.8964942 -36.2048633 136.6055310
65.2628019 -36.3672860 137.3740733
65.6432658 -34.4113000 134.3082786
65.8779666 -37.1089652 139.1701698
65.9198090 -36.7320552 138.6708915
66.4461926 -33.9795686 134.8213404
66.4119422 -33.2827643 133.4264129
66.8261051 -32.5482786 132.6998621
67.4753934 -34.8676518 137.5586689
67.6262155 -32.1072042 133.2370639
67.9886565 -32.9773724 135.3247762
68.2992116 -33.5379951 136.5456432
79.4794410 -38.2427275 134.4721466
79.5802847 -37.9913040 134.5234662
80.3193748 -36.2064764 135.0180358
80.4189667 -35.9566435 135.0655556
80.9885934 -36.8440412 132.5986534
81.1655223 -35.9141193 133.2249194
81.3037828 -36.5161896 132.2134137
81.4615339 -37.5360698 130.6992322
81.6368386 -36.6127230 131.2999427
81.7742795 -37.2088961 130.3028762
81.8360001 -36.1211859 131.3663572
82.0291787 -35.6149226 131.4653903
82.1254104 -35.3610255 131.5169334
82.7521384 -34.7221754 130.6851804
82.9649493 -34.6503295 130.2257180
83.4090114 -32.9942703 130.8858246
83.4881812 -32.3430076 131.4017028
-0.5513211 -26.4766999 133.1185997
0.0838232 -27.7761016 134.0974271
0.6053718 -28.1279739 134.3930811
0.8472010 -28.4152105 134.6186996
0.9441742 -26.3623334 133.1804395
1.0128998 -30.5229444 136.0979974
1.2143571 -28.0426387 134.3854368
1.5000491 -28.1114411 134.4598383
1.5662332 -27.6607350 134.1394037
1.6419366 -28.8307015 134.9746436
1.6687149 -30.2173682 135.9488815
1.8188166 -27.9544406 134.3748122
2.1924870 -28.9562009 135.1058334
2.3312594 -28.3020455 134.6626729
2.6779582 -29.5300689 135.5609894
2.6951183 -30.9153423 136.5172416
2.7387417 -30.6930635 136.3734007
2.7806053 -24.5013945 131.9993734
3.2480883 -26.6760271 133.6137056
3.2605720 -25.0739381 132.4564517
3.3920459 -30.3867217 136.2236887
3.6267655 -30.6698047 136.4425719
3.7458094 -28.6321267 135.0363642
4.0419973 -30.0757885 136.0764652
4.5998991 -25.8462038 133.1581622
4.9372939 -31.4329229 137.0917410
5.4093115 -24.6538632 132.3790997
5.7584103 -30.2464068 136.3453418
5.9933541 -30.5311866 136.5628242
6.1310451 -25.5133770 133.0697238
6.1496547 -26.8978272 134.0464354
6.3122702 -28.9984364 135.5410665
6.4103492 -25.5782027 133.1428587
6.4277495 -26.9630384 134.1162026
6.5089012 -30.8799930 136.8552893
6.4856955 -28.1199291 134.9422932
6.8734596 -29.1298945 135.6867701
7.1909847 -28.9694052 135.6106102
7.2484794 -31.5129124 137.3465508
7.2465828 -25.7739741 133.3571672
7.3388959 -28.3215754 135.1756752
7.4305511 -29.2564631 135.8342022
7.5708367 -31.3572437 137.2721493
7.7564344 -24.7462243 132.6883137
8.0105904 -30.7760593 136.9329095
8.1279436 -28.7307352 135.5425417
8.1740040 -29.8879873 136.3396943
8.3224326 -29.2383619 135.9109879
8.6090658 -24.9502230 132.9227537
9.1356365 -23.6868486 132.0777833
9.2365649 -27.6169796 134.8698139
9.4402125 -29.4970423 136.2070292
9.7026238 -23.8227658 132.2339475
9.7516952 -23.6042254 132.0904046
9.9237543 -27.0901658 134.5618367
10.1626804 -27.3763556 134.7899735
10.2262842 -25.5553536 133.4996670
10.2423253 -26.9343331 134.4789118
10.2690104 -23.9632037 132.3837489
10.3750229 -30.4311514 136.8224323
10.5118370 -29.7748167 136.3861412
10.4984790 -25.6238151 133.5541010
10.6351012 -30.5084586 136.8422806
10.6555028 -26.3517145 134.0941936
10.6936488 -28.9064590 135.7961893
10.6792692 -24.7554239 132.9497099
10.9535512 -27.5933612 134.8875612
10.9864986 -28.7659187 135.6407851
11.0379942 -31.1050545 137.1056288
11.0772802 -25.5595949 133.4728748
11.2255616 -31.4162895 137.2045577
11.2445168 -30.0279241 136.3227218
11.3104768 -30.9820343 136.8952245
11.3729313 -26.8005580 134.2595667
11.3961352 -27.9828217 134.9902451
11.4452252 -31.5121599 137.1203810
11.4566460 -26.3733864 133.9470446
11.5571143 -29.6825338 135.9393746
11.4939502 -23.3725123 131.8995208
11.6097238 -30.6455083 136.4725530
11.6900001 -29.0302485 135.4980916
11.6668260 -23.8910560 132.2228760
11.7333783 -31.1831497 136.6800070
11.8460543 -28.1675681 134.8372549
11.9394800 -25.1533911 132.9462081
12.0432498 -25.8986838 133.3551407
12.0697385 -24.4920850 132.4813962
12.0950537 -28.0539989 134.5578283
12.1374875 -29.0238801 135.0622475
12.1260034 -25.4659988 133.0437809
12.1558160 -24.0620598 132.1802139
12.2220227 -27.4008904 134.0768486
12.2615965 -25.9956475 133.2594752
12.3239299 -29.1383713 134.8844320
12.4279810 -23.9329897 131.9576502
12.4696689 -26.0981657 133.1294328
12.5121018 -25.8800946 132.9705864
12.5676896 -30.0178323 134.9996328
12.5986589 -25.4435707 132.6711029
12.6093989 -27.6219733 133.7739676
12.6239704 -28.6079198 134.2018396
12.7078043 -28.1731654 133.8909864
12.7381990 -26.9683041 133.3065182
12.7566364 -28.9466456 134.1384798
12.7849858 -31.3250534 134.5883161
12.7977207 -28.7309941 133.9714229
12.7979210 -27.7356636 133.5896701
12.8713120 -29.2890295 134.0633035
12.9286684 -28.0740336 133.5309595
12.9727479 -30.2456208 133.7712854
12.9884603 -28.6432803 133.5590333
13.0903935 -30.2032866 133.1213862
13.1258452 -25.9986203 132.3123872
13.1753394 -25.7789940 132.1532577
13.1746726 -29.7789779 132.7617466
13.1966537 -30.1752649 132.4052364
13.3807817 -26.6812071 132.1616173
13.3904554 -25.6792251 131.8033636
13.4298000 -28.0644838 132.2418749
39.3079892 -27.0983223 133.3546638
39.4165777 -26.4955070 131.7463219
39.7116169 -27.0924196 133.8383108
39.7808775 -27.4188314 134.6577704
40.4170975 -28.0600507 135.9831840
41.0830118 -27.5343787 135.6777102
41.1127135 -26.0964986 131.2279552
41.2157327 -26.3726711 133.2367659
41.4148569 -27.3880120 135.6361955
41.6388437 -28.3956937 137.0711923
41.6211411 -26.7278627 134.3441606
41.6499190 -26.8988591 134.7316206
41.7032354 -27.6072379 136.0975653
41.9623554 -26.9298144 134.9556446
42.0035385 -27.8444812 136.5612298
42.2861688 -26.7764945 134.9055767
42.5851084 -28.1386096 137.1418536
42.8672507 -27.9945470 136.9822770
43.1456566 -28.0528683 137.0899379
43.3957689 -28.5035577 137.6980394
43.5292646 -27.2990074 136.3519281
43.5832404 -29.3408297 138.7199461
44.2648903 -28.2755457 137.5488043
44.3334281 -29.7502577 139.0756667
44.5550308 -30.0257057 139.3035352
44.6100160 -29.6242777 138.8842613
44.6473397 -29.2423517 138.4061724
44.6612798 -29.0243290 138.1616443
44.9109264 -29.1119646 138.1746978
44.9984483 -30.5752400 139.7612989
45.0966768 -29.7794472 138.8852447
45.1362133 -29.3863025 138.4154558
45.3827269 -31.3422680 140.3282285
45.7284003 -28.5547897 137.2629553
46.0699797 -28.9799459 137.0673180
46.1304858 -31.3730761 140.0906742
46.2273546 -30.5815917 139.2066479
46.3915206 -31.2625878 139.8555487
46.5199575 -28.9842617 136.6878599
46.7619002 -29.7962017 137.8746927
46.8896776 -31.0368650 139.2892599
47.5756638 -31.3043073 139.1689330
47.5880913 -31.1115906 138.9040202
47.6237796 -29.0704332 135.6621087
47.8344075 -28.1636119 131.5471530
48.0020717 -31.6716880 139.2633766
48.1776446 -29.4152051 135.0838095
48.2378155 -31.3923098 138.6462599
48.2758395 -28.5269953 131.6653788
48.8860086 -31.1279446 137.4720931
48.9900038 -30.0160572 134.8835528
49.0696616 -30.5137057 136.0611171
49.0849651 -29.6337828 133.4419847
49.1035879 -29.8081934 133.8258088
49.4581759 -30.7310205 135.7309520
49.5405085 -29.5003634 131.6371411
49.8825945 -31.2917344 136.1406296
50.6814644 -31.0398471 133.2073510
51.0128103 -31.1155301 132.3777586
51.0432608 -31.2769823 132.7781677
69.2337751 -30.8961533 133.6259842
69.5947558 -30.6880698 133.7942332
69.7063282 -29.3985642 131.8183988
70.3278407 -30.6659266 134.7197294
70.7754195 -29.7032800 133.8589340
70.8503649 -29.3256417 133.4029883
71.2179840 -29.1185211 133.5878968
71.5299994 -29.5092557 134.4924122
71.5940669 -29.1143395 134.0587586
73.1689483 -25.1899697 130.5981427
75.7867545 -23.7979516 131.9156736
78.1921297 -25.8346349 140.1051730
78.9344758 -25.0844974 139.8349255
79.1130215 -25.5596619 140.2661055
79.1606978 -25.3487695 140.1193440
79.5618892 -23.6828383 138.9382184
79.7274858 -25.2531432 140.1669830
79.7735900 -23.9319280 139.2294317
79.9336731 -24.4026165 139.6308541
80.0176784 -22.8877328 138.4806633
80.2044049 -23.3586598 138.9445513
80.3532004 -23.8307696 139.3200606
80.4500431 -24.5310459 139.7923380
80.6157663 -23.8951035 139.4115239
80.6698650 -23.6819163 139.2841786
80.7619765 -25.3170505 140.1977092
80.8198228 -25.0991005 140.0872171
80.9209719 -23.7428080 139.3557489
80.9934810 -25.3953598 140.1860863
81.0882822 -23.1015980 138.9883012
81.2006742 -22.6793531 138.7340724
81.3818574 -25.7786941 140.2051002
81.3996121 -22.9553208 138.9362216
81.5086961 -25.3413003 140.0286108
81.5704837 -25.1245983 139.9329305
81.7080662 -23.7407908 139.3383443
81.7458257 -26.1810590 140.1387751
81.7509145 -24.4735647 139.6123171
81.7650706 -23.5234704 139.2237544
81.8133801 -24.2552366 139.5159811
81.8238556 -23.3085621 139.1119659
81.8780735 -25.7392116 139.9748623
81.9095522 -28.6078006 140.1707083
82.0177346 -26.0559916 139.9531066
82.0266679 -26.8172491 140.0803626
82.2222307 -23.6865189 139.1762793
82.2237805 -28.2833315 139.7940665
82.2339803 -22.7373559 138.7770325
82.2561085 -24.4269185 139.4139528
82.2837129 -23.4679263 139.0755922
82.3827609 -23.9886288 139.2236054
82.3387280 -31.6323042 135.5106086
82.4716240 -24.5165769 139.3441856
82.4934319 -25.2683647 139.5178735
82.5448185 -27.3555219 139.6933943
82.5573280 -25.0485092 139.4300461
82.5649276 -26.5736450 139.6722645
82.6845691 -24.6082544 139.2594725
82.7302560 -23.6372650 138.9891058
82.9692781 -25.2434015 139.2047554
83.0388814 -25.0226390 139.1230822
83.0298588 -24.2583342 139.0094012
83.0849931 -26.3429508 139.1931772
83.1741989 -25.3413357 139.0893906
83.2057148 -22.8466745 138.5736763
83.3105743 -24.8994678 138.9262974
83.3050981 -24.1333880 138.8203949
83.4154934 -26.0000341 138.8999373
83.4846869 -22.7181204 138.3920014
83.5141987 -24.2327694 138.6981755
83.5642219 -25.5456064 138.8017237
83.6089179 -22.2814083 138.2004172
83.6358666 -25.3250916 138.7245506
83.7082341 -25.1045078 138.6472881
83.7072954 -23.5694535 138.4508312
83.7141126 -26.7066248 137.6218200
83.8368237 -23.1293347 138.2752061
84.0281919 -24.7606225 138.3460313
84.0467587 -23.9893273 138.2840127
84.1032490 -24.5365743 138.2855177
84.1801912 -23.5487614 138.1124258
84.1702297 -24.3121367 138.2182539
84.2139125 -24.8949639 138.0701661
84.2353031 -22.5671455 137.8948987
84.2596591 -25.2704043 137.7103627
84.3025297 -22.3465711 137.8086209
84.3070373 -23.8708202 138.0553544
84.2803791 -26.5499596 135.9446198
84.3670815 -22.1258476 137.7243400
84.3665376 -25.8758161 136.5752220
84.4450071 -22.6645116 137.7816349
84.5114291 -22.4441495 137.6942396
84.3821838 -29.0328227 132.7922195
84.5095292 -23.2048109 137.8246248
84.3660235 -30.9793092 130.5603683
84.4361112 -27.9627256 133.8520497
84.6596211 -24.1131280 137.5748813
84.7367346 -23.8866135 137.5259459
84.7364068 -25.3362991 136.0667944
84.7785994 -23.0851118 137.6076043
84.8448947 -22.1010242 137.4060810
84.9686339 -23.7982702 137.1483505
84.9812478 -22.4203896 137.3694837
84.8538578 -28.2306746 132.3675662
85.1030797 -24.3671183 136.1668259
85.1152688 -25.6483555 134.3686581
85.2504894 -23.4912392 136.6542876
85.2903798 -22.8757951 137.0280385
85.3645876 -26.3965111 132.8680068
85.6372640 -23.7952434 134.9823922
85.7946351 -25.2065323 132.8581572
86.0506296 -22.1780632 135.5883628
86.5717605 -24.9606259 130.7170093
86.8209526 -22.7953829 132.1670413
81.1491013 -21.7764657 138.0828470
81.4101323 -21.8276959 138.2014453
81.6759914 -21.8932424 138.3006871
81.8268210 -20.1447252 137.0776594
82.1395442 -21.0959688 137.8606260
82.7627927 -21.7337739 138.2236183
82.9421133 -21.0854765 137.8994882
82.9985365 -21.8132120 138.2254660
83.0389038 -18.6108407 136.3498867
83.2278132 -21.8932591 138.2078081
83.2482502 -17.7655667 135.7921958
83.3034143 -18.6714772 136.4590675
83.3522379 -20.5148365 137.5618428
83.3531395 -18.4584409 136.3172382
83.4395438 -19.1570483 136.7804557
83.5091621 -17.8155303 135.9181255
83.5705772 -16.4907761 134.9860430
83.6237371 -17.3915345 135.6655061
83.6915895 -21.1094823 137.7378404
83.7939754 -21.6276869 137.9026175
84.0466842 -15.6937931 134.5679760
84.0984955 -20.5404460 137.3857558
84.1339380 -21.2815162 137.6222968
84.3470469 -21.3734508 137.5467032
84.3160599 -15.7466251 134.7092092
84.3679979 -15.5314710 134.5766336
84.5171958 -19.0236941 136.6318166
84.5200643 -14.8901157 134.1592818
84.5769718 -18.8101381 136.5225464
84.6315548 -17.6551715 135.9383613
84.6689418 -16.5086575 135.2912635
84.6887305 -15.3767150 134.5658153
84.7228765 -16.2958577 135.1586133
84.7463831 -15.1656820 134.4374120
84.8495737 -14.7395004 134.1586560
84.9138871 -16.5734179 135.3422552
84.9618688 -20.8996497 137.1005923
