4.36586 17.813 -0.470388
4.34935 17.8044 -0.485887
0.8073 15.3644 -1.47466
0.829798 15.3653 -1.46866
0.835338 15.3634 -1.48399
0.852128 15.3657 -1.46629
0.844859 15.3603 -1.51575
0.8694 15.3644 -1.47466
0.879867 15.3632 -1.48552
0.881624 15.3566 -1.55359
0.919263 15.3608 -1.51072
0.810857 15.3628 -1.49082
3.52584 17.5969 -0.241023
3.55785 17.6103 -0.205434
3.54931 17.6067 -0.216143
3.55521 17.6089 -0.23005
3.56079 17.6107 -0.25328
3.53587 17.6008 -0.26048
3.58777 17.6202 -0.292997
1.743 16.1409 -0.284846
1.76779 16.1658 -0.217471
1.7744 16.1727 -0.198623
1.75706 16.1549 -0.257871
1.77893 16.1767 -0.243799
1.76958 16.1668 -0.273035
1.77253 16.1699 -0.257889
1.77868 16.1759 -0.286149
4.19368 16.7466 -0.438084
4.196 16.732 -0.434922
4.1832 16.7044 -0.433683
4.21252 16.7357 -0.431657
4.19523 16.6755 -0.425325
4.21874 16.6965 -0.423116
4.28888 16.7249 -0.411859
4.26924 16.6861 -0.409467
4.18483 15.9716 -0.30418
4.15297 15.9798 -0.313835
4.15455 15.9685 -0.311408
4.14985 15.9635 -0.311912
4.19242 15.9443 -0.29729
4.23368 15.9877 -0.294462
4.15313 15.9424 -0.307288
4.16088 15.9233 -0.301697
4.18326 15.9147 -0.294448
4.07998 15.9362 -0.327934
4.14016 15.9789 -0.317461
3.60511 15.0726 -1.54624
3.59092 15.0526 -1.55861
3.60937 15.0434 -1.53616
3.63264 15.0739 -1.51563
3.63129 15.0524 -1.51326
3.623 15.0351 -1.51938
3.60084 15.0119 -1.54035
3.62216 15.0176 -1.51712
3.63114 15.0016 -1.50444
3.64492 15.0288 -1.49465
0.664207 15.2605 -2.31448
0.623894 15.2593 -2.32195
0.654159 15.2686 -2.25987
0.601822 15.2596 -2.31951
0.621132 15.2684 -2.26118
0.581283 15.2654 -2.2816
0.597857 15.2768 -2.20446
0.629202 15.2508 -2.37722
0.670695 15.2519 -2.36983
4.54717 14.5533 -0.924222
4.55567 14.524 -0.917658
4.60706 14.5556 -0.914944
4.60696 14.5429 -0.912721
4.5975 14.53 -0.911777
4.59524 14.5085 -0.908369
4.58774 14.4957 -0.90731
4.58307 14.4788 -0.905157
4.60643 14.4794 -0.9016
4.59698 14.4665 -0.900656
4.60919 14.5152 -0.907577
4.63137 14.4681 -0.896723
4.62737 14.5099 -0.904545
4.62645 14.5447 -0.910786
4.66224 14.4742 -0.894155
0.827571 15.5543 -0.83055
0.820653 15.5538 -0.798053
0.801408 15.5467 -0.805396
0.786375 15.5388 -0.84817
0.781502 15.5382 -0.831011
0.768362 15.5337 -0.835599
0.774368 15.5372 -0.806199
0.762569 15.533 -0.812124
0.764337 15.535 -0.784995
0.742715 15.5278 -0.795727
0.795548 15.5457 -0.789407
4.26905 17.0782 -0.478252
4.28965 17.096 -0.476984
4.28288 17.1091 -0.480771
4.32889 17.085 -0.466956
4.32464 17.1207 -0.474104
3.36875 15.3539 -1.13316
3.36873 15.3414 -1.13099
3.34881 15.359 -1.1539
3.37946 15.3296 -1.11904
3.34864 15.3146 -1.14626
3.35611 15.3051 -1.13697
3.31531 15.3406 -1.18443
3.36889 15.3057 -1.12454
3.36009 15.2855 -1.1295
3.31052 15.2926 -1.18086
3.29998 15.3256 -1.19732
3.41648 15.2902 -1.07801
3.41637 15.3132 -1.08228
2.79434 15.7949 -0.866341
2.82797 15.8075 -0.861207
2.80637 15.8035 -0.862599
2.83437 15.7987 -0.864739
2.85018 15.7927 -0.8672
0.0870674 15.3806 -1.31276
3.74746 17.6786 -0.11286
2.70677 15.2694 -2.25475
2.72207 15.265 -2.28485
2.70118 15.2639 -2.29234
2.71579 15.2507 -2.37642
2.67421 15.2539 -2.35729
2.7239 15.2531 -2.36217
2.72436 15.2515 -2.35447
2.72318 15.2579 -2.33061
2.72882 15.2538 -2.32976
2.71151 15.2605 -2.31415
2.73201 15.2606 -2.3136
2.73155 15.2626 -2.2988
2.73607 15.2643 -2.28932
3.54243 16.0857 -0.59254
3.52514 16.086 -0.602949
3.57587 16.0426 -0.565723
3.91285 16.476 -0.481244
3.88656 16.4876 -0.493825
3.91087 16.5017 -0.486619
3.90377 16.5165 -0.49195
3.87234 16.5149 -0.504439
3.84741 16.5154 -0.514771
3.06103 15.1203 -1.461
3.0605 15.1002 -1.46538
3.07066 15.1092 -1.445
3.0854 15.1678 -1.43254
3.09916 15.172 -1.414
3.10006 15.1455 -1.40793
3.0724 15.1042 -1.4412
3.08181 15.1056 -1.43437
3.08655 15.1111 -1.42168
3.09206 15.1312 -1.41635
3.09289 15.1205 -1.41327
3.09371 15.1097 -1.41019
3.0872 15.134 -1.42403
3.12714 15.1626 -1.37415
3.11748 15.1407 -1.3834
3.10426 15.1338 -1.40015
3.10149 15.1147 -1.40101
4.8279 14.6172 -0.406931
4.8279 14.5497 -0.41861
4.45182 17.5104 -0.519983
4.45717 17.5332 -0.523138
4.4778 17.5083 -0.515836
0.707456 15.3065 -1.98755
0.669308 15.2991 -2.04298
0.677147 15.3065 -1.98729
0.707354 15.3152 -1.91919
0.635897 15.3071 -1.98285
0.644966 15.3164 -1.90978
0.670255 15.3138 -1.92967
0.661586 15.2918 -2.09711
0.606179 15.297 -2.05868
0.652129 15.3 -2.03665
3.2388 15.6925 -0.733861
3.25682 15.6706 -0.715364
3.2091 15.6802 -0.755837
3.18298 15.6898 -0.779871
2.10555 15.8807 -0.832772
2.11825 15.8805 -0.832841
2.15624 15.8912 -0.829529
2.16905 15.8796 -0.833115
2.18165 15.8907 -0.829666
2.20668 15.906 -0.82607
2.19448 15.8906 -0.829713
2.14354 15.8914 -0.82946
2.10706 15.8156 -0.857815
2.12918 15.8075 -0.860876
2.14957 15.8499 -0.844629
2.1754 15.8686 -0.837452
3.38856 17.5384 -0.24608
3.38802 17.5386 -0.224587
0.780783 15.3138 -1.92997
0.745918 15.3226 -1.85861
0.747879 15.3159 -1.91335
0.816526 15.3207 -1.87426
0.798027 15.3181 -1.89556
0.789516 15.3045 -2.00291
0.760961 15.3049 -1.99964
0.853815 15.3133 -1.93409
0.805732 15.3111 -1.95158
4.02826 17.1124 -0.551719
4.04019 17.1104 -0.547465
4.03614 17.0887 -0.544916
4.03608 17.0726 -0.542098
4.05755 17.0411 -0.529753
2.01804 16.4452 -0.336885
1.93049 15.3397 -1.71177
1.87886 15.3341 -1.76215
1.96718 15.333 -1.77089
1.96033 15.3336 -1.76591
1.98423 15.3384 -1.72358
0.28255 15.4368 -0.661768
0.282964 15.4374 -0.649355
0.291249 15.4395 -0.622053
0.284621 15.4397 -0.599701
4.379 17.1003 -0.459958
4.43219 17.1107 -0.452635
4.36395 17.081 -0.45906
4.36222 17.093 -0.461518
4.38433 17.1306 -0.464489
4.34853 17.1146 -0.467933
4.35701 17.1292 -0.468891
4.35528 17.1412 -0.471349
4.37134 17.1643 -0.472726
4.34333 17.1507 -0.475306
3.29411 15.416 -1.21918
3.28776 15.4186 -1.22615
3.29272 15.3938 -1.21667
3.30863 15.3885 -1.19975
3.28813 15.3796 -1.21889
3.3131 15.4221 -1.20113
3.34151 15.3801 -1.16501
3.28346 15.3581 -1.22027
3.28849 15.3407 -1.21163
3.28861 15.3277 -1.20921
3.22793 15.3879 -1.28778
3.24698 15.4014 -1.2688
3.25541 15.3803 -1.25563
3.2697 15.4045 -1.2439
3.27876 15.4083 -1.23442
3.279 15.3823 -1.22958
3.24693 15.3312 -1.25639
2.90598 15.5591 -1.03182
2.90954 15.5517 -1.02639
0.587335 15.4777 -0.926628
0.602232 15.4807 -0.933584
0.495755 15.4555 -0.951357
0.482909 15.4517 -0.9683
0.520064 15.4624 -0.927677
0.485125 15.4549 -0.922881
0.500613 15.4592 -0.905049
0.492486 15.4581 -0.892589
0.502629 15.461 -0.882014
0.438598 15.4496 -0.867933
0.470138 15.4552 -0.873004
0.461606 15.4543 -0.861764
2.11917 15.2336 -2.48501
2.0708 15.2355 -2.47301
2.10524 15.2456 -2.4103
2.1462 15.2379 -2.45871
2.15483 15.2434 -2.42428
2.16801 15.2276 -2.52116
2.10238 15.2276 -2.52119
2.13185 15.2181 -2.57865
0.547339 15.494 -0.232268
0.549301 15.4941 -0.256466
0.578983 15.5012 -0.245031
0.560835 15.4964 -0.269982
1.55306 15.2934 -2.08618
1.60387 15.2975 -2.05493
1.51431 15.2873 -2.13027
1.54386 15.2845 -2.15001
1.57932 15.2882 -2.12351
0.158514 15.3437 -1.67672
0.226173 15.3415 -1.69628
0.146069 15.3379 -1.72886
0.263921 15.3379 -1.72802
0.230148 15.3328 -1.77326
0.176915 15.3318 -1.78223
0.270408 15.3312 -1.78565
4.01795 16.4431 -0.437291
4.00569 16.4337 -0.439745
4.03349 16.4604 -0.435187
3.98927 16.4906 -0.455675
3.98576 16.4745 -0.453996
1.56058 15.9663 -0.708318
1.50705 15.9213 -0.779479
1.48167 15.902 -0.79115
1.51872 15.932 -0.746965
1.49118 15.9101 -0.766054
2.72169 15.7297 -0.900477
2.73734 15.744 -0.892751
2.74066 15.7276 -0.901798
2.74865 15.7381 -0.895765
2.76246 15.7359 -0.896832
0.416807 15.2079 -2.63728
0.800088 15.5615 -0.41079
0.770828 15.551 -0.433051
0.776846 15.5525 -0.447829
0.813978 15.5652 -0.452485
0.823083 15.5693 -0.406072
0.844245 15.5764 -0.41346
0.837548 15.5736 -0.427511
0.839911 15.5742 -0.43955
0.842273 15.5747 -0.45159
0.821724 15.5672 -0.472992
0.844636 15.5752 -0.463629
0.837912 15.5723 -0.487929
0.859145 15.5804 -0.464365
0.822611 15.5686 -0.430686
0.876769 15.5878 -0.440635
3.51745 15.5631 -0.62369
3.61045 15.5632 -0.623105
3.63202 15.5448 -0.727306
3.51509 15.5547 -0.671591
3.5634 15.5545 -0.672584
3.36349 14.798 -1.85651
3.38255 14.8054 -1.82112
3.37347 14.782 -1.83452
3.39941 14.8175 -1.7919
3.39136 14.7919 -1.80182
3.36955 14.7487 -1.83632
3.39217 14.7665 -1.7958
3.38069 14.7323 -1.81187
3.39095 14.7791 -1.80032
3.4018 14.7656 -1.77869
3.3897 14.7406 -1.7958
3.39832 14.7362 -1.77962
3.41843 14.7444 -1.74619
3.40426 14.7897 -1.77867
3.42137 14.7823 -1.74773
2.19405 15.2365 -2.46748
2.19839 15.2492 -2.38805
2.15542 15.2551 -2.34946
2.09125 15.2582 -2.32904
2.1529 15.2651 -2.28411
2.12028 15.2653 -2.28271
2.12848 15.2531 -2.36222
1.77862 15.2168 -2.58649
1.80515 15.2246 -2.53961
1.80422 15.2179 -2.57984
1.7632 15.2078 -2.63813
1.80793 15.2074 -2.64001
1.88489 15.2157 -2.59247
1.83753 15.2089 -2.63171
3.9888 15.7877 -0.331748
3.97358 15.7668 -0.3337
3.98309 15.7472 -0.326749
3.92942 15.7568 -0.348351
4.01726 15.7686 -0.318732
3.99441 15.7301 -0.319537
4.00161 15.7159 -0.314595
3.96612 15.7207 -0.3284
3.93181 15.7187 -0.340585
3.99483 15.7592 -0.324522
4.06506 15.7928 -0.307126
4.03217 15.7423 -0.309197
0.592636 15.322 -1.86392
0.668956 15.3242 -1.84646
0.634902 15.32 -1.8806
0.592805 15.3286 -1.80943
0.604426 15.3377 -1.73078
0.590711 15.3346 -1.75709
0.65786 15.3323 -1.77701
0.633884 15.3288 -1.80696
1.13418 15.6897 -0.741517
1.12066 15.6821 -0.766679
1.15007 15.6972 -0.755244
1.15367 15.6985 -0.767444
1.15727 15.6997 -0.779643
1.16087 15.701 -0.791843
1.16447 15.7023 -0.804042
1.18139 15.7135 -0.772259
4.41357 15.8363 -0.231152
4.45092 15.8804 -0.232664
4.45154 15.8684 -0.230449
4.45643 15.8954 -0.234574
4.45216 15.8564 -0.228235
4.45277 15.8444 -0.22602
4.45339 15.8323 -0.223806
4.46542 15.807 -0.217722
4.4982 15.8604 -0.222826
4.50968 15.8328 -0.216388
4.5217 15.8473 -0.217279
0.4776 15.4802 -0.176722
0.460635 15.477 -0.153177
0.46058 15.4771 -0.141372
0.483923 15.4815 -0.171892
0.471996 15.4794 -0.129504
4.4697 17.8282 -0.342961
4.43947 17.8252 -0.327861
4.42959 17.8245 -0.301429
4.68156 14.4682 -0.891017
4.44718 17.1929 -0.464572
4.44074 17.1745 -0.462389
4.41777 17.1674 -0.465101
4.43179 17.1382 -0.457541
4.45343 17.1488 -0.455943
0.310501 15.3644 -1.47466
0.325277 15.3653 -1.46877
0.358096 15.3661 -1.4636
0.372601 15.3644 -1.47466
0.387377 15.3653 -1.46877
0.388966 15.3608 -1.51161
0.363235 15.3637 -1.48156
4.17062 17.7865 -0.186533
4.19411 17.791 -0.198126
4.17191 17.7864 -0.219837
4.18315 17.7884 -0.234935
4.14563 17.781 -0.232484
4.22413 17.7955 -0.251255
2.01874 15.4625 -1.17035
2.0306 15.4423 -1.21056
2.02839 15.4589 -1.17594
2.04386 15.4647 -1.16658
2.00808 15.4976 -1.11465
2.01901 15.4938 -1.12049
2.03437 15.4799 -1.14235
2.05655 15.4576 -1.17808
2.06976 15.4578 -1.17765
2.07586 15.4895 -1.12738
2.0757 15.4548 -1.18406
2.05641 15.4252 -1.24823
2.02953 15.4202 -1.25889
2.05757 15.4471 -1.20075
3.3966 15.085 -1.55011
3.41939 15.0823 -1.56569
3.32037 15.0916 -1.51239
2.7827 15.2936 -2.084
2.7805 15.2848 -2.10268
2.77266 15.2896 -2.11104
2.77347 15.2884 -2.11983
2.78037 15.2724 -2.10096
2.78024 15.2601 -2.09925
2.77566 15.27 -2.11887
2.7703 15.2867 -2.13175
2.77159 15.2471 -2.13042
2.76953 15.2851 -2.14529
2.78011 15.2478 -2.09753
2.77998 15.2355 -2.09581
2.77836 15.2256 -2.10025
2.76447 15.2664 -2.1613
2.76636 15.2834 -2.15722
2.76319 15.2817 -2.16914
2.76205 15.2352 -2.16512
2.75766 15.28 -2.17941
2.75829 15.2669 -2.18528
2.75686 15.2784 -2.19299
2.78496 15.2891 -2.0881
2.78868 15.2906 -2.07633
2.79241 15.2922 -2.06455
2.79164 15.2645 -2.06232
2.79613 15.2938 -2.05278
2.79985 15.2954 -2.041
2.8012 15.3007 -2.02933
2.8074 15.2985 -2.01713
2.80288 15.2766 -2.02801
2.80074 15.2305 -2.02703
2.78772 15.2279 -2.06863
2.77972 15.2108 -2.09237
2.77941 15.1881 -2.08952
3.8263 16.5788 -0.534926
3.80057 16.5762 -0.545825
3.82902 16.5641 -0.531164
3.83672 16.5518 -0.525762
3.83445 16.5347 -0.52364
3.83205 16.5103 -0.52039
3.80737 16.5416 -0.536831
3.7863 16.5607 -0.549554
3.72809 15.9142 -0.462726
3.68676 15.9301 -0.486318
3.72782 15.9241 -0.464605
3.71634 15.9013 -0.466348
3.7426 15.9219 -0.457188
3.71328 15.9502 -0.476503
3.72701 15.9539 -0.470244
3.72831 15.965 -0.471566
3.73973 15.945 -0.462603
3.78846 15.9169 -0.435304
3.75557 15.9478 -0.455898
3.79119 15.9564 -0.441076
0.425579 15.3473 -1.64224
0.473534 15.3523 -1.59507
2.29111 15.3732 -1.42132
2.32774 15.3671 -1.45822
2.37003 15.3636 -1.48257
2.34673 15.3635 -1.48377
2.33757 15.3655 -1.46742
2.29506 15.365 -1.47095
2.33496 15.3644 -1.47466
2.30816 15.3621 -1.49795
2.34488 15.3563 -1.55613
3.42841 14.7891 -1.73677
3.43399 14.7792 -1.7258
3.43352 14.7663 -1.72432
3.43778 14.7462 -1.71412
3.43272 14.7406 -1.72109
3.01931 15.3552 -1.56747
3.0084 15.3536 -1.58137
2.98984 15.3574 -1.54636
3.00548 15.3492 -1.59001
2.99566 15.3514 -1.60265
2.97794 15.3538 -1.58068
2.99274 15.3469 -1.61129
2.98638 15.3458 -1.62193
2.98001 15.3447 -1.63257
4.30816 16.6151 -0.388046
4.3129 16.6222 -0.388225
4.29901 16.5924 -0.386137
4.32039 16.5752 -0.378487
4.34974 16.5625 -0.3708
4.34556 16.6037 -0.378865
4.33114 16.6311 -0.386383
4.30596 16.6474 -0.394216
4.34883 16.6679 -0.389585
4.38499 16.6392 -0.377778
4.39094 16.5834 -0.366776
3.05795 14.9526 -2.30118
2.98758 14.9582 -2.26939
2.99612 14.9511 -2.30936
3.01231 14.9526 -2.30082
2.9389 14.9527 -2.30075
2.93307 14.9446 -2.34626
2.94134 14.968 -2.21385
4.15213 15.6722 -0.260176
4.11336 15.6705 -0.271037
4.10145 15.6439 -0.269684
4.0979 15.6661 -0.274677
4.08073 15.6507 -0.277108
4.10614 15.6913 -0.276695
4.09202 15.7145 -0.284935
4.07085 15.6744 -0.284509
4.07906 15.6886 -0.284337
4.05623 15.7031 -0.294352
4.09345 15.6291 -0.269353
4.07743 15.6285 -0.274315
4.0662 15.6279 -0.277897
4.05498 15.6272 -0.28148
4.03497 15.6483 -0.291758
4.04375 15.6266 -0.285063
4.03253 15.626 -0.288646
4.0213 15.6253 -0.292228
4.01007 15.6247 -0.295815
4.02359 15.6687 -0.299114
3.5766 15.0645 -1.57774
3.58504 15.0307 -1.56157
3.57595 15.0418 -1.57447
3.56508 15.0581 -1.59086
1.20882 15.2943 -2.07858
1.25857 15.2959 -2.06748
1.21994 15.3006 -2.03183
1.1543 15.2991 -2.04351
1.19067 15.3069 -1.98395
1.26509 15.3053 -1.99708
1.11812 15.3055 -1.99527
1.2352 15.3129 -1.93745
3.93319 15.0701 -1.26009
3.90207 15.0161 -1.27171
3.88925 15.0275 -1.2824
3.94057 15.1074 -1.26161
3.94196 15.1162 -1.26219
3.96327 15.0936 -1.24495
3.96383 15.1129 -1.24806
3.9391 15.1354 -1.26291
3.95682 15.1368 -1.25668
3.96766 15.1338 -1.24907
3.98437 15.1358 -1.23906
3.97349 15.1385 -1.24667
3.99017 15.1403 -1.23665
4.23937 14.6641 -1.02974
4.23098 14.6402 -1.02884
4.21125 14.6503 -1.03895
4.23093 14.6275 -1.02662
4.24461 14.6251 -1.02091
4.19672 14.6146 -1.03875
4.23083 14.6021 -1.02218
4.23078 14.5895 -1.01996
4.22078 14.5891 -1.02409
4.24248 14.5806 -1.01387
4.23949 14.552 -1.00992
4.20639 14.5477 -1.02289
4.16812 14.6505 -1.05706
4.16943 14.6358 -1.05392
4.18426 14.5993 -1.04128
4.28048 14.5601 -0.996371
4.25512 14.6478 -1.02114
4.26724 14.5951 -1.00739
4.28442 14.6133 -1.00432
4.28772 14.5851 -0.998124
0.106428 15.4368 -0.130659
0.098091 15.4361 -0.153894
0.0981652 15.4359 -0.172302
0.114006 15.4367 -0.178842
0.134843 15.4386 -0.113677
0.174412 15.4407 -0.113074
0.179319 15.441 -0.119125
0.156744 15.4395 -0.146023
2.96578 15.1914 -1.63145
2.94872 15.2015 -1.66542
2.98024 15.2067 -1.60745
2.96902 15.2187 -1.63021
2.99447 15.2317 -1.58774
2.97493 15.239 -1.62275
2.95955 15.2432 -1.6525
3.01826 15.2375 -1.54854
3.00667 15.2032 -1.56203
2.97327 15.263 -1.62989
2.63226 15.3269 -1.82359
2.5958 15.3226 -1.85908
2.57727 15.3304 -1.79353
2.54945 15.326 -1.8314
2.5096 15.331 -1.78817
2.6148 15.3162 -1.9111
2.58136 15.3205 -1.87615
3.79872 16.2344 -0.486427
3.76599 16.2052 -0.496167
3.8313 16.2479 -0.474534
3.81135 16.2616 -0.485507
3.80781 16.2045 -0.477032
3.84087 16.2794 -0.476077
3.80569 16.1888 -0.475217
1.804 15.7705 -0.878115
1.79421 15.7728 -0.876977
1.77015 15.7746 -0.875969
1.2919 15.7867 -0.504252
1.27713 15.7773 -0.526255
1.28367 15.7811 -0.521515
1.27387 15.7759 -0.50779
1.28079 15.7806 -0.481867
1.28005 15.7804 -0.476787
1.25761 15.7669 -0.496764
1.24943 15.7613 -0.533975
1.20491 15.7368 -0.504941
1.22714 15.7496 -0.50132
1.23584 15.7534 -0.535939
0.275143 15.4294 -0.801533
0.273507 15.428 -0.824245
0.288237 15.4296 -0.825719
0.298239 15.4286 -0.867025
0.270106 15.4251 -0.869919
0.262105 15.4257 -0.845506
0.219021 15.4212 -0.85436
0.21006 15.422 -0.824378
0.27269 15.4273 -0.8356
1.6372 16.045 -0.156553
1.56575 15.9858 -0.10539
1.58059 15.998 -0.116262
1.60793 16.0204 -0.146341
1.61732 16.0285 -0.127106
1.63768 16.0456 -0.134819
3.09166 15.0509 -1.74352
3.11341 15.0538 -1.72697
1.49014 15.4062 -1.29098
1.47219 15.4071 -1.28785
1.49351 15.3979 -1.31892
1.44931 15.3953 -1.32748
1.48635 15.383 -1.36787
1.45265 15.3855 -1.35983
1.4904 15.3804 -1.37657
1.4858 15.3777 -1.39209
1.46733 15.3783 -1.38907
1.44068 15.3793 -1.38263
1.42871 15.3835 -1.36586
1.40284 15.3866 -1.35552
1.39724 15.384 -1.36474
1.40342 15.3793 -1.38263
1.391 15.3793 -1.38263
1.38595 15.374 -1.41559
1.43734 15.3744 -1.41371
1.39756 15.3678 -1.45414
1.42022 15.3654 -1.46792
1.4078 15.3654 -1.46792
1.38619 15.3636 -1.48279
2.21837 15.3471 -1.64442
2.22851 15.3537 -1.58177
2.29346 15.3492 -1.62493
2.26982 15.3494 -1.62273
2.2431 15.3409 -1.70164
2.23702 15.3427 -1.68469
2.33623 15.3482 -1.63377
2.29179 15.3407 -1.70305
2.29804 15.3333 -1.76829
2.87534 15.8847 -0.831235
2.86017 15.8723 -0.836005
2.83814 15.8978 -0.827834
2.84378 15.8799 -0.833088
2.82122 15.8791 -0.833417
2.81864 15.9005 -0.827148
2.8213 15.9546 -0.814109
2.85705 15.9309 -0.819934
2.87541 15.9008 -0.827326
1.80199 15.4505 -1.19092
1.81446 15.4505 -1.19088
1.83495 15.4474 -1.19745
1.85263 15.4375 -1.21946
1.83935 15.4202 -1.25798
1.80641 15.436 -1.22296
1.63166 16.0265 -0.685488
1.64406 16.0374 -0.676223
1.60711 16.0066 -0.67156
1.61703 16.016 -0.642243
1.63136 16.0267 -0.671997
1.63367 16.0294 -0.652587
1.63287 16.0292 -0.639703
1.64085 16.0367 -0.624687
1.65352 16.0464 -0.667469
1.6521 16.0462 -0.641211
1.67915 16.0715 -0.618022
1.68995 16.0798 -0.653698
1.55718 15.9766 -0.293341
1.54974 15.9702 -0.319299
1.55551 15.9745 -0.331446
1.57521 15.9901 -0.351927
1.5544 15.973 -0.35685
1.50225 15.9346 -0.277415
1.52619 15.953 -0.28218
0.857078 15.5696 -0.738286
0.879423 15.5783 -0.734165
0.898445 15.5851 -0.742193
0.88383 15.5783 -0.767269
0.907157 15.5893 -0.71963
0.922897 15.5958 -0.70324
0.93837 15.6017 -0.711049
0.942877 15.603 -0.72342
0.925672 15.5953 -0.745756
0.947385 15.6042 -0.73579
0.910872 15.5893 -0.758228
0.951893 15.6055 -0.748161
0.953925 15.6052 -0.770476
0.968982 15.6142 -0.726866
3.22966 14.6555 -2.20431
3.22974 14.6683 -2.20622
3.23942 14.6757 -2.16915
3.23185 14.6929 -2.20199
3.23011 14.7066 -2.21136
3.22815 14.7217 -2.22267
3.24044 14.7218 -2.17322
3.23036 14.7322 -2.21479
3.23426 14.7526 -2.20301
3.24619 14.6794 -2.14285
3.24386 14.6549 -2.14783
3.22999 14.6939 -2.20964
3.22311 14.694 -2.24215
3.22501 14.6737 -2.22933
1.33773 15.822 -0.181778
1.33769 15.8221 -0.170047
1.31618 15.8091 -0.147862
1.3376 15.8222 -0.146585
1.34808 15.8291 -0.14789
1.26685 15.7792 -0.161299
1.33756 15.8223 -0.134854
1.33751 15.8224 -0.123123
1.27804 15.786 -0.149969
1.34918 15.8296 -0.184238
1.36719 15.8414 -0.17944
0.465627 15.4726 -0.439856
0.491128 15.4781 -0.42087
0.469724 15.4721 -0.480594
0.46622 15.4719 -0.464037
0.500116 15.479 -0.457731
0.498891 15.4781 -0.482447
3.19362 14.4175 -2.38714
3.1945 14.4408 -2.38325
3.193 14.4637 -2.40105
3.19674 14.4629 -2.36717
3.19674 14.491 -2.37145
3.19299 14.5018 -2.40786
3.19518 14.5252 -2.39228
3.19916 14.5304 -2.35727
3.20002 14.5101 -2.34527
3.20143 14.5274 -2.33672
3.20032 14.5002 -2.34115
3.19196 14.425 -2.40932
3.33431 14.792 -1.91751
3.35067 14.7947 -1.88256
3.33561 14.7632 -1.90962
3.35297 14.7727 -1.87363
3.35015 14.7518 -1.87589
3.35985 14.7688 -1.85855
3.33905 14.7147 -1.89371
3.35491 14.7417 -1.86388
3.35455 14.7289 -1.86234
3.36471 14.7141 -1.8397
3.35433 14.716 -1.86056
4.11086 17.7743 -0.214317
4.09389 17.7709 -0.204221
4.09972 17.772 -0.220655
4.17427 17.7863 -0.264986
1.41647 15.8728 -0.269642
1.42743 15.881 -0.240936
1.43014 15.8827 -0.260687
1.40656 15.8665 -0.234459
1.40648 15.8666 -0.222727
1.40639 15.8667 -0.210996
1.43481 15.8866 -0.220806
1.41596 15.8735 -0.199256
1.46758 15.9097 -0.240629
1.39311 15.858 -0.212734
0.73778 15.5155 -0.979783
0.722152 15.5112 -0.973338
0.72769 15.5139 -0.956905
0.743241 15.5185 -0.963257
0.696927 15.5071 -0.916143
0.712555 15.5114 -0.922589
0.734522 15.5173 -0.939956
0.7176 15.5122 -0.934028
0.753368 15.5229 -0.948819
0.628446 15.4882 -0.921223
0.653471 15.4944 -0.931375
0.688334 15.5033 -0.945424
0.670058 15.4994 -0.922159
0.70205 15.5065 -0.956966
2.24258 15.7034 -0.917028
2.2285 15.7042 -0.916487
2.22446 15.7234 -0.905191
2.20879 15.6956 -0.922805
2.20034 15.7059 -0.915405
2.18625 15.7068 -0.914864
2.20752 15.7284 -0.902386
2.18262 15.7279 -0.902515
2.1774 15.7514 -0.889815
2.19096 15.7796 -0.874499
3.1459 15.4691 -1.15766
3.13307 15.4717 -1.14305
3.12458 15.4688 -1.15891
3.11378 15.4619 -1.17183
3.11076 15.4717 -1.14386
3.09287 15.4693 -1.15615
3.08655 15.4691 -1.15743
0.0919052 15.4249 -0.602988
0.0979267 15.4244 -0.621464
0.0917991 15.4234 -0.639889
0.120736 15.4239 -0.663091
1.83705 16.2386 -0.152249
1.83309 16.2346 -0.126681
1.8249 16.2257 -0.169797
4.72062 17.8431 -0.425925
4.72844 17.8426 -0.455556
4.74732 17.8269 -0.482337
4.76095 17.838 -0.480168
4.75509 17.8432 -0.452249
4.77364 17.8391 -0.480103
4.78607 17.8393 -0.480072
4.79851 17.8395 -0.48004
4.81112 17.8396 -0.480018
2.21931 16.6795 -0.355532
2.20032 16.6581 -0.35533
2.22859 16.6904 -0.31559
2.20571 16.6651 -0.312453
2.23823 16.7014 -0.296093
2.25744 16.722 -0.320461
2.20985 16.6705 -0.27999
2.27582 16.7421 -0.318346
2.19571 16.6536 -0.310006
2.1657 16.6188 -0.309805
1.40324 15.24 -2.44562
1.46316 15.2301 -2.5069
1.46396 15.2338 -2.4838
1.50232 15.2296 -2.50955
1.4571 15.237 -2.46419
1.50076 15.2187 -2.57489
1.43514 15.2179 -2.57913
1.47563 15.2211 -2.56061
3.18814 14.8047 -2.53461
3.18808 14.7936 -2.53486
3.18764 14.7933 -2.55544
3.1885 14.7825 -2.52352
3.18805 14.7681 -2.53094
3.18801 14.7299 -2.52506
3.188 14.7172 -2.52308
3.1872 14.7129 -2.55899
3.18733 14.7444 -2.55883
3.18815 14.743 -2.52283
3.18713 14.7723 -2.5726
3.18983 14.727 -2.49524
3.18814 14.7052 -2.51629
0.427262 15.3592 -1.52753
2.5619 15.2651 -2.28409
2.5263 15.2649 -2.28543
2.54868 15.2726 -2.23317
2.55714 15.2587 -2.32628
2.48716 15.2577 -2.33222
2.45328 15.2621 -2.30361
2.49159 15.2735 -2.22695
2.49423 15.2667 -2.27308
3.84985 16.7474 -0.554689
3.88471 16.7805 -0.546319
3.87892 16.7499 -0.543171
3.86138 16.7247 -0.545778
3.91146 16.7629 -0.532515
3.91671 16.7547 -0.528921
3.91065 16.7247 -0.526049
3.88472 16.7124 -0.534196
3.64369 15.7737 -0.480773
3.64368 15.7505 -0.476689
3.70624 15.7006 -0.436117
3.66194 15.7425 -0.465854
3.64926 15.7223 -0.468705
3.66747 15.7625 -0.466598
4.72457 15.2302 -0.726751
4.76092 15.2425 -0.657225
4.79069 15.2357 -0.695507
4.76987 15.2534 -0.595202
4.82188 15.2489 -0.61954
2.52971 15.2427 -2.42867
2.57396 15.2434 -2.42427
2.53239 15.2358 -2.47198
2.54011 15.2327 -2.49063
2.61268 15.2362 -2.46912
2.58825 15.2308 -2.50241
2.56273 15.2232 -2.54813
2.61407 15.2287 -2.51518
2.59482 15.2181 -2.57882
0.298838 15.4495 -0.32588
0.299212 15.449 -0.350775
0.299399 15.4487 -0.363223
0.299586 15.4485 -0.375671
0.320604 15.4515 -0.371427
3.22752 17.4614 -0.199951
3.19062 17.442 -0.207089
3.20613 17.4504 -0.197039
3.1579 17.4248 -0.164036
3.13234 17.4109 -0.177597
3.12781 17.4086 -0.167258
3.1287 17.4093 -0.140873
3.07556 17.3789 -0.129799
3.26188 15.0573 -1.7073
3.26232 15.0696 -1.63759
3.26519 15.0688 -1.64213
3.24435 15.078 -1.58996
3.22428 15.0818 -1.56852
2.46174 16.9205 -0.528015
2.43275 16.8939 -0.513814
2.4032 16.8653 -0.539395
2.40328 16.8661 -0.517475
2.40331 16.8667 -0.500358
2.42465 16.8868 -0.497919
2.39814 16.8621 -0.484612
2.211 16.6607 -0.668752
2.21639 16.6604 -0.687905
2.22608 16.6695 -0.686216
2.23303 16.6851 -0.661103
2.24027 16.6868 -0.683243
2.24823 16.6956 -0.681688
2.25619 16.7044 -0.680134
2.26404 16.7132 -0.678594
2.13529 15.2722 -2.23537
2.10205 15.2755 -2.21281
2.15026 15.2832 -2.15879
2.094 15.2854 -2.14354
2.06187 15.2667 -2.273
2.0424 15.2798 -2.18314
0.130827 15.2724 -2.23431
0.103606 15.2777 -2.19755
0.1076 15.2667 -2.27329
0.0608857 15.2729 -2.23084
0.0526276 15.2803 -2.17998
0.105738 15.2863 -2.13727
0.175588 15.2633 -2.29556
0.136454 15.2565 -2.34071
3.28597 14.6508 -2.01283
3.27152 14.6514 -2.05369
3.29972 14.6723 -1.97909
3.2928 14.6405 -1.99131
3.28481 14.6154 -2.00987
3.29665 14.6297 -1.97926
3.29319 14.6155 -1.98592
3.29467 14.5834 -1.97618
3.30072 14.6166 -1.96694
3.31137 14.613 -1.93991
3.30277 14.644 -1.96667
3.31366 14.6625 -1.94296
2.42438 15.7029 -0.917386
2.44301 15.7036 -0.916997
2.40308 15.7195 -0.907145
2.4227 15.7416 -0.89488
2.47084 15.7063 -0.915148
2.47869 15.7211 -0.906077
2.41561 15.7371 -0.897571
2.46441 15.7349 -0.89863
4.32314 15.2166 -0.803689
4.23185 15.2106 -0.837671
4.24432 15.2239 -0.762675
4.27511 15.2192 -0.789228
4.26597 15.2149 -0.813463
4.29225 15.199 -0.903678
4.19452 15.203 -0.880946
4.24472 15.1945 -0.928769
4.21357 15.1899 -0.954862
4.26957 15.2032 -0.879658
4.27156 15.1821 -0.999218
4.26394 15.192 -0.943173
2.70634 15.3399 -1.71026
2.72754 15.3306 -1.79185
2.63324 15.3357 -1.7475
2.71086 15.3349 -1.7543
2.70363 15.3323 -1.77676
0.201514 15.4327 -0.566614
0.189504 15.4322 -0.554192
0.201669 15.4336 -0.541975
0.221179 15.4348 -0.563221
0.189659 15.4331 -0.529554
0.201824 15.4345 -0.517337
0.189814 15.434 -0.504915
0.1698 15.4316 -0.539741
0.150679 15.4311 -0.521752
0.177552 15.4329 -0.517154
3.82502 14.445 -1.22766
3.82312 14.4559 -1.2313
3.84595 14.4478 -1.21205
3.84135 14.4334 -1.21289
3.78775 14.4283 -1.2549
3.7994 14.4669 -1.25236
3.82843 14.4772 -1.23066
3.84134 14.4842 -1.22185
3.83379 14.501 -1.23063
3.85484 14.4995 -1.21468
3.88064 14.4813 -1.19259
3.88348 14.437 -1.18268
3.88827 14.4196 -1.17612
4.17941 15.0196 -1.11747
4.21538 15.0421 -1.10605
4.14977 15.0108 -1.129
4.17689 14.9876 -1.1129
4.15106 14.9914 -1.12498
4.16722 14.9786 -1.1154
4.09713 14.9645 -1.14623
4.13272 14.9478 -1.12623
4.13651 14.9878 -1.13137
4.14925 15.0331 -1.13314
4.13998 14.9769 -1.12782
4.168 14.966 -1.11282
4.15939 14.9404 -1.1121
4.74818 14.4786 -0.888172
4.75707 14.5072 -0.892799
4.77437 14.5032 -0.891743
4.77311 14.4865 -0.888778
4.75711 14.5199 -0.895036
4.75715 14.5325 -0.897272
4.79071 14.538 -0.897484
4.75595 14.5463 -0.899683
4.7963 14.4742 -0.88612
4.81975 14.5116 -0.892041
4.82524 14.4858 -0.887326
4.75254 14.5706 -0.904126
4.72629 14.565 -0.904988
4.72415 14.5269 -0.898407
4.70788 14.4902 -0.893072
4.68291 14.5458 -0.904567
4.68855 14.5696 -0.908409
1.42484 15.3178 -1.89771
1.44572 15.3143 -1.92651
1.40349 15.3083 -1.97355
1.48815 15.3168 -1.90613
1.49121 15.3096 -1.96337
1.45702 15.3043 -2.00446
2.05551 15.3785 -1.38824
2.05266 15.3857 -1.35802
2.04181 15.382 -1.37073
2.0873 15.3677 -1.45436
2.03284 15.3777 -1.39333
2.02939 15.382 -1.37077
2.01697 15.382 -1.37082
2.00468 15.3819 -1.37092
2.04681 15.3995 -1.31201
2.01678 15.3872 -1.35378
3.75885 16.6093 -0.570645
3.77009 16.5843 -0.561075
3.76595 16.5623 -0.559029
3.30798 15.4877 -1.05146
3.20912 15.4905 -1.03571
3.2815 15.5021 -0.969487
3.23674 15.4931 -1.02074
3.25765 15.4912 -1.03188
4.63382 17.5409 -0.504586
4.64071 17.6053 -0.515403
4.64229 17.5929 -0.513086
4.66863 17.5657 -0.506761
4.64944 17.5443 -0.503994
4.65123 17.5322 -0.501721
4.67251 17.5365 -0.501321
4.66317 17.607 -0.514692
4.70273 17.53 -0.498471
4.71598 17.5611 -0.503214
4.71954 17.5439 -0.499924
0.718797 15.359 -1.52874
0.712991 15.3535 -1.58366
0.723167 15.3635 -1.48339
0.758287 15.3591 -1.52756
0.789729 15.3528 -1.59027
0.734844 15.3542 -1.57658
0.819318 15.358 -1.53961
0.797215 15.3473 -1.6432
0.738031 15.3478 -1.63862
4.36369 15.623 -0.284208
4.40737 15.633 -0.227352
4.48271 15.627 -0.261104
4.44643 15.6165 -0.320984
0.183189 15.4177 -0.861884
0.195012 15.4192 -0.849285
0.184584 15.4198 -0.824839
0.196407 15.4214 -0.81224
0.195477 15.42 -0.836937
0.185514 15.4212 -0.800142
0.172763 15.4188 -0.831452
0.164225 15.4201 -0.799617
4.10741 15.5488 -0.704143
4.07451 15.5502 -0.697251
4.07219 15.5577 -0.654609
4.12396 15.5544 -0.673548
4.12756 15.5696 -0.586858
4.16342 15.5611 -0.635029
4.11096 15.5611 -0.635131
4.04687 15.5405 -0.729374
4.0587 15.5413 -0.725041
4.07052 15.542 -0.720709
4.08235 15.5428 -0.716376
4.09418 15.5435 -0.712044
4.11784 15.5451 -0.703379
4.14218 15.5511 -0.690949
1.55665 15.9656 -0.64879
1.56846 15.9751 -0.648255
1.57005 15.9759 -0.660261
1.57979 15.9842 -0.658021
1.55103 15.9599 -0.686182
1.58091 15.9837 -0.689386
2.46506 16.0122 -0.80216
2.44343 16.0794 -0.790291
2.50124 16.0272 -0.79951
0.761858 15.5481 -0.427938
0.754393 15.5452 -0.445817
0.760822 15.5463 -0.475391
0.774716 15.5504 -0.487086
0.787286 15.5552 -0.47478
0.247545 15.2627 -2.29968
0.35303 15.2623 -2.30238
0.286472 15.261 -2.311
0.244775 15.2543 -2.35484
0.319873 15.2549 -2.35024
0.301503 15.2472 -2.4006
0.260755 15.2429 -2.42728
3.64995 16.1551 -0.544669
3.67392 16.1394 -0.529513
3.66735 16.119 -0.529247
3.65725 16.0834 -0.528371
3.70167 16.1227 -0.512388
3.70191 16.0913 -0.506829
3.68101 16.0675 -0.51315
3.66618 16.052 -0.518006
3.67087 16.0606 -0.51708
3.6739 16.0878 -0.520348
3.92554 16.6882 -0.513829
3.93171 16.7281 -0.51846
3.92754 16.7049 -0.515904
3.94018 16.6685 -0.504734
4.72802 17.4941 -0.49078
4.75886 17.485 -0.488402
4.71517 17.5092 -0.494122
4.73841 17.5131 -0.493771
4.75781 17.4706 -0.485866
4.7832 17.5321 -0.496265
4.74896 17.5333 -0.497202
4.80042 17.5032 -0.490806
4.81072 17.5173 -0.493135
0.08979 15.4105 -0.897321
0.10089 15.4102 -0.909143
0.081552 15.409 -0.920593
0.100501 15.4087 -0.933715
0.0890135 15.4075 -0.946465
2.95394 15.0271 -1.87866
2.94611 15.0254 -1.8884
2.98152 15.042 -1.79404
2.97806 15.0309 -1.85726
2.96246 15.0328 -1.84619
2.95731 15.0206 -1.91516
1.48278 15.9211 -0.199195
1.49226 15.9279 -0.21091
1.48295 15.9208 -0.222646
1.49243 15.9277 -0.234361
1.48312 15.9206 -0.246096
1.48321 15.9205 -0.257821
0.21345 15.2108 -2.62101
0.209761 15.221 -2.56127
0.266737 15.2171 -2.58433
0.254387 15.2304 -2.50514
0.190017 15.2299 -2.50745
0.155657 15.211 -2.61991
0.243837 15.2095 -2.62824
4.8279 15.5545 -0.221437
4.82789 15.5237 -0.266477
4.82773 15.6105 -0.329645
4.8279 15.6119 -0.346788
4.82223 15.6141 -0.333516
4.82273 15.6201 -0.300005
4.8279 15.5903 -0.278388
4.8279 15.6213 -0.294163
4.82436 15.6244 -0.274697
4.8279 15.6259 -0.26785
4.8223 15.6051 -0.384461
4.80279 15.6088 -0.364536
4.73216 15.6075 -0.372389
1.82092 15.2887 -2.11977
1.76247 15.2881 -2.12397
1.76794 15.2992 -2.0427
1.81311 15.289 -2.11774
1.70388 15.2925 -2.09252
1.73284 15.2922 -2.09444
4.5592 17.3468 -0.477246
4.595 17.349 -0.473961
4.53543 17.3183 -0.474917
1.74728 15.3234 -1.85193
1.69439 15.3249 -1.84051
1.73573 15.3315 -1.78439
1.66338 15.3332 -1.77005
1.69374 15.3295 -1.8008
1.80446 15.3273 -1.82024
0.415964 15.4465 -0.848321
0.432303 15.45 -0.838201
0.403242 15.4462 -0.817719
0.434773 15.4519 -0.809531
3.32185 15.6325 -0.658871
3.32437 15.6068 -0.652445
3.32436 15.5952 -0.650401
3.32436 15.5836 -0.648357
3.31616 15.6149 -0.660082
3.33786 15.5612 -0.634681
3.34447 15.5852 -0.63425
3.35159 15.5606 -0.63852
3.34684 15.5981 -0.634839
3.35719 15.5635 -0.621417
3.36727 15.5731 -0.61604
3.3397 15.616 -0.643038
3.37677 15.5646 -0.615427
3.37973 15.5696 -0.607026
3.39586 15.5682 -0.594889
1.19019 15.7274 -0.538984
1.15986 15.7124 -0.520176
1.18746 15.7263 -0.525323
1.18324 15.7246 -0.508766
1.19184 15.7289 -0.516439
1.20392 15.7355 -0.523297
1.21627 15.7415 -0.550641
4.37332 15.0422 -1.05071
4.3989 15.019 -1.03974
4.35971 15.0229 -1.05164
4.37039 15.0103 -1.04602
4.42569 15.0519 -1.03841
4.37529 15.0042 -1.04343
4.38457 14.9921 -1.03876
4.36862 14.9857 -1.04227
4.40565 14.9718 -1.02963
4.38181 14.9664 -1.03496
4.30817 14.9624 -1.05729
4.31134 14.9771 -1.05885
4.34598 14.9632 -1.04552
4.31062 14.9872 -1.0609
4.34147 14.9983 -1.05309
4.32729 15.0261 -1.06245
3.20637 14.6955 -2.33443
3.21304 14.7305 -2.29869
3.21465 14.7193 -2.28781
3.21389 14.703 -2.28891
3.20902 14.6588 -2.311
3.21426 14.6786 -2.28269
3.2125 14.6538 -2.28809
3.22224 14.6384 -2.23677
3.21919 14.661 -2.25573
3.2144 14.6424 -2.27584
4.82757 17.1306 -0.421506
4.82382 17.1197 -0.422592
4.79872 17.1406 -0.426971
4.82382 17.1446 -0.42699
4.82382 17.1072 -0.420391
4.78871 17.1192 -0.423419
4.82757 17.0808 -0.412698
4.82757 17.0683 -0.410497
4.80894 17.08 -0.416113
4.82382 17.0947 -0.41819
4.77993 17.0861 -0.417756
4.82381 17.0572 -0.411585
4.80544 17.063 -0.413124
4.74096 17.1024 -0.421403
4.74816 17.1332 -0.426711
4.73312 17.1237 -0.425288
4.72086 17.1375 -0.4282
4.7963 17.1049 -0.420762
4.82787 17.2269 -0.435771
4.8279 17.2027 -0.409216
2.86662 17.2471 -0.2362
2.9003 17.2691 -0.264654
2.87158 17.2502 -0.258354
2.93836 17.2934 -0.295716
2.89976 17.2681 -0.302178
0.806843 15.3394 -1.71515
0.759661 15.3377 -1.73055
0.866695 15.3364 -1.74205
0.823032 15.3326 -1.77495
0.807162 15.3296 -1.80073
0.872539 15.3288 -1.80735
4.09966 16.5968 -0.438136
4.12201 16.5679 -0.426407
2.23368 15.2192 -2.57144
2.29477 15.2224 -2.55267
2.24482 15.2098 -2.6268
2.30905 15.2155 -2.59332
2.34726 15.2078 -2.63822
2.32949 15.2286 -2.51504
2.34543 16.8126 -0.388866
2.36619 16.8323 -0.418558
2.33785 16.806 -0.343166
2.3251 16.7923 -0.364621
4.4286 16.5257 -0.349982
4.3969 16.5266 -0.355686
4.45877 16.5697 -0.353442
4.41206 16.5703 -0.360555
4.45065 16.6101 -0.361755
4.41459 16.6116 -0.367371
4.4191 16.6269 -0.369253
4.42557 16.6508 -0.372535
4.49454 16.6586 -0.364
4.50533 16.6259 -0.356672
4.17718 17.115 -0.507481
4.2067 17.1225 -0.501049
4.20305 17.1444 -0.505921
4.16901 17.1396 -0.513999
4.22385 17.1751 -0.506025
0.229266 15.3259 -1.83112
0.196782 15.3238 -1.84983
0.298582 15.3134 -1.93292
0.253014 15.3131 -1.93566
0.596256 15.4807 -0.906293
0.603432 15.4834 -0.890839
0.589247 15.4804 -0.882209
0.585743 15.4802 -0.870167
0.582231 15.4781 -0.898039
0.370741 15.452 -0.571925
0.39601 15.4562 -0.566361
0.388139 15.4557 -0.543269
0.369185 15.4535 -0.528303
0.133058 15.2969 -2.05998
0.112086 15.3037 -2.00888
0.0987752 15.2952 -2.07301
1.16374 15.2456 -2.41051
1.18059 15.2542 -2.35543
1.20332 15.246 -2.40815
1.21707 15.2562 -2.34274
1.25469 15.2465 -2.40515
1.27503 15.2356 -2.47285
1.2181 15.2367 -2.46594
1.27594 15.2547 -2.35186
1.09169 15.4067 -1.28929
1.10537 15.4068 -1.28903
1.10457 15.4172 -1.26399
1.11905 15.4068 -1.28878
1.12232 15.4156 -1.26754
1.13273 15.4069 -1.28852
1.12869 15.4259 -1.24408
1.136 15.4156 -1.26728
1.14968 15.4157 -1.26702
1.16009 15.4071 -1.288
1.16389 15.4135 -1.27187
1.17341 15.4073 -1.28755
1.08545 15.3876 -1.3527
2.73867 15.2661 -2.27728
2.73725 15.2528 -2.28149
2.74206 15.2667 -2.26018
2.73829 15.2299 -2.27255
2.74186 15.2722 -2.23472
2.74748 15.2333 -2.22953
2.74906 15.2731 -2.22911
2.74162 15.2752 -2.21425
2.75259 15.251 -2.20841
2.75426 15.2766 -2.20503
2.7582 15.2546 -2.1835
2.75811 15.2422 -2.18172
2.7539 15.2233 -2.19717
2.74413 15.1905 -2.23799
2.75793 15.2176 -2.17816
2.75583 15.1942 -2.18271
2.76509 15.1988 -2.14713
2.7539 15.1744 -2.18808
2.75777 15.1703 -2.17052
1.93437 16.3456 -0.395558
1.97408 16.3921 -0.403569
1.95749 16.3717 -0.439584
2.01221 16.4372 -0.388849
2.04585 16.475 -0.45616
2.00462 16.4274 -0.424125
2.01799 16.4423 -0.454768
2.7333 14.9016 -2.59072
2.76807 14.903 -2.58228
2.80084 14.9139 -2.52054
2.80863 14.901 -2.59368
2.73491 14.9069 -2.56026
3.17046 14.9863 -2.10965
3.11341 14.9723 -2.18896
3.14598 14.9815 -2.13681
3.12372 14.9829 -2.12926
3.20255 14.9817 -2.13592
3.04262 14.9815 -2.1373
3.04304 14.9754 -2.17137
2.7841 15.1227 -2.06113
2.78257 15.1181 -2.06604
2.7816 15.1391 -2.07315
2.77923 15.1407 -2.08239
2.78687 15.163 -2.05955
2.78727 15.1837 -2.06211
2.76747 15.1564 -2.13008
2.78811 15.1429 -2.05175
1.80292 16.1876 -0.720567
1.8326 16.2194 -0.707449
1.84692 16.2356 -0.68874
1.83928 16.2266 -0.70245
1.8301 16.2157 -0.729997
1.84676 16.2337 -0.726848
1.83968 16.2254 -0.739537
1.83984 16.2251 -0.751789
1.85457 16.2438 -0.699863
1.24407 15.3513 -1.60505
1.18885 15.3476 -1.64008
1.19038 15.3546 -1.57244
1.13192 15.3497 -1.62029
1.21738 15.346 -1.65579
1.17291 15.3424 -1.68782
1.2395 15.339 -1.71869
1.29556 15.3399 -1.71007
1.2593 15.3323 -1.777
1.26219 15.3449 -1.66563
0.399269 15.2941 -2.08073
0.41357 15.285 -2.14611
0.36052 15.2818 -2.16898
0.474763 15.2917 -2.09819
0.489163 15.2843 -2.15128
0.435853 15.2789 -2.18961
0.431971 15.2896 -2.11324
4.35425 17.0566 -0.456588
4.36526 17.0418 -0.451921
4.36016 17.0066 -0.446654
4.35825 16.9817 -0.442636
4.37914 16.9816 -0.438972
4.41061 16.9583 -0.429296
2.01875 15.5183 -1.08873
2.08292 15.4959 -1.11738
2.08355 15.5018 -1.10923
2.39774 16.8681 -0.107768
2.41056 16.8804 -0.148015
2.4135 16.8834 -0.126568
2.36266 16.8337 -0.115376
3.56308 14.6706 -1.52444
3.56568 14.6839 -1.52365
3.59055 14.6777 -1.49346
3.55975 14.6953 -1.53294
3.55991 14.7081 -1.53499
3.57913 14.7123 -1.51292
3.56007 14.7208 -1.53704
3.56022 14.7335 -1.5391
3.57052 14.7533 -1.53013
3.57947 14.7394 -1.51727
3.56054 14.759 -1.5432
3.59679 14.7217 -1.49388
3.54745 14.7305 -1.55503
3.53541 14.7008 -1.5653
3.54468 14.674 -1.54866
4.34149 16.0041 -0.273451
4.3509 15.9742 -0.266398
4.33474 15.9865 -0.271771
4.35406 15.9533 -0.262128
4.28426 15.9652 -0.278802
4.27828 15.9311 -0.27399
4.7931 15.2308 -0.7228
4.81366 15.2379 -0.682636
4.82772 15.2402 -0.630324
4.8279 15.2438 -0.649797
4.82761 15.2299 -0.658129
4.8279 15.2395 -0.673801
4.82748 15.2352 -0.675482
4.8279 15.2353 -0.697806
4.82768 15.2288 -0.70907
4.8279 15.2299 -0.727812
4.8279 14.707 -0.488099
4.8279 14.6945 -0.575574
4.8279 14.7877 -0.599973
4.8279 14.7367 -0.574375
4.8279 14.7266 -0.526602
4.8279 14.7308 -0.663489
4.8279 14.7459 -0.633417
4.8279 14.7499 -0.613788
4.8279 14.8548 -0.700729
4.8279 14.781 -0.626983
4.8279 14.7914 -0.653436
1.46254 15.2642 -2.28991
1.41658 15.2586 -2.32673
1.45572 15.2712 -2.2425
1.39765 15.2688 -2.25899
1.44902 15.2757 -2.21227
1.40541 15.281 -2.17517
1.9749 16.3834 -0.692932
1.97583 16.3869 -0.633991
2.02142 16.438 -0.692653
2.00283 16.416 -0.696511
1.91076 16.3099 -0.650318
0.543845 15.4792 -0.696913
1.64382 15.2965 -2.06296
1.5737 15.3023 -2.01977
1.63353 15.3034 -2.01192
1.66445 15.31 -1.96004
1.58951 15.3096 -1.96307
1.54529 15.3094 -1.96435
1.53352 15.3146 -1.92389
1.56606 15.3195 -1.88416
2.89343 16.0321 -0.798639
2.89122 16.1011 -0.786478
2.89764 16.0567 -0.794319
2.97196 15.9754 -0.808953
2.96148 15.9945 -0.805274
2.94655 15.9754 -0.808953
2.93847 16.005 -0.803445
2.94378 15.9616 -0.812311
2.91763 15.9886 -0.806219
2.89921 15.9935 -0.805447
2.91241 15.9692 -0.810457
2.90103 15.9767 -0.808651
3.82289 15.888 -0.414622
3.84078 15.9111 -0.411232
3.81855 15.9154 -0.421277
3.82398 15.9317 -0.421853
3.81931 15.9464 -0.42641
3.81368 15.9619 -0.431692
3.83752 15.9425 -0.418165
3.88569 15.9404 -0.397763
4.04809 16.8212 -0.493824
4.01914 16.864 -0.511128
4.03698 16.8434 -0.501393
3.44784 15.4694 -1.08191
3.43296 15.4668 -1.09418
3.44951 15.4469 -1.07655
3.43278 15.4532 -1.09194
3.4326 15.4396 -1.0897
3.43243 15.4261 -1.08746
3.46798 15.4446 -1.06075
3.50167 15.4243 -1.02903
3.51268 15.4092 -1.01719
3.43225 15.4125 -1.08523
3.43207 15.3989 -1.08299
3.43654 15.3856 -1.07658
3.42841 15.479 -1.10058
3.41905 15.4776 -1.10891
3.41869 15.4425 -1.10298
3.40746 15.4757 -1.11712
3.40163 15.4424 -1.11868
3.39315 15.4739 -1.12858
3.41906 15.3745 -1.09067
3.39298 15.3902 -1.11733
3.39098 15.4732 -1.13391
3.38577 15.4345 -1.13186
3.37647 15.4715 -1.14174
3.37116 15.4701 -1.14939
3.36743 15.4544 -1.15215
4.54651 15.8133 -0.208227
4.54685 15.8014 -0.206079
4.51042 15.7916 -0.209005
4.53219 15.8221 -0.211428
4.54727 15.7895 -0.203949
4.54768 15.7777 -0.201818
4.53316 15.7628 -0.200843
4.55471 15.742 -0.194836
4.52474 15.7536 -0.200436
4.54752 15.733 -0.193938
4.52402 15.7331 -0.196934
4.4874 15.7506 -0.204859
4.49191 15.6922 -0.19395
4.47113 15.7801 -0.212156
4.59538 15.7841 -0.198436
4.57309 15.8136 -0.205773
4.60492 15.7535 -0.192122
4.60509 15.7205 -0.186262
2.39323 15.3568 -1.55179
2.4339 15.355 -1.56938
2.41096 15.3534 -1.5847
2.36689 15.352 -1.59801
4.39332 14.8794 -1.01651
4.42507 14.8949 -1.01095
4.40999 14.8595 -1.00869
4.42998 14.9182 -1.01375
4.41975 14.9461 -1.02131
4.44509 14.9277 -1.01143
4.4525 14.9442 -1.01241
4.46042 14.9096 -1.00458
4.45347 14.9062 -1.00548
4.46139 14.8934 -1.0015
4.44945 14.8743 -1.0009
4.45334 14.8531 -0.996194
4.47894 14.8707 -0.993792
4.50278 14.9012 -0.994076
4.47566 14.9398 -1.00667
4.4658 14.9713 -1.01434
4.5019 14.9515 -1.00313
2.33924 15.2418 -2.43409
2.30529 15.2493 -2.38703
2.34107 15.2541 -2.35581
2.29129 15.2535 -2.35968
2.34493 15.2617 -2.3063
2.27152 15.2386 -2.45424
2.37501 15.2447 -2.41625
2.38088 15.2375 -2.46082
1.57418 15.9921 -0.173444
1.56594 15.9855 -0.152237
1.56589 15.9856 -0.140526
1.55626 15.978 -0.127208
3.30609 15.5243 -0.843984
3.34384 15.5332 -0.793719
3.34405 15.5371 -0.771318
3.34263 15.5055 -0.95035
3.36933 15.5125 -0.91104
3.31831 15.5232 -0.850581
1.60989 15.3334 -1.76772
1.54239 15.3346 -1.75732
1.5958 15.34 -1.70999
1.55897 15.3436 -1.67735
1.51734 15.3369 -1.73718
1.4947 15.3453 -1.66115
1.54109 15.3413 -1.69757
1.58627 15.3277 -1.81706
1.77876 15.3172 -1.90333
1.79722 15.3091 -1.96642
1.72814 15.3091 -1.96648
1.76602 15.3122 -1.94199
1.83146 15.3193 -1.88627
1.84104 15.3112 -1.95039
1.82866 15.3017 -2.02425
1.55233 15.2271 -2.52473
1.55823 15.2157 -2.59291
1.60229 15.2178 -2.58027
1.52379 15.2071 -2.64172
1.57248 15.2077 -2.63853
1.15129 15.7123 -0.350162
1.16458 15.7192 -0.340533
1.1709 15.7232 -0.304639
1.18115 15.7287 -0.308436
4.17516 15.2127 -0.826379
4.11153 15.207 -0.858474
4.14166 15.2131 -0.823612
4.09834 15.1882 -0.964819
4.12429 15.1863 -0.975895
3.31962 14.5963 -1.91612
3.32555 14.6165 -1.90585
3.34224 14.6164 -1.86941
3.32182 14.6277 -1.91648
3.31851 14.6536 -1.92923
3.3257 14.6432 -1.91022
3.32206 14.6659 -1.92267
3.32594 14.6801 -1.91616
3.33756 14.6632 -1.88784
3.32221 14.6913 -1.92679
3.32237 14.704 -1.92864
3.32805 14.6936 -1.91398
3.34419 14.6065 -1.86339
3.35593 14.6151 -1.83938
3.31131 14.7042 -1.95613
2.75102 15.3146 -1.92437
2.78842 15.3042 -2.00445
2.7927 15.3027 -2.01578
2.78643 15.2989 -2.04463
2.77127 15.3017 -2.02392
2.73479 15.2968 -2.06043
2.70465 15.3057 -1.9938
2.00336 15.4058 -1.29155
1.98007 15.4039 -1.29791
2.01508 15.4045 -1.29595
2.03815 15.4152 -1.26984
2.05069 15.4055 -1.29247
1.98512 15.3864 -1.35567
3.66373 15.2041 -0.875781
3.67632 15.2062 -0.862965
3.7032 15.1967 -0.916999
3.60125 15.1967 -0.917533
3.62215 15.1992 -0.90359
3.63261 15.2005 -0.896619
3.64306 15.2017 -0.889648
3.65352 15.2029 -0.882677
4.70026 17.8461 -0.214878
4.64528 17.8435 -0.242729
4.66197 17.8443 -0.239671
4.66653 17.8449 -0.205651
4.64588 17.8439 -0.216366
4.6173 17.8421 -0.219843
2.58027 15.9002 -0.827416
2.60276 15.917 -0.823439
2.5497 15.8824 -0.831989
2.57505 15.8765 -0.834179
2.56019 15.8947 -0.82896
2.537 15.8824 -0.831981
2.52431 15.8885 -0.830357
2.50065 15.8616 -0.83987
2.60897 15.9546 -0.814168
2.53815 15.8678 -0.837762
2.48779 15.817 -0.857885
1.05764 15.3274 -1.81851
1.04381 15.3165 -1.90837
1.06623 15.319 -1.88776
1.50934 15.4048 -1.29546
1.50904 15.4072 -1.28769
1.53388 15.4072 -1.28775
1.54629 15.4072 -1.28779
1.52281 15.3956 -1.32642
1.55965 15.4048 -1.29524
1.55192 15.3912 -1.34096
1.50897 15.382 -1.3707
1.55871 15.4142 -1.27066
1.54008 15.4142 -1.27062
1.52145 15.4142 -1.27057
2.70819 14.933 -2.43488
2.70783 14.9351 -2.44032
2.70639 14.9286 -2.45972
2.70548 14.9264 -2.47214
2.74871 14.9193 -2.49032
2.70458 14.9243 -2.48456
2.70368 14.9221 -2.49698
2.73124 14.9153 -2.51335
2.70277 14.9199 -2.50942
2.71405 14.9138 -2.52115
2.70132 14.9129 -2.52645
2.7001 14.9067 -2.58428
2.7004 14.9089 -2.57178
2.72001 14.9091 -2.54775
2.7007 14.9111 -2.55929
2.70101 14.9133 -2.54679
2.70131 14.9155 -2.53429
4.30171 14.4543 -0.969892
4.25208 14.4484 -0.987048
3.98875 14.625 -1.14672
3.97817 14.5975 -1.14809
4.00558 14.6433 -1.1399
4.01383 14.6054 -1.12829
4.00729 14.573 -1.12647
4.02401 14.6274 -1.12603
4.03507 14.635 -1.12112
4.03327 14.6241 -1.12021
4.03862 14.6091 -1.11468
4.03313 14.586 -1.11357
4.03563 14.576 -1.11044
4.03304 14.5607 -1.10914
4.01706 14.5392 -1.11464
4.01995 14.5319 -1.11158
4.0534 14.5532 -1.09696
4.0682 14.6012 -1.0975
4.07778 14.5269 -1.07924
4.09187 14.5533 -1.07635
4.10422 14.5406 -1.06794
4.07697 14.5849 -1.08994
0.929177 15.6087 -0.415082
0.910191 15.6013 -0.407335
0.892804 15.5944 -0.420473
0.912595 15.6014 -0.437669
0.916642 15.6024 -0.455148
1.62676 16.0305 -0.445861
1.64522 16.0463 -0.463241
1.62745 16.0314 -0.431681
1.62815 16.0324 -0.417501
2.79385 17.1944 -0.359757
2.79009 17.1923 -0.333549
2.85998 15.3618 -1.50111
2.87063 15.3563 -1.55659
2.85729 15.3489 -1.62735
4.27199 15.2061 -0.863541
4.28998 15.2087 -0.848628
4.41384 15.2273 -0.742949
4.47812 15.2174 -0.7994
4.45183 15.2207 -0.780543
4.37033 15.2201 -0.783785
4.38072 15.2199 -0.785253
0.733741 15.3111 -1.95102
0.82247 15.2969 -2.05957
1.23659 15.7618 -0.146804
1.24719 15.7676 -0.146529
1.24715 15.7677 -0.134806
1.23746 15.7625 -0.117455
1.25288 15.7711 -0.122713
0.332885 15.4243 -1.0097
0.291559 15.4195 -1.00418
0.344319 15.4273 -0.986696
0.34599 15.4265 -1.00311
0.38454 15.4337 -0.979834
0.359465 15.4306 -0.969128
3.89916 15.6113 -0.35042
3.96718 15.5959 -0.437685
3.87995 15.5994 -0.417994
3.95903 15.6121 -0.345924
3.97782 15.605 -0.3863
3.91174 15.6031 -0.39719
3.91398 15.6032 -0.396345
4.02824 15.5922 -0.458719
4.09325 15.6 -0.414647
3.47686 14.7206 -1.64919
3.48387 14.7058 -1.63673
3.50412 14.7201 -1.61052
3.5133 14.7485 -1.60249
3.51889 14.7371 -1.59292
3.51299 14.7231 -1.59842
3.51003 14.7097 -1.60021
3.51036 14.6973 -1.59755
3.48714 14.6778 -1.62716
3.51236 14.6722 -1.59028
3.51829 14.6757 -1.58293
3.52666 14.7181 -1.57962
3.54479 14.6484 -1.544
3.51891 14.6609 -1.57953
2.41799 15.2796 -2.18409
2.43607 15.2872 -2.13056
2.43363 15.2739 -2.22339
2.47227 15.2808 -2.17583
2.51069 15.282 -2.16747
2.46011 15.2698 -2.25172
4.21235 17.028 -0.482993
4.21364 17.0415 -0.485099
2.69375 15.2469 -2.40233
2.67835 15.2407 -2.44103
2.64387 15.2482 -2.39378
2.68111 15.2352 -2.47566
2.62714 15.2586 -2.32683
3.61974 17.6298 -0.421542
3.61468 17.6282 -0.407896
3.6995 17.6579 -0.422032
3.24495 14.7696 -2.16391
3.24957 14.745 -2.1422
3.24683 14.7306 -2.14955
3.24667 14.7178 -2.14788
3.24651 14.705 -2.1462
3.24893 14.6938 -2.13551
3.2654 14.6777 -2.07811
2.27128 15.2661 -2.27675
2.21962 15.2691 -2.25656
2.2495 15.2748 -2.21762
2.22136 15.2587 -2.32607
2.28875 15.2582 -2.32867
2.27268 15.2584 -2.32721
0.185627 15.4411 -0.157407
0.212245 15.4436 -0.130926
1.70684 15.3373 -1.73381
1.69783 15.3386 -1.72242
1.74969 15.3396 -1.71339
1.70953 15.3446 -1.66733
1.77087 15.3465 -1.64999
1.70446 15.3491 -1.62577
1.66549 15.3448 -1.66618
1.6857 15.3529 -1.58877
4.03291 14.5226 -1.10249
4.03772 14.5072 -1.0972
4.06884 14.4934 -1.07815
4.10023 14.516 -1.06553
4.0917 14.5025 -1.06748
4.09166 14.4898 -1.06527
4.09161 14.4771 -1.06305
4.05896 14.4615 -1.07782
4.09157 14.4644 -1.06084
4.09153 14.4517 -1.05862
4.11705 14.4625 -1.04814
4.10867 14.4355 -1.04732
4.12314 14.5022 -1.05222
4.14234 14.4455 -1.03308
4.11785 14.5446 -1.06222
4.15277 14.4811 -1.03433
3.79393 17.6887 -0.418389
3.71536 17.664 -0.39656
3.80332 17.6922 -0.398299
2.56433 17.019 -0.127874
2.71112 17.1323 -0.413091
2.71012 17.1311 -0.428139
2.71997 17.138 -0.444591
2.76711 17.1725 -0.462125
3.92204 15.6353 -0.329611
3.91187 15.6381 -0.333934
3.91925 15.6584 -0.334748
3.91188 15.6613 -0.338022
3.91188 15.6845 -0.34211
3.91882 15.6821 -0.339084
3.90161 15.7156 -0.351629
3.98934 15.6373 -0.305026
3.96688 15.6448 -0.314734
3.95484 15.6741 -0.324356
0.143896 15.3175 -1.90051
0.173941 15.3193 -1.88602
0.190577 15.3094 -1.96479
0.187263 15.3152 -1.91849
0.22054 15.3115 -1.94886
0.220511 15.3064 -1.98767
0.261858 15.3028 -2.01488
0.83355 15.5765 -0.216664
0.827433 15.5741 -0.232088
0.833804 15.5761 -0.25173
0.82894 15.5741 -0.268241
1.86327 16.2663 -0.285302
1.90702 16.3169 -0.221225
1.907 16.3165 -0.246148
1.89127 16.2984 -0.258338
1.91319 16.3235 -0.264165
1.88939 16.2962 -0.266159
