28.28089 48.49112 18.22222
28.48059 48.54521 19.68385
28.62322 48.59973 21.13998
28.69889 48.65481 22.59165
28.561 48.85152 27.65753
28.35546 48.90958 29.10507
28.11137 48.96817 30.55542
22.05657 47.67176 5.568411
25.78342 48.87643 37.91164
23.13916 47.29247 6.44556
24.60649 47.33906 8.078292
26.65029 47.46529 11.94443
28.75774 47.92314 24.4362
28.70918 47.97941 25.88271
27.24 48.30343 33.8689
26.50031 48.39664 36.07476
21.44027 46.86084 5.161311
25.62073 46.98798 9.66771
28.03488 47.78178 30.96783
23.97255 46.51434 7.30787
26.37475 46.63841 11.22137
26.97154 46.69012 12.73568
27.45873 46.74241 14.23344
27.83427 46.79539 15.71693
28.12402 46.84892 17.19013
28.37294 46.90265 18.65647
28.5404 46.957 20.11551
28.65889 47.01172 21.56997
28.88435 47.06527 23.02506
28.60501 47.23547 27.36192
28.40303 47.29346 28.80889
27.72898 47.44082 32.43899
27.08062 47.53256 34.63303
25.36168 47.70879 38.71112
20.7222 46.05054 4.74107
22.15926 46.06945 5.6464
23.17968 46.09099 6.500098
28.63733 46.72316 24.4834
26.10485 47.24253 37.23299
24.6614 45.73704 8.150669
26.04213 45.81188 10.49168
26.69927 45.86327 12.01513
28.30868 46.52157 29.56621
26.85754 46.76247 35.40003
24.0025 45.3129 7.361231
26.425 46.40953 36.52386
25.74838 46.47435 38.01108
25.09811 46.52504 39.13885
25.21318 44.96062 8.976139
27.10298 45.10151 13.1784
27.57334 45.15386 14.67297
27.93881 45.20687 16.1543
28.22108 45.26041 17.62551
28.45513 45.31422 19.08978
28.59319 45.36882 20.54661
28.84295 45.42221 22.00448
28.6976 45.47946 23.44842
28.72863 45.56279 25.62032
28.6156 45.61975 27.06615
28.46568 45.67716 28.51289
27.97163 45.79439 31.41311
27.62067 45.8544 32.86945
27.17196 45.91576 34.33248
20.80727 44.44834 4.817521
22.23471 44.4673 5.72152
23.25259 44.48885 6.574649
26.07293 45.64125 37.29963
25.67081 44.18478 9.789481
26.40956 44.23571 11.32474
28.16783 44.94943 30.35702
24.0596 43.71089 7.43395
24.70224 43.73475 8.238541
26.37838 44.80846 36.59085
25.70205 44.87328 38.07828
24.83871 44.94087 39.58346
26.10257 43.40901 10.59733
26.71986 43.4607 12.11718
27.27639 43.51255 13.62346
28.783 43.77932 20.9825
28.73765 43.89137 23.87748
28.71648 43.94735 25.32447
28.86614 44.00149 26.77293
27.86575 44.20794 31.84272
27.28735 44.29871 34.03168
26.8042 44.36064 35.49979
22.84102 42.87588 6.22618
25.27157 42.95824 9.065351
28.58859 43.45068 22.80392
28.50576 43.66079 28.23353
28.31115 43.71873 29.68138
26.03943 44.04007 37.36626
26.43788 42.63389 11.39399
27.80057 42.77759 15.51719
28.12351 42.83086 16.99285
28.35488 42.88476 18.45875
28.56678 42.93871 19.92008
25.26315 43.70587 38.87866
21.7182 42.0541 5.392521
24.42461 42.12093 7.908199
28.09772 42.96214 30.80215
27.78117 43.02167 32.25592
25.92658 41.7946 10.28101
26.90043 41.87176 12.5646
27.40207 41.92398 14.06471
28.55828 42.20782 21.76566
28.74291 42.2618 23.22
28.73228 42.31768 24.66727
26.02174 42.83899 37.41592
22.8816 41.27395 6.29764
23.75348 41.29641 7.13236
25.03537 41.34413 8.740909
27.93867 41.56115 15.21149
28.07355 41.61608 16.67614
28.30812 41.66999 18.14325
28.52658 42.00309 26.85202
28.51553 42.05898 28.29947
28.27355 42.11746 29.74735
27.27256 42.29682 34.11403
25.4728 42.48782 38.55194
26.45861 41.03213 11.46275
26.7519 41.9588 35.59961
24.45542 40.51911 7.978311
28.68019 40.93561 20.00795
28.55011 40.99272 21.45277
28.02564 41.37528 31.23086
27.67536 41.43524 32.68604
26.15628 41.62198 37.09456
26.13007 40.20561 10.73373
26.76852 40.25711 12.25486
28.06186 40.41498 16.72558
28.35887 40.46832 18.19575
28.7152 40.64651 22.92345
28.7329 40.70211 24.37175
28.74392 40.75774 25.81883
27.00346 41.12686 34.89715
24.97941 41.32116 39.35628
22.93535 39.67194 6.370341
23.81198 39.69437 7.20537
25.04197 39.74246 8.80865
27.67323 39.96182 15.26146
28.5224 40.42936 27.64179
26.46097 39.43049 11.52991
25.78854 40.45349 37.88842
24.47459 38.91736 8.047471
27.07041 39.08165 13.06084
27.43566 39.13494 14.54938
28.54293 39.27937 18.61767
28.27915 39.71491 29.84612
27.9964 39.77394 31.29687
27.66011 39.83374 32.75196
27.23668 39.89475 34.21322
26.72536 39.95703 35.6822
28.5094 39.18644 26.60536
24.92569 39.72016 39.42402
22.99315 38.06995 6.44361
23.83186 38.09264 7.274581
25.06265 38.14072 8.877801
25.93328 38.19094 10.43257
27.7219 38.37384 15.6959
28.16814 38.42601 17.17867
28.46382 38.53522 20.09861
28.62772 38.58951 21.55502
28.71076 38.6445 23.00627
28.72987 38.70007 24.45437
28.40372 38.84296 28.06887
26.13542 39.21973 37.19341
26.63144 37.84167 11.97778
25.56909 38.86871 38.3286
22.49994 37.25822 6.051929
24.50059 37.31555 8.117171
25.55211 37.36465 9.69512
28.27364 37.68022 18.6712
28.49096 38.01328 27.3786
24.90026 38.51921 39.47408
26.31316 37.01508 11.25084
27.65451 37.14508 15.01218
27.9758 37.19845 16.48994
28.54119 37.33324 20.15174
28.64584 37.38808 21.6054
28.71775 37.44318 23.05613
28.73033 37.49882 24.504
28.6943 37.55494 25.95032
28.29486 37.6987 29.56628
28.04388 37.75735 31.01629
27.71056 37.81708 32.47036
27.30173 37.87787 33.93026
21.17227 36.43782 5.193421
23.02591 36.4681 6.51426
25.0691 36.53905 8.94553
27.18489 36.69237 13.53547
26.55357 37.57067 36.15006
25.7174 37.65146 38.00552
26.62731 36.24008 12.04442
21.9188 35.6463 5.68312
25.55797 35.76302 9.7628
26.04835 36.8183 37.29459
24.84057 36.91831 39.54202
27.34199 35.50394 13.96246
27.74467 35.55676 15.44962
28.101 35.60975 16.92785
28.32015 35.66378 18.39356
28.50852 35.71796 19.85406
28.63272 35.77264 21.30909
28.705 35.82774 22.76014
28.716 35.8834 24.20801
28.69291 35.93939 25.65467
28.61038 35.99601 27.10048
28.45205 36.05349 28.54658
28.23853 36.11164 29.9943
27.93664 36.1709 31.44541
27.60326 36.23067 32.90059
27.15503 36.29198 34.36254
26.6428 36.35429 35.83197
21.17882 34.83623 5.261551
23.01818 34.8666 6.580758
23.84778 34.88935 7.410731
24.52287 34.91303 8.22003
26.13744 35.00034 10.95224
25.6851 36.05024 38.07214
21.90012 34.04482 5.74851
25.06646 34.13666 9.04608
26.16476 35.20109 36.99065
25.01319 35.30026 39.23231
26.63579 33.83759 12.14559
27.19515 33.88946 13.65335
27.66099 33.94179 15.14622
28.00769 33.99492 16.62523
28.27806 34.04853 18.09477
28.48901 34.10252 19.55694
28.59107 34.15743 21.01153
28.66352 34.21255 22.46309
28.70544 34.26792 23.91227
28.68927 34.32383 25.35898
28.60548 34.38047 26.80471
28.48057 34.43756 28.25067
28.2693 34.49567 29.69794
28.00166 34.55452 31.14816
27.22242 34.67549 34.06304
21.12571 33.23496 5.32321
22.9445 33.26549 6.64068
23.79634 33.28809 7.472999
24.47237 33.31176 8.282561
25.50798 33.36099 9.85907
25.42757 34.46589 38.51406
26.91283 33.06278 12.93376
27.53815 33.82894 33.00018
26.56404 33.95275 35.93248
24.93899 32.53604 9.10159
25.87567 32.58577 10.66255
28.07924 32.8071 17.04335
27.08208 33.48994 34.47893
25.93832 33.61633 37.42928
27.24944 32.30149 14.08976
27.70925 32.35383 15.58093
28.30147 32.46071 18.52586
28.48173 32.51496 19.98594
28.58193 32.56986 21.44
28.6633 32.62488 22.89155
28.68285 32.68046 24.33968
28.65331 32.73652 25.78632
28.5669 32.79318 27.23208
28.40342 32.85072 28.67824
28.16804 32.90912 30.12625
27.87922 32.96825 31.5774
25.31529 31.76086 9.909251
26.32997 31.82388 11.83784
27.44005 32.22842 33.06743
26.54933 32.3372 35.63396
25.97186 32.40056 37.11168
25.40115 32.45 38.23038
27.92725 31.20682 17.10139
26.89556 31.8905 34.54886
26.26602 30.65153 12.61825
27.08499 30.71534 14.51106
27.40398 30.75485 15.62851
28.13198 30.86062 18.58396
28.32753 30.91477 20.04573
28.47889 30.96921 21.50263
28.55071 31.02435 22.95445
28.57322 31.07992 24.40337
28.51691 31.13629 25.85008
28.42245 31.19307 27.29662
28.28017 31.25041 28.74376
28.00278 31.30931 30.19255
27.68648 31.36879 31.64502
26.95138 31.06097 33.85253
25.63077 30.78905 36.82294
27.72686 29.66314 18.61377
28.04396 29.37179 21.55311
28.10607 29.41315 22.64454
28.19247 29.4682 24.09822
28.17153 29.52428 25.54793
28.05219 29.58141 26.99636
27.70529 29.68302 29.53354
27.35357 27.84703 23.41527
27.37196 27.90294 24.87174
27.29818 27.95979 26.32594
26.40327 26.22676 22.72328
25.3471 26.52009 30.03193
22.93272 25.60278 15.93525
23.93813 25.63683 17.10913
25.63862 25.73491 20.14561
26.13132 25.98414 26.75677
26.56018 25.48071 24.22296
26.34037 25.53928 25.6798
25.65523 25.64526 28.23281
24.59839 25.74182 30.434
26.16499 24.98558 21.66689
21.62603 24.3697 14.78097
22.62015 24.38994 15.59315
23.40635 24.41175 16.38611
25.00803 24.48288 18.69445
26.29989 24.23986 23.16885
26.3993 24.29521 24.6341
24.02482 23.63402 17.19747
25.40616 23.70672 19.48317
26.19843 23.98136 26.84022
25.7072 24.04303 28.29908
25.07233 24.10653 29.76395
26.12512 23.38432 21.73191
20.4869 22.74879 14.01846
21.74061 22.76709 14.85543
22.74136 22.78726 15.66764
23.46502 22.8096 16.45633
24.91522 22.86788 18.38765
26.37572 23.12236 25.41413
26.33979 22.63781 23.23635
25.30655 22.09186 19.17713
26.21635 22.18222 21.78504
26.24223 22.37927 26.90697
22.8473 21.58514 15.72443
26.47416 21.89197 24.73517
25.50164 22.07147 29.11332
20.7455 21.14504 14.10347
21.96809 21.16358 14.93741
23.58879 21.20693 16.53048
26.16346 21.35374 21.08385
26.42892 21.43573 23.28873
24.81667 21.7211 30.23027
24.52279 20.84093 17.71191
25.6759 20.91548 19.97948
25.02146 20.46447 18.49306
26.48253 20.60616 22.59237
26.4939 20.66237 24.0546
26.43628 20.74741 26.24521
25.87651 20.83789 28.43217
22.98168 19.98233 15.79967
24.06003 20.01579 16.97919
25.27596 20.48641 29.54538
21.01361 19.54112 14.1891
22.1743 19.56015 15.01802
25.43343 19.68824 19.28318
26.00559 19.73945 20.77744
26.5538 19.8891 24.81984
24.62975 19.23839 17.78436
25.92522 19.63614 28.48203
22.74782 18.7688 15.46219
23.55553 18.79046 16.25734
26.25679 18.96446 21.5533
26.58586 19.03168 23.39293
25.25699 19.29953 29.96163
21.77579 18.34793 14.66714
25.83873 18.51156 20.08656
26.51702 18.71639 25.59891
26.35169 18.77441 27.05708
24.4271 18.9509 31.08251
20.52064 17.92913 13.84487
25.18839 18.0605 18.60162
24.20083 17.6121 17.08744
26.52367 17.94362 26.36239
26.25179 18.00278 27.81956
22.90753 17.16579 15.53937
23.6523 17.18797 16.33004
25.65174 17.28377 19.39357
26.17159 17.33542 20.88413
26.47011 17.38893 22.3591
25.29026 17.69749 30.0275
24.46365 17.74922 31.13168
21.97617 16.7446 14.74767
24.82061 16.83423 17.89487
26.7372 17.02812 23.48036
26.67186 17.08502 24.93841
20.78543 16.32532 13.93069
25.3348 16.45755 18.67573
26.04333 16.50759 20.17895
26.38541 16.56077 21.65786
26.02062 16.83221 28.59813
22.99261 15.96386 15.595
24.34216 16.00924 17.16233
26.53156 16.3419 26.42861
23.72672 15.58572 16.40138
26.76039 15.84072 23.89564
26.82252 15.89631 25.35626
25.34467 16.09525 30.09333
22.17083 15.14132 14.82772
26.32258 15.33193 20.97344
20.97321 14.72212 14.011
25.55983 14.86802 19.12153
26.56758 14.98552 22.46214
26.0264 15.23049 28.66411
23.08344 14.36144 15.66761
24.21688 14.39446 16.85182
26.78026 14.72359 26.13427
24.76017 14.01771 17.63918
25.92396 14.09213 19.90653
26.42062 14.12979 21.02741
26.74916 14.23919 23.96162
22.36659 13.53805 14.90795
26.43808 13.96854 27.2564
26.04148 14.0291 28.71369
21.27029 13.11804 14.09922
23.7425 13.16886 16.13163
25.28018 13.24062 18.43812
26.73336 13.38228 22.5343
24.30632 12.79207 16.92383
19.84809 12.29999 13.27518
24.85117 12.41526 17.711
25.70909 12.4642 19.22884
26.28293 12.51535 20.7221
26.80439 12.60887 23.29986
26.89861 12.66413 24.76137
26.86569 12.72064 26.21852
26.48345 12.76681 27.30665
26.10235 12.82718 28.76364
26.73189 12.15292 21.85377
20.79957 11.50585 13.75623
22.07105 11.52412 14.59736
23.07939 11.54431 15.41237
23.80058 11.56672 16.20201
25.39137 11.63798 18.51075
26.88593 11.43495 24.0815
26.36574 11.59497 28.08487
25.86936 10.86112 19.30345
26.35582 10.91305 20.79174
26.90814 10.97811 22.63995
26.90323 11.09054 25.55662
26.78387 11.14795 27.01226
25.8775 11.25618 29.55972
24.49991 10.38792 17.03552
25.13153 10.90637 30.67432
21.10612 9.901741 13.84556
22.3492 9.920211 14.68364
23.19366 9.941761 15.48681
23.93009 9.96402 16.27703
25.12612 10.01042 17.82656
26.25002 10.08506 20.08812
26.6048 10.13808 21.56665
26.96717 9.83251 24.15008
26.93862 9.888963 25.60701
26.85194 9.946012 27.06288
26.41258 9.992828 28.15131
25.89521 10.05475 29.60917
21.86589 9.109032 14.30904
25.78517 9.246138 18.99881
25.17792 9.704621 30.72372
24.43659 8.772627 16.72883
26.77932 8.963292 22.35343
27.00061 9.059441 24.913
26.97222 9.115872 26.36934
20.67857 8.289163 13.50478
23.31918 8.33906 15.56197
25.40675 8.42045 18.27708
26.38012 8.4822 20.16068
26.68594 8.774632 27.83906
22.57887 7.916239 14.78328
25.92806 8.452752 29.67521
21.51838 7.495893 13.97617
25.83002 7.644118 19.06773
26.66128 7.706927 20.93788
27.13719 7.81474 23.87355
26.98295 7.914533 26.41914
24.51199 7.170399 16.80024
26.8815 7.360709 22.42357
27.05251 7.457321 24.98047
20.98295 6.68499 13.59447
22.233 6.703497 14.43562
25.07376 6.793389 17.5885
26.77661 7.171971 27.90615
25.95521 7.251171 29.72478
23.28111 6.323022 15.27112
23.98882 6.345571 16.06048
26.22815 6.467467 19.87064
20.38914 5.87459 13.20657
25.61954 6.016092 18.38871
26.94476 6.130719 21.74634
27.19547 6.212508 23.94163
24.68558 5.567213 16.87762
27.10119 5.911229 26.50391
26.54741 6.001321 28.68234
25.60957 6.081981 30.50513
25.29974 5.189811 17.66839
26.13298 5.238911 19.18332
27.14645 5.38413 23.24492
27.09068 4.738172 27.28118
26.14178 4.846697 29.82437
24.12659 3.94194 16.16954
26.19013 4.037151 19.23613
27.2965 4.293529 26.21002
25.63376 4.07963 30.58751
17.58306 113.8351 43.31066
14.83352 113.87 43.41202
22.728 113.3362 40.73785
22.12979 112.9553 41.65426
19.4676 113.0112 43.3563
17.23947 113.0473 43.99968
14.92676 112.2822 44.60531
16.85376 111.8586 44.6517
24.55692 111.2963 39.74302
23.71819 111.3224 40.89916
22.77526 111.3481 41.92716
21.69034 111.3732 42.78759
20.49371 111.3979 43.52194
19.18584 111.4222 44.13601
16.17683 110.669 44.98248
18.93837 110.2268 44.41755
17.46239 110.2508 44.85441
23.5726 109.7267 41.31456
22.5952 109.7523 42.29951
21.49555 109.7773 43.14172
20.30003 109.8019 43.87659
16.67179 109.4614 45.04469
19.98221 108.6062 44.07738
18.61438 108.6304 44.6257
24.00308 108.1113 40.80363
23.0978 108.1371 41.87485
22.06968 108.1624 42.79948
20.92757 108.1872 43.59313
15.38985 108.2773 45.23265
16.70072 107.8591 45.12609
18.23341 107.0339 44.7709
23.51033 106.5216 41.34356
22.57628 106.5472 42.37938
15.38826 106.6748 45.28028
21.76474 106.1654 43.03862
20.58154 106.1901 43.78595
19.28833 106.2146 44.41434
17.08712 105.8499 45.09538
15.34495 105.0722 45.2826
17.44757 104.642 45.01221
14.35898 104.2824 45.27185
23.23883 103.7235 41.64762
22.25402 103.749 42.62382
21.12913 103.7739 43.43712
19.88917 103.7984 44.12283
18.53222 103.8227 44.68393
16.19786 103.8585 45.21609
17.01723 103.0454 45.10511
15.29704 102.6683 45.30468
23.19702 102.1209 41.64951
22.22623 102.1464 42.64239
21.10453 102.1713 43.45946
19.8654 102.1959 44.1463
18.50422 102.2201 44.70268
24.46814 101.6811 39.94646
23.64301 101.3067 41.13119
22.71043 101.3324 42.17032
21.66522 101.3576 43.07589
16.57154 101.4487 45.18247
19.83619 100.9939 44.15094
18.46672 100.6175 44.71065
17.33477 100.6355 45.01187
15.6922 100.6592 45.27971
24.25866 99.68456 40.3008
23.40491 99.71067 41.43697
22.43846 99.73618 42.43528
21.34328 99.76122 43.28307
20.15013 99.78592 44.02108
16.51841 99.84607 45.17377
18.78941 99.00889 44.60091
17.30357 99.03288 45.02716
21.89139 98.54685 42.8977
23.82896 98.09514 40.91779
22.90455 98.12088 41.96741
20.72983 98.17103 43.68266
19.45689 98.1955 44.33309
18.03901 98.21961 44.82898
16.04724 98.24931 45.2246
16.84993 97.43616 45.09461
24.63058 96.86698 39.7547
21.8534 96.94423 42.90447
20.07432 96.9813 44.02305
15.11719 97.05905 45.28175
23.81587 96.49262 40.95381
18.70555 96.6049 44.58203
22.37293 96.13038 42.47361
24.21315 95.67824 40.37526
23.34679 95.70424 41.49645
20.68548 95.76717 43.70754
19.39541 95.79161 44.33889
17.97259 95.81568 44.82986
15.96678 95.84534 45.21081
18.6652 95.0023 44.5869
17.18573 95.02631 45.02118
24.2219 94.47642 40.4245
22.34847 94.52781 42.49594
21.24865 94.55284 43.33885
20.03368 94.57747 44.05252
15.4689 94.24857 45.23383
22.85495 93.71389 42.0497
21.80496 93.73911 42.95006
17.9272 93.81242 44.84177
24.62284 93.26138 39.86192
16.31467 93.4355 45.14831
14.47751 93.4588 45.21556
19.98848 92.97482 44.05148
24.20406 92.47326 40.46757
18.60608 92.59839 44.59567
17.10717 92.62233 45.00888
22.82665 92.11132 42.06765
21.76889 92.13649 42.95894
16.24239 91.8328 45.11857
14.90276 91.44973 45.22149
24.40289 90.86423 40.217
23.53759 90.89026 41.34007
22.55138 90.91571 42.316
21.46672 90.94079 43.17646
20.24391 90.96539 43.88033
18.92339 90.98974 44.48019
17.43621 91.01369 44.9034
16.62198 90.22427 45.0669
15.30473 89.84123 45.19064
23.97601 89.27479 40.83781
23.04463 89.30051 41.87977
22.00209 89.32574 42.78897
20.85252 89.35058 43.57499
19.56785 89.37502 44.21165
18.15582 89.39913 44.71326
16.16135 88.62756 45.1287
23.26861 87.69159 41.66044
22.25303 87.71694 42.60119
21.10806 87.74181 43.39238
19.85732 87.76631 44.06605
18.48192 87.79053 44.60666
16.96914 87.81446 45.00556
14.26632 87.44887 45.17154
23.73555 86.87753 41.16694
22.74496 86.90296 42.138
21.67649 86.9281 43.01705
20.4822 86.95279 43.75308
18.45381 86.58857 44.61274
15.19944 86.63596 45.17466
16.91485 86.21179 44.99513
23.72437 85.67561 41.19223
22.98783 84.89351 41.95366
21.927 84.91867 42.84161
20.74466 84.9434 43.59046
19.45383 84.96781 44.22088
15.61113 85.02749 45.15569
17.26158 84.60322 44.90898
23.6875 84.073 41.19967
18.38945 84.18462 44.61557
22.18638 83.7105 42.65102
16.42915 83.81376 45.05301
15.08389 83.43062 45.14753
17.21703 83.00056 44.90933
24.74774 82.43784 39.81894
23.904 82.46401 40.97088
22.94888 82.48962 41.98448
21.88198 82.51478 42.86559
20.69387 82.53951 43.60801
19.40881 82.56391 44.24529
16.37187 82.2111 45.03967
15.03388 81.828 45.14237
14.02962 81.83947 45.08748
24.11338 81.25564 40.72031
17.56373 81.39201 44.82377
23.17392 80.88072 41.7666
22.13152 80.90596 42.67611
20.96865 80.93076 43.44716
19.6999 80.95522 44.10131
16.31243 80.60841 45.02373
24.5251 80.04068 40.17129
23.64974 80.06669 41.2835
18.26939 80.17802 44.6062
13.96002 80.23676 45.06137
17.10909 79.79526 44.88929
25.2974 79.21286 38.95308
14.93669 79.42397 45.11045
24.30011 78.84531 40.48121
22.37124 78.89647 42.48821
21.23148 78.92133 43.28528
19.97973 78.94585 43.95756
18.60558 78.97008 44.49871
16.26249 79.00577 45.01835
23.3795 78.47047 41.55067
17.07786 78.19267 44.90434
24.49504 77.63681 40.21251
14.8719 77.82128 45.08926
23.11447 77.27491 41.81166
22.07045 77.30017 42.7196
20.88995 77.3249 43.47044
19.62637 77.34936 44.13104
18.20202 77.37345 44.61832
16.21208 77.40312 45.01252
25.28148 76.8091 39.01176
24.48925 76.43498 40.24452
23.59114 76.46081 41.32941
22.58473 76.48628 42.28215
21.47216 76.51124 43.11055
20.25522 76.53588 43.82169
18.90982 76.56013 44.39341
17.41325 76.58405 44.80597
15.29336 76.6135 45.0678
24.03922 75.64667 40.81212
23.09054 75.67233 41.83462
22.02505 75.6975 42.7177
20.87027 75.72235 43.49862
19.57257 75.74671 44.12027
18.16671 75.77084 44.62876
16.14374 75.39985 44.9992
17.35693 74.98143 44.79314
15.21862 75.01082 45.03542
24.66364 74.02459 39.98954
23.78382 74.05059 41.09801
22.80588 74.07613 42.08484
21.71626 74.10118 42.94004
20.5193 74.12588 43.67322
19.18481 74.15016 44.2557
16.07553 73.79712 44.97366
14.18426 73.41964 44.99539
16.88759 72.98403 44.85509
24.63763 72.42202 40.0099
23.75585 72.44802 41.11607
22.77493 72.47352 42.09966
21.69736 72.49866 42.96899
20.48178 72.52325 43.68083
19.13571 72.54751 44.25034
15.1391 72.60682 45.02262
17.64684 71.77017 44.69432
14.10339 71.817 44.95685
15.99167 71.39313 44.95586
24.81272 70.81281 39.72927
23.95463 70.83896 40.86558
22.98635 70.86453 41.86529
21.92881 70.88972 42.75824
20.7374 70.91442 43.49753
19.44812 70.93886 44.12994
15.06429 71.00411 44.99031
17.21418 70.57413 44.77139
16.36756 69.78461 44.8998
24.1484 69.22987 40.60901
23.21024 69.25562 41.64524
22.18533 69.28092 42.57678
21.01917 69.30572 43.34449
19.73578 69.33015 43.98205
18.33124 69.35424 44.49084
14.99996 69.40143 44.96938
17.16465 68.97146 44.76613
24.34017 67.62078 40.34942
23.42944 67.64665 41.41995
22.40711 67.67198 42.35472
21.28527 67.69694 43.17348
20.02209 67.72143 43.83302
18.64924 67.74563 44.37556
15.86587 67.78713 44.92897
17.10917 67.36885 44.75429
14.89236 66.59677 44.93824
24.53747 66.01171 40.09594
23.6511 66.03768 41.19709
22.63851 66.06308 42.14375
21.54101 66.08811 42.99084
20.31071 66.1127 43.68686
18.96256 66.13699 44.25548
16.23851 66.1786 44.86909
17.465 65.76025 44.67862
14.84512 65.39473 44.92365
24.06876 64.42215 40.6683
23.11761 64.44782 41.68945
22.07172 64.47306 42.59702
20.89518 64.49781 43.35349
19.61261 64.52227 43.99297
16.1862 64.57598 44.86101
18.18792 64.1457 44.49269
14.79206 63.79209 44.91502
24.0397 62.8196 40.68504
23.08699 62.84519 41.70449
22.03779 62.87047 42.60828
20.85914 62.89522 43.36257
19.57753 62.91967 44.0035
16.56767 62.96747 44.81157
17.36472 62.15437 44.67909
15.20867 62.18365 44.90046
24.00244 61.21694 40.6919
23.06066 61.24262 41.72462
22.01818 61.26795 42.63639
20.8285 61.29263 43.3779
19.54793 61.31709 44.0202
16.52304 61.36485 44.81186
17.30607 60.55165 44.66364
24.21819 59.60791 40.46111
23.29391 59.63371 41.51585
22.25432 59.65902 42.43088
21.10623 59.68388 43.22008
19.83878 59.70836 43.87592
18.43968 59.73251 44.39011
15.59018 59.77386 44.87338
24.62766 58.79356 39.89393
23.75097 58.81961 41.0086
22.77277 58.84518 41.99749
21.67742 58.87023 42.84727
20.47551 58.89491 43.57596
19.14926 58.91923 44.1682
16.83199 58.55427 44.72014
15.53991 58.57187 44.85517
14.56737 58.18272 44.84226
24.18414 57.20413 40.49778
23.25205 57.22986 41.54323
22.21344 57.25515 42.45962
21.06045 57.28003 43.24328
19.78049 57.30449 43.8849
18.37936 57.32859 44.39729
16.36941 56.95754 44.77841
15.02205 56.97503 44.85666
24.79956 55.98249 39.64791
23.93947 56.00866 40.78418
22.98139 56.03432 41.79754
21.91551 56.05946 42.68215
20.72918 56.08424 43.42808
19.41555 56.10856 44.03317
17.18101 56.14445 44.66131
18.32197 55.32528 44.3954
16.31408 55.35487 44.76688
14.95865 55.37231 44.83666
22.16185 54.45063 42.48849
21.00386 54.47548 43.26665
19.72758 54.49995 43.91281
17.13171 54.54179 44.65621
24.76633 53.57867 39.68537
23.91843 53.60489 40.83644
22.95435 53.63047 41.84252
18.63832 53.71661 44.27798
14.89597 53.76966 44.81736
24.35117 52.79059 40.2983
23.42954 52.81641 41.35756
21.86274 52.85432 42.72244
20.66275 52.87902 43.45293
19.34884 52.90337 44.058
17.87009 52.92727 44.48613
16.22698 52.95088 44.74494
22.39705 52.04053 42.30722
21.27498 52.06549 43.12684
20.01122 52.08996 43.78583
18.60466 52.11402 44.29018
17.0662 52.13787 44.65801
14.83883 52.16702 44.80417
23.88576 51.20106 40.87472
22.90968 51.22659 41.86657
21.84946 51.25182 42.75807
20.63852 51.27646 43.47558
19.29662 51.3007 44.04894
17.83274 51.32468 44.49426
16.19431 51.34828 44.75846
24.31094 50.38673 40.32746
23.40084 50.4126 41.4006
22.37685 50.43796 42.33465
21.24818 50.46291 43.14656
19.96351 50.48726 43.78166
18.56801 50.51149 44.29901
14.77915 50.56432 44.78814
16.54973 49.7397 44.68027
24.51728 49.1783 40.07155
23.62235 49.20425 41.16427
22.6202 49.22974 42.12486
21.52234 49.25479 42.97228
20.27995 49.27933 43.65493
18.91129 49.3035 44.20011
24.9153 48.36381 39.48894
24.07754 48.39009 40.65387
23.12878 48.41578 41.67957
22.08506 48.44106 42.59018
20.89326 48.46577 43.32899
19.58309 48.49011 43.9371
18.14638 48.51415 44.41063
16.51069 48.13707 44.68673
23.84138 47.19469 40.95071
22.8574 46.81957 41.94585
21.77251 46.84471 42.80836
20.55772 46.86935 43.52176
19.20766 46.89358 44.08623
16.88983 46.52857 44.63596
24.27485 45.97978 40.42645
23.3487 46.00559 41.48004
22.31497 45.6303 42.41537
14.61126 45.75635 44.75266
21.1552 45.25449 43.20383
19.864 45.27888 43.83195
17.66293 45.31479 44.49114
18.42798 44.50164 44.32889
15.96977 44.53698 44.72101
24.45963 43.97004 40.17031
23.56012 43.99594 41.25741
22.56813 44.02148 42.23007
21.43999 43.64578 43.05455
20.16992 43.67025 43.70559
17.61007 43.71213 44.48195
15.02984 43.7473 44.75251
24.01493 42.78119 40.75957
23.0561 42.80686 41.77315
21.99941 42.83202 42.66852
20.80798 42.85679 43.4081
19.47039 42.88104 43.98503
16.33821 42.92844 44.6569
24.42426 41.96683 40.19225
23.53407 41.99283 41.29059
22.53263 42.01828 42.25216
21.40418 42.04322 43.06373
20.1311 42.06766 43.71152
14.96334 42.14456 44.72883
17.1573 41.7148 44.56096
23.98143 41.1786 40.77089
23.03442 41.20433 41.79881
18.70057 41.29039 44.21249
21.3827 40.84128 43.07694
14.91773 40.9426 44.71586
17.51843 40.10627 44.49158
15.80891 40.12968 44.6796
24.17309 39.56951 40.51056
23.2614 39.59539 41.58194
22.21698 39.62065 42.49207
21.04717 39.64545 43.25638
19.73702 39.6698 43.86326
14.84815 39.33992 44.68885
17.45603 38.50356 44.47153
15.74814 38.52702 44.66195
24.3776 37.96048 40.26548
23.47777 37.98643 41.35221
22.45889 38.01179 42.2931
21.32042 38.03668 43.09355
20.03279 38.06109 43.72498
18.62666 38.08518 44.22922
17.80125 36.89499 44.38511
16.13279 36.91847 44.61522
24.12239 35.96376 40.56585
23.19197 35.98956 41.61502
22.14689 36.01481 42.52465
20.96869 36.03955 43.27962
19.61943 36.06382 43.84222
16.92071 35.70469 44.48336
15.16945 35.72807 44.63192
24.31502 34.75527 40.29339
23.4111 34.78124 41.37555
22.37893 34.80651 42.30112
21.2318 34.8314 43.09205
19.89805 34.85566 43.67125
17.68284 34.49087 44.32678
15.98673 34.51433 44.52741
18.82053 34.07241 44.04832
15.06585 34.12525 44.56699
24.86392 33.53331 39.35924
19.78811 32.85211 43.60788
18.34538 32.87618 44.07318
16.27907 32.90548 44.37827
14.37464 32.52789 44.37784
23.84607 31.95634 40.36082
22.89208 31.98208 41.38543
21.82398 32.00732 42.27193
20.64084 32.03212 43.02553
16.88272 31.69109 44.03974
24.85293 31.11432 38.31971
24.23829 31.13424 39.22069
19.39328 31.24818 43.20387
17.99698 31.27244 43.7277
22.48634 30.77847 40.9393
14.4173 30.91829 43.94902
21.1518 30.40211 41.53067
19.98457 30.42712 42.31296
17.58523 30.46974 43.28506
15.9944 30.49356 43.60747
14.59406 27.21656 37.25208
22.85444 26.65864 33.15175
18.93131 26.74159 35.70228
13.52464 26.8196 36.5842
24.03654 26.21643 31.19438
20.9339 26.29569 34.20174
19.66882 26.32099 34.91915
16.75344 26.37024 35.91513
15.07175 26.39422 36.16911
11.81167 26.42802 35.74097
25.23692 25.77403 29.23558
22.01986 25.86898 33.2792
20.32214 25.50726 34.61105
19.01442 25.5324 35.27954
17.53573 25.5569 35.75109
15.79925 25.58055 35.93215
23.64493 25.02856 31.89692
22.61719 25.05498 32.9062
21.45965 25.08075 33.75191
16.59931 24.76717 35.78396
14.73243 24.79046 35.824
21.20142 23.8855 34.04165
20.1823 23.90417 34.49223
18.15402 23.94162 35.42013
22.29259 23.05817 33.13923
24.29657 22.60438 31.06489
23.33297 22.63118 32.15918
19.55055 22.71494 34.8922
17.40288 22.75202 35.683
15.65799 22.77566 35.85564
21.21723 22.28311 34.11352
16.60121 21.96286 35.87617
22.27666 21.45567 33.17201
18.89469 21.52569 35.26448
15.68092 21.57389 35.92093
20.20464 21.09996 34.61072
17.39646 21.14951 35.72678
23.38796 20.62842 32.29541
21.23393 20.68076 34.1866
19.56293 20.31132 34.98524
23.91186 19.81406 31.82991
22.32291 19.85345 33.28269
16.58855 19.95973 35.92525
20.21654 19.49756 34.67748
18.8885 19.52259 35.32168
15.69844 19.17026 36.01834
23.43113 18.62563 32.41651
17.42809 18.74595 35.84174
21.24839 18.27718 34.28289
18.88843 18.32078 35.36046
16.6101 17.95674 36.01491
22.33947 17.44983 33.38239
18.19974 17.53198 35.68154
23.45381 17.02331 32.49838
19.5743 17.10645 35.10293
15.68197 17.16712 36.06288
21.81678 16.66177 33.90061
16.60743 16.75484 36.05012
20.65104 16.28685 34.74786
22.88798 15.83439 32.97571
15.71144 15.96537 36.13595
17.41601 15.54097 35.93038
21.80156 15.05924 33.93422
19.99557 15.09754 35.11642
25.45508 14.5583 29.89833
23.47863 14.61977 32.60946
18.88548 14.7152 35.47353
16.60571 14.75177 36.11232
22.70397 13.83827 33.38501
21.23564 13.87033 34.41113
20.00387 13.89573 35.1654
17.40957 13.93846 35.9741
24.6476 13.38423 31.24038
15.2027 13.56728 36.17347
20.683 13.0821 34.89154
16.61783 13.14933 36.17796
25.11166 12.5695 30.69623
24.17088 12.59647 31.81979
23.5389 12.61703 32.75243
21.82844 12.65569 34.04649
18.20785 12.7246 35.84612
24.71124 11.78216 31.37603
21.26971 11.86745 34.51875
20.02587 11.89276 35.25731
15.75249 11.95937 36.31194
23.55146 11.41524 32.80806
22.40546 11.44102 33.66281
18.92388 11.51044 35.62347
17.45244 11.53496 36.10242
14.81152 11.57036 36.3371
24.22383 10.99432 31.94104
23.00763 10.62704 33.29864
21.84519 10.65272 34.13295
20.065 10.2905 35.35705
17.47055 10.3332 36.16246
23.73151 9.805799 32.51203
15.78145 9.956379 36.40994
22.76431 9.431911 33.60591
21.84864 9.450932 34.17667
18.93882 9.507467 35.70621
20.69745 9.076067 35.03967
17.51187 9.131559 36.25036
15.81597 8.754713 36.48885
24.79319 8.17717 31.60219
23.77216 8.203601 32.61697
21.29641 8.26205 34.66966
20.07736 8.28749 35.43723
18.26081 8.318112 36.05159
21.88252 7.448 34.28459
20.72405 7.473738 35.12451
16.71273 7.541118 36.46987
24.92371 6.968012 31.22642
18.28626 7.116379 36.12085
24.36798 6.588427 32.27267
23.25959 6.614351 33.1738
15.84101 6.75171 36.58237
20.11917 6.2846 35.55329
23.84323 5.800308 32.78729
14.94873 5.96228 36.67571
25.018 5.366129 31.40221
19.03459 5.501734 35.95123
17.58669 5.526309 36.45531
24.42663 4.986291 32.40133
21.97613 5.044819 34.47979
15.88948 5.149429 36.6904
22.57171 4.230869 34.10843
21.06498 4.26265 35.08227
16.61006 3.935163 36.46379
8.07893 114.5597 40.26745
5.97256 113.4134 39.33077
10.9494 112.8322 43.75888
5.164531 113.0412 38.63818
13.27765 112.3758 44.47653
11.95809 112.4035 44.24659
2.037131 112.8736 30.2226
9.317787 112.0678 43.32897
8.102182 112.1053 42.55648
7.058179 112.1431 41.62666
6.136056 112.1813 40.58118
5.296168 112.2198 39.45374
4.58157 112.2589 38.19849
3.96114 112.2985 36.84165
1.51814 112.5259 28.14978
1.962261 112.0502 31.30124
14.24966 111.1458 44.97831
10.46143 111.229 44.14125
1.45122 111.7022 29.23515
11.52081 110.8005 44.57878
2.85915 111.156 34.91263
2.48223 111.1865 33.78731
1.14891 111.3447 27.44314
1.00305 111.435 23.3183
13.17117 110.3629 44.96461
9.3433 110.4556 43.71566
8.125396 110.493 42.94678
7.030676 110.5307 42.06717
6.078681 110.5687 41.05358
5.225339 110.6071 39.94324
4.517979 110.6461 38.68535
3.85417 110.6855 37.37686
3.24214 110.7252 36.00734
2.12559 110.8167 32.61578
1.51147 110.8793 30.17677
15.05803 109.9253 45.15803
12.21196 109.9807 44.86619
1.8073 110.4473 31.3955
1.02434 110.5655 26.48363
0.9724902 110.5879 25.47346
0.93322 110.6105 24.44267
1.02358 110.6574 22.1693
1.17403 110.1321 27.89064
13.93522 109.1425 45.1781
10.9496 109.2073 44.56071
2.878339 109.5541 34.82459
1.03586 109.8332 23.21012
9.209488 108.8532 43.77453
7.99109 108.8906 43.00733
6.935434 108.9283 42.09183
5.980437 108.9663 41.08183
5.197133 109.0049 39.90396
4.46881 109.0439 38.66686
3.81621 109.0832 37.34714
3.25354 109.1232 35.92758
2.50436 109.184 33.67837
1.661609 109.267 30.46533
12.50536 108.3691 45.00976
2.168009 108.8144 32.48503
1.53539 108.888 29.54385
1.24022 108.9422 27.23778
1.10781 108.9867 25.25297
1.080579 109.0095 24.20761
14.3203 107.531 45.24377
11.24053 107.5957 44.70411
1.22354 108.1637 26.15908
1.19316 108.2323 22.96264
1.24323 108.2559 21.8145
9.116808 107.2508 43.7952
7.933783 107.2883 42.99551
6.876132 107.326 42.08229
5.938785 107.3641 41.05568
5.15522 107.4027 39.87815
4.44939 107.4417 38.61876
3.79014 107.4811 37.30561
3.25043 107.5211 35.86262
13.30246 106.7483 45.17446
2.90479 107.1511 34.69467
2.42791 107.1919 33.16421
2.00948 107.2334 31.55757
1.47637 107.3079 28.4918
11.96885 106.3754 44.94072
10.44319 106.4125 44.43673
1.74468 106.8645 30.27237
1.37287 106.9292 27.53386
1.26964 106.9738 25.52138
1.21748 106.9964 24.50574
1.26672 107.0197 23.37012
14.24011 105.9287 45.25111
2.22168 106.4116 32.32516
1.64054 106.4855 29.32621
8.771581 105.658 43.57523
7.602958 105.6954 42.76387
6.581464 105.7333 41.81705
5.688161 105.7715 40.74816
4.924501 105.8102 39.55021
4.269881 105.8494 38.23849
3.67734 105.8891 36.85614
1.97569 106.0426 31.02652
13.23619 105.146 45.16975
10.74 105.2015 44.58999
2.94131 105.5493 34.5888
1.5707 105.7064 28.32005
12.32187 104.7639 45.03007
3.29336 105.1182 35.71691
2.60604 105.1794 33.40117
2.2046 105.2209 31.7792
1.863201 105.2631 30.07659
1.37176 105.3498 26.40522
1.33965 105.3723 25.37349
1.31637 105.395 24.32514
9.01755 104.4469 43.7731
7.82904 104.4843 42.97904
6.784075 104.5221 42.05435
5.880603 104.5603 40.99558
5.081689 104.5988 39.83296
4.38583 104.6379 38.56407
1.49303 104.9274 27.3155
3.7902 104.2769 37.17031
1.279179 104.6168 23.24919
10.32744 103.6085 44.42922
2.66018 103.9674 33.80015
1.62775 104.0936 28.71259
1.38945 104.1484 26.33293
13.60283 103.1339 45.23404
11.85257 103.1709 44.91688
3.10854 103.5261 35.33652
2.317 103.5977 32.61533
1.971349 103.6396 30.92689
1.26852 103.7927 24.30691
1.473019 103.314 27.7944
1.288399 103.3695 25.34131
12.65433 102.3513 45.10672
10.63688 102.3975 44.57082
9.272522 102.4348 43.92982
8.056938 102.4722 43.15988
6.967767 102.5098 42.27649
6.044278 102.5479 41.23735
5.201594 102.5863 40.11837
4.49969 102.6253 38.85736
3.893839 102.6648 37.49316
3.2915 102.7045 36.11563
2.73784 102.7554 34.17397
2.117819 102.8174 31.76649
1.336021 102.5347 26.85132
1.2223 102.5909 24.3048
14.53422 101.5132 45.28635
13.52769 101.5317 45.23697
1.83169 102.0478 30.48873
1.47642 102.1013 28.26366
12.18385 101.1588 45.00968
3.32495 101.5031 36.03079
2.810429 101.5435 34.55193
2.477761 101.5742 33.37926
1.30688 101.7562 25.78458
1.163201 101.8126 23.25364
10.59493 100.7953 44.54438
9.223564 100.8325 43.91
8.007026 100.8699 43.14122
6.924192 100.9076 42.25198
5.984058 100.9456 41.2289
5.173073 100.9841 40.07937
4.45227 101.023 38.83696
3.84921 101.0625 37.47017
2.01908 101.2259 31.28733
1.678219 101.2681 29.57986
1.45929 100.9109 27.70371
1.22573 100.9775 24.76786
14.47853 99.91099 45.27184
1.83241 100.4458 30.41832
12.13712 99.55664 44.98739
10.56676 99.59367 44.52163
9.179751 99.63083 43.90159
7.968197 99.66823 43.12831
6.904332 99.70592 42.22139
5.96873 99.74398 41.19386
5.125141 99.78235 40.07599
4.424151 99.82135 38.81428
3.81073 99.86083 37.4579
3.29896 99.90096 35.98906
2.84622 99.94162 34.44675
2.287289 99.99293 32.49101
1.34013 100.1318 26.74114
13.45894 99.12834 45.20223
1.70336 99.66621 29.48317
1.24796 99.76474 25.22623
1.21978 99.78742 24.1831
1.25227 99.83393 21.97519
2.06798 99.2126 31.66299
1.80576 99.24416 30.39442
1.404451 99.30861 27.69276
14.40878 98.30873 45.26977
12.08234 98.35491 44.98843
3.14635 98.69875 36.09264
2.766909 98.73972 34.47691
9.160168 98.02867 43.85475
7.931671 98.06602 43.09703
6.867926 98.1037 42.19011
5.918949 98.14172 41.1755
5.099955 98.18017 40.03377
4.37937 98.2191 38.79129
3.77425 98.2586 37.42684
2.24991 98.37986 32.9703
1.16695 98.55136 25.79639
1.14565 98.59697 23.6721
13.40503 97.52612 45.18634
11.25324 97.57231 44.76139
2.94499 97.91812 35.26447
1.5307 98.07433 29.07678
1.335671 98.11796 27.18704
1.897821 97.62065 31.25905
1.14253 97.77302 24.71763
12.04058 96.75271 44.96172
1.37234 97.29474 28.16547
1.140099 97.3497 25.77284
13.82695 96.31516 45.23435
10.10489 96.39848 44.34137
8.80374 96.43578 43.64543
7.626276 96.47325 42.84154
6.58632 96.511 41.91265
5.662595 96.54908 40.8737
3.57123 96.66626 37.06833
3.053179 96.70641 35.60337
2.18964 96.78838 32.45486
2.61172 96.34668 34.02957
1.52019 96.47227 29.01801
1.32593 96.51589 27.12725
1.137141 96.57149 24.67025
1.118301 96.59433 23.61328
12.41886 95.54177 45.04516
10.84651 95.57888 44.5777
5.034914 95.77684 39.99712
4.32395 95.81579 38.74533
1.92836 96.01875 31.15764
14.31093 95.1043 45.22872
1.41711 95.69299 28.04694
1.23726 95.73697 26.12828
1.12682 95.81652 22.48262
9.064193 94.82421 43.8132
7.85966 94.86161 43.03359
6.798363 94.89932 42.12427
5.848205 94.93732 41.1109
3.63002 95.05392 37.4358
1.52148 95.25967 29.48527
1.09752 95.3812 24.12278
13.28195 94.3216 45.16785
3.09033 94.69337 35.97939
2.62465 94.73396 34.45166
2.18606 94.77498 32.88166
11.94481 93.94878 44.93543
10.40036 93.98587 44.44693
5.001083 94.17464 39.96331
4.279971 94.21352 38.72158
1.67135 94.43738 30.32825
1.15105 94.53494 26.16943
1.0636 94.60304 23.04326
2.024411 93.99488 31.99589
1.38845 94.07961 28.53189
1.245261 94.11243 27.10916
9.033796 93.22201 43.77626
7.82377 93.25941 43.00169
6.766163 93.29712 42.08896
5.803163 93.33507 41.08788
3.676309 93.45203 37.32201
1.08982 93.75628 25.13429
1.079291 93.77909 24.07195
2.86449 93.11161 35.1419
1.17395 93.33357 26.09152
13.71804 92.30962 45.17141
11.90753 92.34657 44.90469
2.279859 92.76205 33.20606
1.58339 92.84591 29.8341
10.37255 91.98313 44.39141
9.004108 92.02034 43.75487
7.784963 92.05772 42.98891
6.740259 92.09545 42.0641
5.786782 92.13348 41.05394
4.967399 92.17192 39.9127
4.23668 92.21079 38.68041
3.57695 92.25007 37.37071
3.007479 92.28992 35.96125
1.84178 92.40282 31.60623
1.29359 92.48827 28.03976
1.033591 92.55445 25.14294
1.0071 92.57714 24.09852
12.75159 91.52699 45.05797
2.525931 91.92993 34.43328
13.64888 90.70733 45.16893
11.48247 90.75367 44.75205
9.294905 90.80936 43.91153
8.059225 90.84673 43.15938
6.948212 90.88429 42.29592
5.98174 90.92225 41.29834
5.13351 90.96059 40.18596
4.38699 90.99937 38.97063
3.725411 91.03862 37.66468
3.21008 91.07866 36.20281
2.33366 91.14949 33.58802
1.70254 91.22248 30.67254
1.482761 91.2544 29.35204
1.15676 91.31967 26.55286
1.0117 91.36423 24.57787
1.033941 91.38732 23.47552
12.71128 89.92479 45.02989
2.68204 90.31787 34.70732
2.01891 90.37939 32.35693
1.25664 90.49673 27.46612
1.08254 90.54086 25.53504
9.263329 89.60767 43.89194
8.029837 89.64506 43.13772
6.936051 89.68269 42.25822
5.953562 89.72057 41.27572
5.113137 89.75895 40.15571
4.34836 89.79767 38.95835
3.7066 89.83699 37.63285
3.11344 89.8767 36.24941
1.58886 90.03135 30.22433
14.11813 89.09593 45.16014
11.4326 89.15143 44.7327
2.15414 89.55737 33.19875
1.78845 89.59902 31.54113
1.30149 89.67359 28.43264
1.11068 89.71737 26.53258
0.9807501 89.76203 24.54099
10.2819 88.77869 44.3448
1.04506 89.40803 22.28805
13.10184 88.31326 45.08847
2.47488 88.72557 34.3487
1.40355 88.85093 29.33189
1.047611 88.93866 25.50269
0.9765303 88.98397 23.43233
11.79112 87.94047 44.83267
8.900499 88.01479 43.68784
7.709145 88.05224 42.8963
6.635298 88.08991 41.99887
5.697301 88.12794 40.97409
4.86906 88.16636 39.84174
4.15402 88.20528 38.59415
3.534059 88.24474 37.24462
2.977491 88.28465 35.82159
2.05956 88.36621 32.73762
1.61732 88.41849 30.64103
1.13038 88.10422 26.9698
1.01555 88.16026 24.43152
12.63239 87.12088 44.98826
10.24867 87.17648 44.31045
2.356599 87.52349 34.4187
1.73928 87.5962 31.50605
1.35295 87.64917 29.33357
1.06071 87.79457 22.7432
1.072119 87.81786 21.64011
2.17706 87.15443 33.0718
11.74685 86.33826 44.80827
8.848816 86.41255 43.67056
7.6549 86.44998 42.88155
6.58422 86.48766 41.98146
5.669466 86.52574 40.93462
4.82659 86.56412 39.81635
4.12315 86.6031 38.55747
3.50786 86.64257 37.20336
2.94493 86.68247 35.78662
1.25326 86.86981 28.36185
1.08867 86.91373 26.43301
1.02985 86.93604 25.43365
13.04436 85.90994 45.04371
2.57498 86.31226 34.64607
1.57882 86.41574 30.595
9.830768 85.58351 44.15488
1.91814 85.9733 32.2722
1.37966 86.04729 29.23517
0.9626601 86.15744 24.40113
0.9564202 86.18036 23.32993
13.97479 85.09032 45.12742
2.34847 85.53163 33.83779
1.001709 85.71171 26.47473
11.2922 84.74529 44.68234
1.725859 85.1931 31.4163
13.00472 84.30775 45.01502
1.43985 84.824 30.15622
1.11578 84.87772 27.89816
10.15606 83.97205 44.26554
8.815383 84.00931 43.60384
7.627863 84.04676 42.80874
6.551814 84.08441 41.91336
5.617816 84.12246 40.88476
4.796071 84.16091 39.74597
4.07229 84.19981 38.50686
3.44777 84.23923 37.16198
2.82062 84.27887 35.81043
2.51059 84.30944 34.62645
1.83743 84.37087 32.2874
0.99263 84.49893 26.96089
1.02028 84.52167 25.8707
0.9683002 84.59003 22.7034
13.92409 83.48816 45.10855
11.67309 83.13391 44.74604
9.449112 83.18954 43.93484
8.170898 83.22686 43.22015
7.040007 83.2644 42.37485
6.052007 83.30227 41.39741
5.172981 83.34051 40.31547
4.38457 83.37913 39.14244
3.73456 83.41836 37.82714
3.09574 83.45784 36.49225
2.08966 83.54943 33.00758
1.33202 83.64401 29.18133
0.9309197 83.74286 24.86596
0.9274794 83.76572 23.79528
12.95381 82.70557 44.99634
2.42715 83.10751 34.66058
10.8519 82.35125 44.51247
1.778361 82.77937 31.76948
1.38408 82.82119 30.12834
1.05661 82.8973 26.821
2.190911 82.33761 33.35779
11.63103 81.53163 44.71972
9.429665 81.5874 43.88773
8.148853 81.62467 43.17544
7.027707 81.66225 42.32083
6.029783 81.7001 41.35246
5.130728 81.7383 40.28987
4.375341 81.777 39.08464
3.701549 81.81617 37.79259
3.15001 81.85604 36.3698
0.9540593 82.11825 25.8372
0.9081404 82.14069 24.82015
12.90702 81.10332 44.97411
2.46665 81.50562 34.55184
1.25951 81.65222 28.65043
10.44049 80.75834 44.3494
2.097639 81.1356 33.40263
1.38451 81.21917 30.05833
1.12422 81.27322 27.73117
1.74858 80.76584 32.2249
0.9692101 80.90553 26.29858
0.9183999 80.92789 25.29043
9.725419 79.97588 44.02464
8.406227 80.0131 43.34591
7.25498 80.05062 42.51822
6.222448 80.08842 41.58258
5.311704 80.1265 40.53148
4.511551 80.16505 39.37108
3.84049 80.20419 38.07826
3.184189 80.24354 36.76281
2.78359 80.27358 35.67795
1.23793 80.4394 29.14213
12.85177 79.50107 44.95932
1.6275 79.98599 31.29465
13.79412 79.08203 45.04815
11.57259 79.12832 44.67587
2.53391 79.49272 34.89889
2.10126 79.53358 33.33023
1.15472 79.66021 28.15254
1.009019 79.70427 26.20228
1.211429 79.23781 29.11809
0.9269997 79.34877 24.13875
12.82523 78.29941 44.93493
9.346836 78.38297 43.83403
8.0708 78.42026 43.11744
6.951862 78.45783 42.26093
5.969226 78.49573 41.27814
5.085021 78.53395 40.20099
4.32589 78.57265 38.99924
3.63961 78.6118 37.71943
3.02202 78.65129 36.36296
1.62949 78.7736 31.7525
1.31808 78.8158 30.02431
1.02085 78.8808 27.21148
0.9044599 78.92531 25.21718
2.27598 78.31137 34.1079
1.13051 78.45859 28.12598
0.89544 78.57055 23.05924
11.13009 77.5354 44.53898
1.85365 77.95195 32.50386
0.9511303 78.10191 26.19483
0.8745095 78.14694 24.14341
13.2549 77.08851 44.97562
2.66858 77.48009 35.17676
14.21594 76.66941 45.05068
1.61404 77.18234 31.18758
1.23844 77.23542 29.00188
12.32527 76.30589 44.83028
9.312624 76.38022 43.78446
8.034508 76.41754 43.06964
6.933448 76.45515 42.19617
5.93405 76.49298 41.22918
5.044402 76.53119 40.15722
4.28798 76.56991 38.95279
3.60104 76.60903 37.67345
2.958279 76.64849 36.34232
1.85121 76.75043 32.45454
0.8482303 76.88853 26.78319
0.9096296 76.9115 25.65606
0.8459197 76.95675 23.58328
0.85435 76.97985 22.49128
13.22742 75.88684 44.95221
1.3426 76.41288 29.8939
1.10977 76.45594 28.06065
11.09277 75.53264 44.49227
9.975625 75.56048 44.09056
8.633405 75.59772 43.43044
7.450304 75.63518 42.63125
6.390051 75.67289 41.72098
5.463709 75.71095 40.68498
4.62899 75.74937 39.55851
3.93361 75.78836 38.29133
3.309639 75.82785 36.94541
2.75692 75.86777 35.518
2.24664 75.90815 34.03537
14.18404 75.06726 45.01522
1.632749 75.5805 31.09873
0.98905 75.67662 27.10538
0.9410497 75.69885 26.1001
0.8745607 75.74396 24.03671
0.8782701 75.76694 22.95367
13.1953 74.28464 44.91683
11.86908 74.31242 44.68785
2.57152 74.67605 35.15618
1.81053 74.74768 32.41083
10.28844 73.94897 44.21328
8.924971 73.98623 43.57011
7.704124 74.02363 42.80437
6.620709 74.06128 41.91511
5.659154 74.09925 40.91239
4.8137 74.1376 39.79707
4.08226 74.17649 38.56653
3.34149 74.2154 37.33892
2.0615 74.31598 33.65335
1.31982 74.39921 30.3476
1.13746 74.0419 28.44894
0.9335702 74.08552 26.56724
0.8302204 74.13025 24.55145
0.7909503 74.15291 23.51967
13.15522 72.68238 44.88854
11.82878 72.71024 44.65977
2.87173 73.05406 35.78058
1.465829 73.18748 30.65652
1.20069 73.21911 29.38741
0.8422298 73.30657 25.57073
1.9148 72.73483 32.72447
10.24316 71.94621 44.17366
8.880346 71.98345 43.53002
7.666185 72.02087 42.75807
6.585741 72.05852 41.86592
5.61688 72.09649 40.87025
4.77637 72.13491 39.74994
4.02971 72.17363 38.53445
3.43475 72.21317 37.1617
2.16476 72.30317 33.96532
0.9706899 72.47249 26.98454
1.67892 71.95431 31.9179
1.37394 71.99647 30.18619
1.02415 72.04992 27.96003
11.79606 71.10801 44.62507
2.68928 71.4618 35.3995
0.8993301 71.6936 25.96909
0.8635198 71.72747 24.40838
13.55032 70.67036 44.92896
10.58955 70.73526 44.28269
1.89487 71.13266 32.67642
1.53415 71.17434 31.01189
1.225819 71.2167 29.27347
9.499515 70.36258 43.84274
8.224466 70.39993 43.12348
7.072233 70.43746 42.29653
6.066945 70.47532 41.33472
5.169238 70.51347 40.27063
4.37365 70.55206 39.10492
3.676811 70.5911 37.83692
3.05825 70.63061 36.48312
2.408399 70.68085 34.65163
12.60856 69.88779 44.79211
2.07138 70.31094 33.47188
1.33154 70.39421 30.16158
1.0929 70.43715 28.33917
0.95386 70.46987 26.91489
0.8277394 70.51434 24.92975
0.8281296 70.53717 23.8573
10.9354 69.5243 44.39305
1.67148 69.95169 31.83945
13.51014 69.06813 44.90074
2.80474 69.44916 35.69541
2.24288 69.48925 34.26814
0.8565498 69.69084 25.92744
1.19676 69.22507 28.69734
0.8811107 69.26793 26.94088
12.55963 68.28561 44.77173
10.17151 68.34127 44.09362
8.806183 68.37853 43.45215
7.594081 68.41594 42.6783
6.50287 68.4536 41.79627
5.549293 68.49158 40.78604
4.713839 68.52999 39.66079
3.98557 68.5688 38.42705
3.33837 68.60816 37.10603
1.853231 68.72944 32.61636
1.53309 68.77134 30.90905
0.8348901 68.91242 24.85105
0.8272597 68.93519 23.78711
11.29191 67.91286 44.47848
2.88243 68.23737 36.06291
1.32768 68.4027 29.56182
13.96286 67.45663 44.90779
2.36634 67.87709 34.57524
0.9006796 67.6773 26.32129
0.8631203 67.71108 24.76709
12.95496 66.67408 44.82671
11.65199 66.70188 44.57773
10.12353 66.73905 44.07264
8.764335 66.77631 43.42579
7.549129 66.81368 42.6548
6.476416 66.85142 41.75549
5.53171 66.8894 40.73679
4.67682 66.92779 39.6302
3.964111 66.96669 38.38112
3.275859 67.00582 37.10082
2.046621 67.10673 33.36021
1.54468 67.14752 31.8509
1.1573 67.20027 29.69043
1.035 67.24393 27.73829
13.91839 66.25501 44.89929
2.77678 66.64545 35.60491
0.8324006 66.93272 23.69265
1.49864 66.3681 30.84139
0.9230602 66.4647 26.77258
0.87221 66.48698 25.76938
0.8165002 66.50931 24.76509
0.9031597 66.56726 21.97298
12.93931 65.47244 44.79279
10.85113 65.51883 44.30815
1.75906 65.93622 32.08549
9.736473 65.14616 43.88825
8.416909 65.18343 43.20759
7.247442 65.22095 42.39562
6.207835 65.25872 41.46569
5.279419 65.2968 40.43111
4.46442 65.3353 39.28513
3.76451 65.37431 38.02177
3.16104 65.41383 36.65482
2.33005 65.48452 34.00819
1.22968 65.60966 29.02537
1.46315 65.16641 30.8266
0.9543396 65.25214 27.21263
0.8552506 65.29665 25.20328
0.8296802 65.31927 24.16194
0.8406 65.34226 23.07349
12.01919 64.28929 44.62331
