-2.4384314 -26.4714416 41.2080996
-2.4440913 -33.7392986 41.9596061
-2.4463350 43.1674682 30.9626888
-2.4786356 -13.6974007 37.8020182
-2.4935710 5.4694414 35.3426673
-2.5144194 -19.1877093 39.3463299
-2.5682990 60.9402023 22.4151742
-2.5713730 47.1171141 29.6462737
-2.5722445 -29.2923283 41.7455733
-2.5766687 -82.0549279 31.2063284
-2.6250579 -22.4422961 40.1998758
-2.6312210 33.0609791 33.5371047
-2.6346121 -52.3896031 35.8174071
-2.6357342 42.1200208 31.3916802
-2.6484786 -54.3626063 35.5832689
-2.6634166 -67.2583207 33.0441259
-2.6692352 -40.2771793 36.5324244
-2.6948431 27.9147141 34.1496728
-2.6973728 15.4764922 34.4928689
-2.6984566 -24.8096269 40.7842174
-2.6998115 -38.6656933 39.8191065
-2.7019437 50.0227287 28.6264718
-2.7160426 14.3699870 34.5367640
-2.7195460 -5.5818087 35.7766338
-2.7345780 -64.6920055 32.5547345
-2.7800668 59.6785322 23.2202932
-2.8059341 -31.7832679 41.9412367
-2.8175430 -70.5395043 33.5872807
-2.8260946 -15.4496338 38.2923298
-2.8465732 -49.5788977 36.9394086
-2.8861004 -61.4853352 33.6057656
-2.9212178 -83.0997452 30.3851236
-2.9423428 -76.0294348 33.4030762
-2.9805112 -69.4665387 33.4488787
-2.9934722 -80.9703469 31.8089388
-3.0069782 21.2095007 34.4082564
-3.0113733 -44.1738926 37.0858312
-3.0153044 -68.4136748 33.2721360
-3.0575150 6.7956727 35.1389423
-3.0711750 18.4237622 34.4254412
-3.0907057 -59.9517114 34.7508006
-3.1187655 -8.7891398 36.2671018
-3.1394481 -9.9858316 36.6185345
-3.1431306 -57.1526513 35.7289463
-3.1566923 -23.6343611 40.4579528
-3.1682532 -12.3542054 37.3410173
-3.1897633 25.9534456 34.2947058
-3.1940246 -36.6472267 41.2692390
-3.2061159 -16.7897195 38.6345088
-3.2080645 16.8628432 34.4475135
-3.2166771 -35.1822525 41.6909009
-3.2503956 -45.6821956 37.3263359
-3.2528979 -86.2045735 23.3964194
-3.2991502 -47.9284227 37.3440608
-3.3001497 -55.3197898 35.6564820
-3.3170097 -27.9331058 41.4590165
-3.3270540 -85.3495896 25.7172342
-3.3402140 44.0787114 30.5203982
-3.3519885 -73.5943317 33.6407050
-3.3593071 -0.2042122 35.4933105
-3.3679025 -38.8186909 38.9764905
-3.3708371 -11.2885442 36.9843207
-3.3920743 9.4332993 34.8379984
-3.4054474 13.4407729 34.5615186
-3.4074490 35.2148823 33.1725292
-3.4241839 -42.2283709 36.8522257
-3.4284706 -77.2228464 33.1406295
-3.4342257 31.2414169 33.7933861
-3.4355288 -7.4777412 35.9092019
-3.4383521 -21.4700587 39.8821570
-3.4476807 -3.9494988 35.5819762
-3.4574622 54.5542426 26.2197796
-3.4748446 37.3985469 32.7320248
-3.4791781 -18.0417690 38.9555730
-3.4959528 3.4116898 35.3424177
-3.5531970 42.9620817 31.0400967
-3.5906667 57.9625443 24.2488887
-3.5984821 56.4642847 25.1291040
-3.6460990 -63.1453618 32.7346772
-3.6646735 11.7119392 34.6559472
-3.6792364 -51.3846390 36.2436287
-3.6869051 62.3478442 21.4165580
-3.6966628 -29.9640968 41.6946560
-3.7145643 -1.9179146 35.4483761
-3.7158295 -82.0310935 31.1779045
-3.7302878 -78.6570013 32.7243395
-3.7523278 -58.1623241 35.5595984
-3.7582205 -67.0404360 32.9237655
-3.7658485 -84.2950717 28.8504362
-3.7767279 -65.6407401 32.5878523
-3.8121468 -72.4088848 33.6467437
-3.8294031 19.6266063 34.4187506
-3.8489089 -87.2112885 21.3604607
-3.8713526 -62.1484779 33.1616551
-3.8822370 -52.4620004 35.6819741
-3.9009633 24.6146135 34.3569554
-3.9022369 52.8756417 27.1339733
-3.9146198 33.9056887 33.4016234
-3.9153784 51.5983738 27.8162826
-3.9376551 -38.2145680 37.0925255
-3.9524040 -15.6671703 38.2251553
-3.9701862 28.9602168 34.0545177
-3.9718789 -70.1875091 33.4973745
-3.9919792 -71.3024586 33.5975699
-4.0136450 7.3967925 34.9718854
-4.0154508 48.4311879 29.2500351
-4.0187896 -40.9501493 36.7320292
-4.0403595 39.1031578 32.3248692
-4.0445048 2.3204144 35.2530293
-4.0799021 0.5611753 35.2530666
-4.0954384 -39.8883149 36.5311354
-4.1012052 5.4129241 35.1339057
-4.1183010 -85.5354592 25.0071734
-4.1184882 22.0091604 34.4091766
-4.1306471 16.1467083 34.4589651
-4.1346429 40.8663303 31.8219028
-4.1395929 -84.9581286 27.0607788
-4.1464777 -47.0910333 37.5336744
-4.1510635 -33.0124125 41.7420194
-4.1605588 46.5826690 29.7420416
-4.1794805 -34.5532820 41.6114517
-4.2077564 -85.9032497 24.0120757
-4.2147893 -24.9669310 40.6560823
-4.2262385 -19.7840407 39.3192992
-4.2296168 -13.4437792 37.5060253
-4.2358437 -75.7247657 33.3843939
-4.2438954 32.6611698 33.5979126
-4.2609633 10.3058312 34.7196348
-4.2730267 -37.3499915 40.6494774
-4.3089660 -8.4606465 35.9135233
-4.3204906 -64.2266497 32.4324295
-4.3231542 -9.9380258 36.3744050
-4.3266458 45.2704579 30.0353821
-4.3312646 49.9216132 28.6451615
-4.3370249 -60.7174970 33.9846537
-4.3499260 -14.5022348 37.8043093
-4.3520126 -86.3960311 22.8641145
-4.3581771 -31.5352343 41.6914858
-4.3881573 14.4089712 34.5110334
-4.4004838 35.9326713 33.0334604
-4.4187158 -49.0045846 36.9929001
-4.4198018 -54.8560359 35.5360471
-4.4473610 -38.3132137 39.1787328
-4.4648577 26.2311883 34.2824906
-4.4857217 23.7446446 34.3850888
-4.4879597 -27.8492328 41.2831903
-4.4981376 -58.8741004 35.2049209
-4.5140148 -77.7975097 32.9327397
-4.5431862 -82.6478079 30.6446999
-4.5451801 -76.7484158 33.1814364
-4.5720185 -53.8011566 35.3986472
-4.5736195 -23.2812483 40.1434749
-4.5804032 -6.6057262 35.4654379
-4.5819073 -73.8095120 33.5605592
-4.5965086 59.6723855 23.1811292
-4.6104370 -3.3364967 35.1899303
-4.6264594 60.6991351 22.5253943
-4.6472969 55.9313037 25.4087057
-4.6498762 4.3673287 35.1017006
-4.6538534 -57.2925657 35.5646722
-4.6816799 -22.1496932 39.8453996
-4.6894997 34.7424522 33.2555994
-4.6934234 56.9934323 24.7907043
-4.7099022 -66.5247589 32.6984860
-4.7102734 -2.2474348 35.0453034
-4.7477232 -84.6026763 28.0899722
-4.7626575 -80.9571221 31.6970572
-4.7694491 -4.8631895 35.2309644
-4.7733244 -12.4089718 37.0350406
-4.7790906 -43.0337898 37.2047015
-4.8056995 -72.0657185 33.5760117
-4.8289024 -68.8007250 33.2161821
-4.8421351 50.7462546 28.2251127
-4.8817256 39.7772342 32.1429633
-4.8839129 19.1576350 34.4332643
-4.8848582 -67.5684288 32.9448432
-4.8870835 -20.6056666 39.3862315
-4.9126474 -37.8012247 38.1859541
-4.9264552 -17.8194307 38.6474393
-4.9278974 -37.6641043 36.8052945
-4.9872659 -45.1669358 37.4466516
-4.9958937 -26.0063279 40.7562032
-4.9991789 15.4260397 34.4986841
-5.0010933 53.7457913 26.6259350
-5.0016888 6.9126883 34.9856168
-5.0385525 48.9549525 29.0224217
-5.0428696 38.0644761 32.5778984
-5.0706463 29.3964799 34.0073220
-5.0977864 -52.1193668 35.6230736
-5.0991857 -83.4483951 29.8126265
-5.1249517 20.2766228 34.4287977
-5.1412047 -16.1581784 38.0906314
-5.1443428 21.7069965 34.4183929
-5.1783556 1.1419862 34.8332450
-5.1849093 44.5935689 30.2136037
-5.1852348 52.7161509 27.1814987
-5.1985229 3.2868213 35.0106321
-5.2040550 8.7539051 34.8553061
-5.2112238 -32.6880179 41.5066518
-5.2281395 58.8119589 23.6867219
-5.2392818 27.9377121 34.1478325
-5.2586952 13.3937541 34.5969349
-5.2753733 -41.9525467 37.0375589
-5.2910349 -79.5992538 32.2442539
-5.2978336 -47.7839708 37.3053290
-5.3236494 -36.4471897 40.7623574
-5.3316746 11.9757233 34.6838422
-5.3319442 54.6328463 26.1225849
-5.3372155 -0.1885389 34.5972739
-5.3487597 -81.6889852 31.2177520
-5.3617805 62.6917705 21.0978873
-5.3680944 -84.8245099 27.1743257
-5.3709932 -58.0788478 35.2871940
-5.3737708 -85.2356926 25.6365892
-5.3758407 -51.1021167 36.1482240
-5.4029282 -46.2526344 37.4459401
-5.4289484 -38.7538411 36.2216383
-5.4781716 -39.8880094 36.4522375
-5.4863817 -10.2063967 36.0545777
-5.5017425 46.9970889 29.5921154
-5.5192988 -34.2465863 41.2536524
-5.5260542 33.8806063 33.4030800
-5.5634961 -70.6593767 33.4105454
-5.5660410 -29.5156352 41.2661545
-5.5938861 -36.9061492 37.6183838
-5.5957003 23.9793025 34.3781970
-5.5987458 -76.5491500 33.1128165
-5.6077195 -63.1693900 32.5135551
-5.6243823 -28.1770620 41.0397202
-5.6308010 -73.0259046 33.5002095
-5.6580529 -59.2791066 34.6919782
-5.6716776 -31.7292213 41.3874723
-5.6901621 -53.1085990 35.2183543
-5.6944499 -56.4898960 35.4515202
-5.7087485 42.2336422 31.3238762
-5.7115909 -60.5403371 33.8608734
-5.7131755 -14.7589259 37.4700017
-5.7233106 57.3036224 24.5691482
-5.7779890 43.5370356 30.7476427
-5.7924013 36.4209041 32.9330191
-5.8017117 -65.1171654 32.2568268
-5.8201910 18.4306558 34.4612971
-5.8231549 -35.5309099 40.8513919
-5.8539058 -87.1251374 21.2458633
-5.8566062 10.5133848 34.8208323
-5.8624092 48.0087362 29.3341000
-5.8773858 -68.2496279 32.9790302
-5.8981827 16.8509185 34.4983600
-5.9046266 -12.1729821 36.5402736
-5.9099379 -8.4447647 35.2170318
-5.9263073 30.3284544 33.8963196
-5.9432513 -6.6601457 34.7554125
-5.9631742 -85.8697891 23.7165112
-5.9825843 -43.0403762 37.1516645
-5.9932070 -9.4433324 35.5224647
-6.0141627 -1.0225890 34.1050550
-6.0190414 32.0467465 33.6787254
-6.0389875 -2.3913179 33.9835137
-6.0564098 14.7423437 34.5890522
-6.0581462 -78.0596361 32.6832198
-6.0632718 -74.7219175 33.3291478
-6.0949116 -25.1703411 40.1189402
-6.1123041 -54.0924519 35.2360494
-6.1316430 9.4229169 34.9234529
-6.1370325 -55.4196090 35.3754275
-6.1655995 -80.3860724 31.7842811
-6.1683403 7.6823900 35.0416452
-6.1881216 -19.5752736 38.6370197
-6.1886231 -82.7153549 30.3196367
-6.1953790 55.3631186 25.6724451
-6.1964975 -26.3812393 40.3594114
-6.2106764 25.1472779 34.3309045
-6.2239543 39.7193432 32.1519040
-6.2338691 37.6566872 32.6676555
-6.2415074 61.2630770 22.0743176
-6.2668668 -23.8661747 39.6833792
-6.2754233 46.2173037 29.7232494
-6.2802569 -64.1691759 32.1803428
-6.2839305 -48.6287437 36.7739685
-6.2961662 -5.0343019 34.1197737
-6.3118711 59.8675869 22.9835231
-6.3274512 -37.0971709 39.1062647
-6.3317143 41.0641804 31.7375585
-6.3496437 -47.3805480 37.1617004
-6.3716341 28.1344969 34.1186486
-6.3771950 53.8268015 26.5252236
-6.3861376 -37.4196842 35.9422751
-6.4366008 5.5150553 35.1601951
-6.4487085 -50.3533185 36.2036675
-6.4676236 -0.0902159 34.2652537
-6.4760512 -36.0395685 36.3742635
-6.4902254 6.6134753 35.1567678
-6.5040379 50.5344458 28.2727573
-6.5040411 -41.1427356 36.7428884
-6.5067234 -84.8163143 26.6347919
-6.5125278 -46.0598245 37.2121595
-6.5856283 -28.9965253 40.7411605
-6.6078138 -34.1313481 40.8145636
-6.6191084 47.2607091 29.5028500
-6.6387309 -40.0565043 36.3772698
-6.6462550 -15.1137756 37.1074006
-6.6566523 -31.1129093 40.9719944
-6.6628037 26.9381572 34.2143103
-6.7093512 -44.0925546 37.1300057
-6.7209862 -58.1999458 34.8715112
-6.7450493 -69.4397762 33.0823101
-6.7556021 -21.7591040 38.8531536
-6.7572673 -4.0096878 33.4484465
-6.7614615 -51.3843335 35.7049666
-6.7644999 -16.8081801 37.5014134
-6.7801950 -56.4702377 35.2329314
-6.7915097 -13.4298885 36.4155546
-6.7916997 3.7003884 35.0236520
-6.8102507 56.1429411 25.1934957
-6.8267551 -59.1850318 34.3435705
-6.8283267 34.6004404 33.2714878
-6.8766042 -72.4530667 33.3281420
-6.9025098 -61.6831519 32.9846814
-6.9060810 -71.1592361 33.2680270
-6.9185626 -84.3294188 27.9412754
-6.9526327 -85.5315179 24.2312029
-6.9532297 21.7689946 34.4194733
-6.9548790 -18.9425480 37.9857086
-6.9561722 -10.4719466 35.1768322
-6.9954265 2.1945178 34.8255001
-6.9963764 -68.3640018 32.8245424
-7.0013241 20.1161411 34.4530828
-7.0036217 -2.2446299 33.3436616
-7.0313714 62.2746535 21.3167369
-7.0379586 -66.0598204 32.2178826
-7.0396587 -24.9802973 39.4115895
-7.0438981 8.4952330 35.1335630
-7.0523825 23.6135330 34.3758576
-7.0607648 -26.0910820 39.6784581
-7.0612459 31.9391564 33.6813442
-7.0614275 -53.2305241 34.9387899
-7.0742476 45.0253896 29.9940091
-7.0792381 12.1657308 34.8939262
-7.0978478 -78.7049532 32.2927982
-7.0999656 15.4383723 34.6340202
-7.1131848 -8.3220946 34.0811089
-7.1150837 10.8280508 35.0009985
-7.1188184 -12.3537825 35.7774533
-7.1205692 -36.3247097 39.5944118
-7.1632047 -30.1367398 40.5460782
-7.1637752 33.0600031 33.5165970
-7.1803797 -32.3974006 40.6809598
-7.1849069 -35.7789174 37.2123197
-7.1985256 -83.5655108 29.1248690
-7.2225179 42.8869054 31.0181044
-7.2421166 -86.2001851 22.6524267
-7.2769755 29.9079400 33.9235328
-7.2880983 -46.7323847 36.9840078
-7.2895666 -67.1817809 32.4737728
-7.2910162 17.5226815 34.5390625
-7.2983573 -34.9358730 40.1972830
-7.3098494 -76.9112930 32.7562466
-7.3231952 53.2011352 26.8161371
-7.3580891 -82.3582113 30.3349085
-7.3594921 49.5880023 28.6763981
-7.4239401 -1.0020841 33.7445550
-7.4355225 59.4462194 23.1781490
-7.4699130 -49.6630855 36.1280926
-7.4762856 5.9764097 35.3317522
-7.4932971 -28.9130788 40.0089733
-7.5058453 39.3400565 32.2397500
-7.5096590 48.4501533 29.1093867
-7.5153396 58.2145564 23.9263680
-7.5268145 36.3710225 32.9283662
-7.5461976 -75.5153447 32.9614244
-7.5463448 -4.8782341 32.7388532
-7.5646318 -38.8190560 35.7922316
-7.5801620 -70.1325089 33.0228247
-7.5860410 -79.9669698 31.6865742
-7.5869360 -31.0894698 40.3232835
-7.5913253 13.5229463 34.8396190
-7.6024174 -20.6745025 37.8023833
-7.6118126 -11.6067361 34.9176526
-7.6161292 -45.5071889 36.9428098
-7.6472368 -22.6007104 38.2277183
-7.6496638 -84.7842619 26.0546077
-7.6944921 -51.6860671 35.2536142
-7.7239349 -16.8354660 36.6001911
-7.7402601 9.6665835 35.1817459
-7.7483398 -74.4799823 33.0570638
-7.7495514 34.0762325 33.3450846
-7.7540115 -10.1493504 34.0519138
-7.7912430 -40.0252193 36.1541919
-7.8010270 -7.7998955 33.0172218
-7.8093205 -18.4402391 36.9432308
-7.8118797 60.4393110 22.5210059
-7.8149140 -41.7263024 36.6246998
-7.8179538 28.2436665 34.0785161
-7.8196581 46.7524901 29.5432936
-7.8240046 -12.8878625 35.1460278
-7.8377780 -73.3725876 33.1164002
-7.8390688 -27.1100271 39.1216464
-7.8524305 -3.4953684 32.4744061
-7.8898799 0.8035599 34.4644971
-7.8942133 2.7937060 34.9269547
-7.9349531 -62.4154396 32.3835090
-7.9809697 54.8820794 25.8377828
-7.9846364 -25.4856404 38.4954810
-8.0236532 -55.9577048 34.9680670
-8.0353552 -14.0982494 35.2569818
-8.0592744 -36.9281508 35.3764631
-8.0626579 -24.2461115 38.0798727
-8.0701793 -54.7130182 34.9619016
-8.1012687 19.4684602 34.4819799
-8.1087071 51.3872690 27.7366824
-8.1343893 -30.1631410 39.4955464
-8.1753414 15.1656736 34.7353816
-8.1877606 41.9712178 31.3635990
-8.1913443 -33.5520208 39.7909805
-8.2014445 -6.5866522 32.2339274
-8.2039703 -2.3108323 32.6756313
-8.2057016 20.9366251 34.4319642
-8.2272189 -35.8473323 38.8043709
-8.2314806 -65.3348640 31.7826830
-8.2420204 -20.4343125 36.8313938
-8.2452344 -35.6767103 36.2710692
-8.2680704 -85.8052075 23.1170617
-8.2803834 -59.1886118 33.8101946
-8.2854973 -85.3508338 24.1242088
-8.2917092 3.8248373 35.1010263
-8.2943942 24.8420481 34.3043171
-8.3161816 -9.7235730 32.9309776
-8.3298357 53.6822155 26.4840648
-8.3313733 37.1856727 32.7409320
-8.3332844 -0.4638373 33.7664634
-8.3481474 -57.5806089 34.4885737
-8.3588790 -4.6036569 31.9183506
-8.3610164 11.7785716 35.1119153
-8.3665550 -46.8824208 36.6764255
-8.3671836 -63.4162128 31.8926647
-8.3726160 -18.3171388 36.0258184
-8.3924439 -61.3352209 32.8019112
-8.4018521 -77.3508698 32.3881730
-8.4022852 7.1971682 35.4321077
-8.4165148 -15.8476885 35.2062695
-8.4553137 44.5176624 30.1190671
-8.4637254 -27.9970281 38.4251028
-8.4713846 -17.2713716 35.5421565
-8.5072396 30.6467358 33.8082835
-8.5138744 -69.1863224 32.6326080
-8.5264752 5.2204723 35.3849083
-8.5341232 -13.6742182 34.1978595
-8.5348627 38.8843082 32.3318243
-8.5465368 -32.6506458 39.3936224
-8.5494518 -25.0914246 37.5127718
-8.6129578 -21.5133466 36.4743769
-8.6162863 -42.7671187 36.5374796
-8.6207576 -84.4086409 26.6653318
-8.6365119 21.9730157 34.3945958
-8.6401114 -35.8905196 37.2461900
-8.6430153 -60.1445325 33.2721844
-8.6501138 -7.8408429 31.7867100
-8.6513339 -67.7232817 32.2641693
-8.6606424 31.9177695 33.6453207
-8.6801676 -70.7959905 32.8182764
-8.7091131 -15.2251264 34.4157480
-8.7192915 13.2889496 34.9811576
-8.7255463 58.5134700 23.6499421
-8.7364353 17.8058520 34.5655717
-8.7445760 -50.3859222 35.5414525
-8.7556886 -11.6112093 32.8984782
-8.7656649 -44.0012328 36.5871154
-8.7699527 -34.1510698 39.0777253
-8.7938579 50.6150834 28.0878432
-8.8090599 -30.7442639 38.6205912
-8.8147270 -37.6429297 35.0239426
-8.8172844 -75.6125227 32.6182395
-8.8381162 -47.9428321 36.3194309
-8.8425288 -83.5601166 28.4424163
-8.8530201 -81.1068565 30.7424702
-8.8589238 27.0736888 34.1444053
-8.8751456 -22.6556230 36.3156721
-8.8766729 -6.2609077 31.2723890
-8.8866148 -29.4104218 38.1345339
-8.9092804 61.0069409 22.0489111
-8.9302836 -74.4634643 32.7373929
-8.9312727 1.0486692 34.2985466
-8.9688245 55.2977510 25.5231801
-8.9789648 -53.3551984 34.4814397
-8.9792879 40.4752232 31.8583101
-8.9805834 51.8863052 27.4097826
-8.9950562 -24.4364403 36.5832523
-9.0196496 -82.1819827 29.9301390
-9.0250419 -80.0414309 31.2482957
-9.0600578 16.2784476 34.6842408
-9.0870624 35.7078128 33.0181532
-9.0985699 33.6293690 33.3787426
-9.1055585 -52.0856529 34.5775224
-9.1132801 -8.8292183 31.2485453
-9.1365241 -65.8738017 31.6269770
-9.1386316 -39.1643383 35.2679640
-9.1596600 56.5304086 24.7928817
-9.1701336 -56.0500138 34.5793031
-9.1706989 -16.6229587 33.9978822
-9.1763660 -84.5693201 25.7555842
-9.1877161 -0.7696786 33.1258215
-9.1883717 10.7866265 35.3038944
-9.1953408 -58.6168505 33.7151140
-9.1973068 -27.6688356 37.1441916
-9.1985762 -10.8235572 31.7675918
-9.2057744 -64.1649887 31.5364897
-9.2104599 -32.2729275 38.4992808
-9.2222346 -25.8625746 36.5875103
-9.2279846 -3.4780710 31.1254244
-9.2445901 -45.9583774 36.4798717
-9.2621623 42.2726944 31.1936904
-9.2683192 -35.2557413 38.0251482
-9.2785424 -2.5238250 31.5622166
-9.2869354 -54.5631349 34.6025117
-9.3290992 61.7886297 21.4569923
-9.3328375 -86.5167454 21.3781130
-9.3678683 -72.5223050 32.6875225
-9.3693370 -14.7623727 33.0090374
-9.3738902 -78.9817944 31.5871499
-9.3843294 25.9242281 34.2054777
-9.3875704 8.7236483 35.4564413
-9.4018299 -13.4253465 32.4946046
-9.4020301 3.4415554 34.9024124
-9.4214110 46.5412959 29.4702295
-9.4364863 43.6407477 30.5408463
-9.4430530 -85.5107605 23.2370347
-9.4577856 -7.5046234 30.5903293
-9.4630830 -20.0907830 34.6121266
-9.4997250 -11.9206905 31.7596868
-9.5052570 -60.9664395 32.6568708
-9.5435027 -22.9158904 35.2906585
-9.5821004 59.1839999 23.1530275
-9.6114930 -61.9656071 32.1899913
-9.6244644 23.1091958 34.3274921
-9.6322624 54.4271991 25.9547997
-9.6814763 -21.2406181 34.6097350
-9.6885255 -66.8976307 31.7160785
-9.7032990 -30.6081492 37.5117697
-9.7263437 -36.0689238 35.9490179
-9.7355023 -18.3316395 33.6424559
-9.7431624 48.8497764 28.7974607
-9.7646946 5.7760607 35.4504809
-9.8113492 -4.4226679 30.3674322
-9.8354751 -49.3753031 35.4414321
-9.8451925 -16.1333717 32.7626504
-9.8559326 24.9023102 34.2434198
-9.8666754 -27.0469282 35.9715335
-9.8729972 -77.2925988 31.9333151
-9.8792631 49.9097779 28.3293109
-9.8819192 -6.1619291 30.1581379
-9.8843109 -28.2760169 36.4300497
-9.8967906 57.5071834 24.1403505
-9.9321818 30.0748255 33.8172428
-9.9371644 -85.9063491 22.2279057
-9.9411560 14.7069627 34.8668620
-9.9742478 26.8067308 34.1170169
-9.9789053 -9.1724014 30.3565096
-9.9848025 34.6604697 33.1712626
-10.0412741 38.7706198 32.2930589
-10.0441184 -0.9490919 32.3466957
-10.0517981 -73.5639408 32.4062444
-10.0533692 -47.5054160 36.0855758
-10.0798607 11.9984634 35.2400057
-10.0811934 -40.9373902 35.7700549
-10.0859078 -82.4911743 29.1902181
-10.1014264 33.0456533 33.4278569
-10.1035191 -24.8416346 35.0216366
-10.1096062 -10.6419344 30.6718722
-10.1108672 -60.0227304 32.8492299
-10.1333484 -71.8219429 32.3791131
-10.1399366 -51.4070541 34.5547572
-10.1531772 -57.0316538 33.9126773
-10.1697352 -52.9283620 33.9855552
-10.1862857 28.5104141 33.9631215
-10.1933405 -79.8542127 30.9337601
-10.2129634 -34.1505744 37.4481454
-10.2148019 19.4724258 34.4584137
-10.2148345 -20.0258810 33.5402414
-10.2225477 -81.3013390 30.1297083
-10.2580497 -39.7857092 35.1416208
-10.2673415 -84.5388398 25.1071677
-10.2911657 -12.0573184 30.9651047
-10.2965226 -23.0912734 34.3143642
-10.3019131 -74.7191086 32.2161578
-10.3280563 18.1204621 34.5404670
-10.3325453 -37.0233320 34.2731252
-10.3488499 20.8337456 34.3865827
-10.3548486 16.6803356 34.6546248
-10.3555284 45.2219397 29.6664685
-10.3840856 -42.9834872 35.9726213
-10.3970226 -69.3763942 32.0219770
-10.4125282 10.5860839 35.4111604
-10.4480013 -32.7150449 37.2912139
-10.4535511 53.7651666 26.2400191
-10.4716467 -44.4918014 36.0747762
-10.4721123 60.5181344 22.1988317
-10.4770856 -8.0594337 29.8552569
-10.4834521 13.4129459 35.0534953
-10.4839392 -18.0503018 32.6042175
-10.4962029 1.0775748 33.6181559
-10.5070649 -66.1573783 31.3058831
-10.5153648 -29.3930508 36.2389162
-10.5361296 -84.8587304 24.1426528
-10.5633773 52.5006205 26.9234609
-10.5839474 -83.8864222 26.7070793
-10.6154028 6.7815329 35.5182402
-10.6199682 -78.5994455 31.2856734
-10.6251417 50.6051034 27.9224366
-10.6876334 -58.3487414 33.1971608
-10.6885806 -26.9392580 34.8579921
-10.7287709 -5.4338379 29.6791103
-10.7458699 -20.9073834 33.2071520
-10.7553834 35.8801410 32.9040214
-10.7572023 -0.1806709 32.6404348
-10.7614920 46.8168966 29.2884167
-10.7635334 -48.5527664 35.4635529
-10.7669104 -19.2444548 32.6682292
-10.7801491 -55.7221845 33.9252800
-10.7966810 -2.1422741 30.7744779
-10.8192731 -35.5747491 36.0862836
-10.8308783 -31.7297056 36.7887467
-10.8361924 -63.5681972 31.3362069
-10.8525380 39.6720804 31.9917426
-10.8560119 -14.2423650 31.1109331
-10.8568398 48.5153571 28.8091674
-10.8598182 31.7882746 33.5631967
-10.8768810 -61.1614659 32.1714617
-10.9154945 -52.0377718 33.7532535
-10.9629706 4.6362183 34.9846072
-10.9638227 26.0075852 34.1218747
-10.9929815 -53.8452454 33.8430777
-10.9953703 5.7762573 35.3542157
-10.9967254 -70.8532110 31.9569707
-11.0160410 -46.2323949 35.9175913
-11.0247601 37.9425436 32.4400067
-11.0405236 22.0731236 34.3034565
-11.0446624 -25.8936975 34.1638699
-11.0468278 9.0807844 35.5147570
-11.0644270 -11.6891908 30.3365383
-11.0681737 -34.4898254 36.4565663
-11.0687213 -4.3312288 29.6834670
-11.0739265 -15.7752205 31.3415863
-11.0817375 55.8464043 24.9839853
-11.1037437 -49.5561734 34.8172747
-11.1246156 -38.7477465 33.8332839
-11.1251809 -62.2931384 31.7058899
-11.1538358 -28.8978554 35.2753252
-11.1564761 2.0535262 33.8039845
-11.1600943 -1.2485901 31.5002762
-11.2026613 -83.1101388 27.8551653
-11.2135708 -30.6136720 36.0826738
-11.2138670 -36.1475199 35.0425541
-11.2178903 -81.9343552 29.2132143
-11.2293176 -6.3320752 29.4070765
-11.2324571 42.7742302 30.8145639
-11.2375831 -65.3250962 31.0495999
-11.2661328 -59.8272122 32.5017534
-11.2684891 29.7775287 33.7773375
-11.2712122 44.1288501 30.1070381
-11.2806261 15.7272033 34.7337313
-11.2857800 -18.5718127 31.9899172
-11.2977028 28.6924653 33.8846631
-11.3107366 59.3666770 22.8269100
-11.3429269 -9.8427376 29.7532622
-11.3517046 41.0009585 31.5255299
-11.3684116 -75.6824538 31.6634849
-11.3692041 57.2701432 24.1057575
-11.3711320 -80.1698491 30.3304400
-11.3868937 11.1003155 35.3697874
-11.3875587 18.5884219 34.4699621
-11.3881268 -86.1720741 21.0609715
-11.3889556 49.7761108 28.2360017
-11.3920132 -68.4937388 31.5015987
-11.4119444 -69.5336089 31.6515826
-11.4413938 3.3913893 34.3018994
-11.4992997 -22.7093473 33.0013894
-11.5041891 -36.5527496 33.9864343
-11.5417931 -85.4329318 22.3374888
-11.5614226 -3.1637673 29.9373344
-11.5688946 -44.9673235 35.7359536
-11.5940198 10.0288000 35.4633816
-11.6186636 -56.2705882 33.3603695
-11.7031727 32.9969525 33.3410166
-11.7200902 60.2683723 22.1879315
-11.7238453 -24.3924838 33.1939422
-11.7273964 14.1224070 34.9311791
-11.7307156 0.9642620 33.0406614
-11.7769651 -58.7068573 32.6157100
-11.8053099 7.8818221 35.5045050
-11.8085956 24.3299026 34.1645852
-11.8328258 39.2604768 32.0309512
-11.8576586 -21.0917480 32.2997943
-11.8589541 34.5079526 33.0863111
-11.8730618 -14.6465153 30.5590685
-11.8735256 -52.4825603 33.1618749
-11.8887527 -8.9666294 29.3824561
-11.8913064 47.9960516 28.8737770
-11.8979486 -28.3771176 34.1647714
-11.9132902 -37.0531604 33.0276117
-11.9134728 -33.5094668 35.8738005
-11.9438618 -40.3374806 34.8971039
-11.9749270 20.3856695 34.3305357
-11.9761210 -47.4378616 35.4522206
-11.9818300 -27.2875596 33.6134285
-11.9836302 -12.7232205 30.1854890
-11.9845225 -83.4885687 26.5843365
-11.9884126 -41.3518995 35.2092050
-12.0034087 45.1096110 29.5417085
-12.0057324 -7.7009699 29.1523077
-12.0481439 -74.4311735 31.5157473
-12.0491423 5.3865588 35.0671336
-12.0604495 -46.3534743 35.5637334
-12.0628541 -84.8931149 23.1239423
-12.0829251 22.6527676 34.2194177
-12.1248551 0.0085053 32.3537253
-12.1256867 53.0821607 26.4128204
-12.1287629 17.2653012 34.5384553
-12.1420939 -29.3962732 34.4202891
-12.1495156 25.4645813 34.0831950
-12.1625410 -82.2554976 28.4116678
-12.1674184 -67.4487278 31.0713425
-12.2137368 -38.6517495 33.0193229
-12.2264074 -16.4546762 30.7761263
-12.2497035 -64.6851808 30.9018064
-12.2550204 51.3275228 27.3462962
-12.2637851 31.5297954 33.5061178
-12.2761708 12.1317767 35.2034457
-12.2781815 30.3895120 33.6428508
-12.2874714 -60.0509010 32.0664383
-12.3286964 4.3119737 34.5168002
-12.3330280 -66.0192147 30.8716968
-12.3462472 -31.9777839 35.4506373
-12.3473210 -83.7805644 25.5721807
-12.3567916 -4.9733534 29.3051098
-12.3703415 16.0209797 34.6485861
-12.3727517 -73.2125789 31.4318910
-12.3762768 42.9607630 30.6064021
-12.3776495 -0.8362716 31.7072645
-12.3810358 -85.6000558 21.5610713
-12.4071650 -50.6894626 33.8420942
-12.4444421 9.4115464 35.4729146
-12.4602932 -55.1855341 33.0664702
-12.4646211 -79.2789385 30.2976668
-12.4688791 1.8437360 33.2516432
-12.4695366 -61.6197921 31.6131189
-12.4696586 -18.3364227 31.1622340
-12.4769872 -10.7579203 29.7399200
-12.4776009 59.2790768 22.7075741
-12.4781299 41.5973701 31.1923195
-12.4903210 -81.4558640 29.0202834
-12.5042470 -25.8762371 32.8854322
-12.5129102 -35.4344994 34.5729701
-12.5231510 37.5332981 32.4155614
-12.5310132 58.1833199 23.3818069
-12.5485472 -48.5293381 34.8127447
-12.5546502 -23.2853908 32.3797539
-12.5795742 -57.0818372 32.6393582
-12.6098124 26.7164614 33.9660011
-12.6164900 -28.0824341 33.3137549
-12.6506230 13.2589126 35.0103267
-12.6699554 -19.6561478 31.4334631
-12.6881944 33.6192958 33.1719480
-12.7177723 -39.6012701 33.9911617
-12.7345119 -69.2436546 31.1236735
-12.7382874 56.9601953 24.0924526
-12.7414521 -77.7792931 30.7097416
-12.7552543 19.3903726 34.3360528
-12.8076309 49.0924530 28.3657052
-12.8079718 44.2318507 29.8730507
-12.8253652 -37.3923741 31.9920778
-12.8294714 -70.8690435 31.2127732
-12.8330812 -29.1396659 33.5052423
-12.8375646 -44.5117988 35.2978148
-12.8404070 -27.1554030 32.8746513
-12.8620733 -42.0962162 35.0505039
-12.8715457 -13.8392197 30.0815515
-12.9232872 15.0375850 34.7290225
-12.9238898 45.7810275 29.2533040
-12.9428022 52.3997545 26.6714711
-12.9693951 -76.5007362 30.9100635
-12.9842507 -84.8815143 22.5246213
-12.9935434 24.1009779 34.0920687
-13.0398218 -1.8408276 30.8098625
-13.0539425 -53.4049496 32.6550417
-13.0658019 35.1653993 32.8669511
-13.1010879 -9.9341301 29.5275021
-13.1099951 -68.0771768 30.8659952
-13.1257474 -31.7797326 34.5353708
-13.1285964 -58.4407337 32.0890658
-13.1590590 40.5008905 31.5161087
-13.1595861 -51.7258160 32.9219438
-13.1764282 -63.1458238 31.0613718
-13.2263694 60.7375391 21.6223262
-13.2715395 -65.1577115 30.7059903
-13.2778250 -38.5016501 32.2901197
-13.2894358 29.3304194 33.6797349
-13.2938772 -49.4340807 33.8785909
-13.2945115 -41.1899947 34.7136855
-13.3081386 -3.7668424 29.6977796
-13.3111523 31.0754273 33.4811471
-13.3126359 -66.8269321 30.7029653
-13.3246509 -35.5291329 33.1654772
-13.3276274 -39.1447283 33.1258699
-13.3647025 -6.5970635 28.9606769
-13.3738723 -43.0843569 35.0180976
-13.3950422 5.3010751 34.8052010
-13.4017980 -23.7881020 32.0182219
-13.4114111 38.5287702 32.0793316
-13.4191066 -20.5234364 31.3350596
-13.4319775 17.6685732 34.4080515
-13.4603577 -30.6664221 33.5836522
-13.4683419 55.3258061 24.9406435
-13.5273105 -11.8247317 29.8347548
-13.5352071 -79.2790651 29.8624188
-13.5564078 -82.6333240 27.0282440
-13.5567514 1.9693046 33.0645591
-13.5600232 -0.8685450 31.7701846
-13.5774156 -32.6501466 34.1304615
-13.5824597 -36.3370553 31.2976874
-13.5873174 -83.2624584 25.7988535
-13.5928746 0.1990271 32.2852246
-13.6191687 -85.1973295 21.5090327
-13.6207063 -47.6682186 34.7959548
-13.6247436 59.4012886 22.4361550
-13.6448899 -45.9045582 35.0112654
-13.6508252 -84.0086937 23.9291750
-13.6512751 3.7459861 33.9167267
-13.6636207 12.4117946 35.0581743
-13.6727085 44.8198989 29.4291843
-13.6767691 -56.0075566 32.2628208
-13.6890030 9.0277316 35.4103185
-13.6935636 7.5339964 35.3423432
-13.7049174 11.3050435 35.2189429
-13.7097202 -7.7148569 28.9303977
-13.7406280 47.3557077 28.8034752
-13.7413070 32.6439962 33.2316384
-13.7909306 -16.6526288 30.2937813
-13.8056753 27.5356192 33.8033363
-13.8071897 10.1672560 35.3510976
-13.8083426 -29.6568796 32.7500515
-13.8243400 -74.6409968 30.7990648
-13.8588771 -80.3170279 29.1774124
-13.8953943 -35.3058726 31.7556448
-13.9171863 41.6903980 30.9870988
-13.9207952 -33.6366482 33.4108733
-13.9479358 -5.2517843 29.3099862
-13.9561743 -44.2501195 34.9125750
-13.9786992 -2.8445933 30.2174818
-13.9795840 23.2494641 34.0453386
-13.9971282 -65.9443960 30.5316038
-14.0031353 -22.4280003 31.5112025
-14.0200639 -13.2797910 29.9060531
-14.0205324 21.3302579 34.1248438
-14.0225105 -42.1400778 34.6844420
-14.0396357 -71.6813058 30.7879876
-14.0435761 -18.5291972 30.6440033
-14.0450224 -61.1906275 31.2862881
-14.0477456 -59.6793182 31.5154940
-14.0553098 26.1932015 33.8845141
-14.0698571 52.9833660 26.1731576
-14.0726371 16.1276255 34.4959758
-14.0834991 33.7192155 33.0288075
-14.1043495 -70.0150579 30.7020918
-14.1096283 -37.2580290 30.9570096
-14.1338315 57.9539947 23.2501943
-14.1417151 -77.7508020 30.1710609
-14.1533017 -81.6843212 27.9187839
-14.1675901 -64.2052069 30.6758769
-14.1877169 -34.3599059 32.4588418
-14.2214196 39.4222811 31.7365974
-14.2401643 -26.2272637 31.9351554
-14.2518645 49.7767329 27.8348178
-14.2590189 50.8490652 27.2978637
-14.2628932 28.8782027 33.6397886
-14.2886555 19.1864874 34.2153721
-14.3531738 40.7697707 31.2816128
-14.4119253 -14.5356683 29.9352519
-14.4191971 -50.5358241 32.7650830
-14.4210365 -76.3326287 30.3861033
-14.4442376 -24.8411857 31.7156091
-14.4511024 -9.0790978 29.2910486
-14.4662810 17.2314420 34.3456566
-14.4697838 -40.6975262 34.1077037
-14.5273423 -31.9640972 32.7592380
-14.5601332 -1.8736173 31.2533267
-14.5778647 -28.5631157 31.9699049
-14.5833921 -46.6077887 34.6069671
-14.5896971 54.2454869 25.3709294
-14.5980129 6.8363631 35.1341851
-14.6188773 1.0357960 32.5557590
-14.6234352 -0.2895523 32.1421474
-14.6253752 8.2810484 35.3323743
-14.6431671 4.9403724 34.4292186
-14.6604339 35.9618999 32.5477496
-14.6604814 60.7429519 21.3307571
-14.6716665 34.9264331 32.7547938
-14.6833258 45.0961217 29.1616898
-14.6969995 -53.0194826 31.7396559
-14.7133563 43.2320014 30.1661324
-14.7175137 11.0032409 35.1727381
-14.7255594 -84.1455311 22.7094535
-14.7325723 -63.2233471 30.7496022
-14.7468103 13.5210026 34.7749516
-14.7575540 55.6218736 24.5411862
-14.7677865 14.8893874 34.5742553
-14.7736715 -19.3449594 30.6469370
-14.7875147 -54.4274896 31.8293944
-14.7877419 -83.1538662 24.9490291
-14.7879487 25.3254939 33.8705517
-14.8008652 -38.4899341 31.3757062
-14.8160486 46.5422906 28.8137812
-14.8191750 -78.7431374 29.5404438
-14.8252565 -47.9879305 34.2070535
-14.8481429 -82.1318105 26.9000735
-14.8588102 27.5183171 33.7071568
-14.8737757 -10.8205695 29.9208630
-14.9095720 52.1006770 26.5140478
-14.9164749 48.7682708 28.1653274
-14.9257798 -11.8873147 29.9367476
-14.9521930 -56.3078634 31.5741710
-14.9677703 47.5559309 28.5648275
-14.9823353 -75.0895739 30.3313769
-14.9895456 -80.6686208 28.3902828
-14.9911400 37.3136215 32.2077349
-15.0398724 22.8956807 33.9568667
-15.0489556 32.5281918 33.1171192
-15.0518939 -42.9145470 34.4615988
-15.0558166 -52.0234518 31.8099223
-15.0616542 -27.2824969 31.6667072
-15.0665566 56.5440282 23.9311717
-15.0711248 -41.7582802 34.2492536
-15.0721464 -33.3541110 31.8204165
-15.0930397 -16.0966571 29.9895331
-15.1308477 -84.4372883 21.7781197
-15.1350135 -68.1855008 30.2681066
-15.1463049 -60.1138920 31.0865454
-15.1576651 -58.1088550 31.2842503
-15.1917273 -65.0100112 30.3750485
-15.1936272 -61.1833520 30.9581310
-15.2200675 3.3759815 33.4982090
-15.2407102 -22.6511005 31.1699212
-15.2611705 59.4098642 22.1043788
-15.2711710 -8.1072440 29.0712826
-15.2766891 -73.4185949 30.3239580
-15.3107923 16.2854921 34.3375430
-15.3184347 -48.9067324 33.4613845
-15.3627954 -20.6613299 30.7997614
-15.3641067 -4.1049211 30.1550161
-15.3760146 24.0415577 33.8725671
-15.3807029 -30.2012227 31.7286067
-15.4074579 -17.1546154 30.0995186
-15.4546760 -5.1444997 29.7809225
-15.4662682 -40.4632874 33.4694423
-15.4812932 -44.1470407 34.3738385
-15.4924700 41.0373844 31.0314652
-15.5036785 42.5521769 30.3856973
-15.5144548 -39.6433733 32.5154252
-15.5270407 -1.6606731 31.8530425
-15.5828092 -82.2493285 26.1329170
-15.6075656 60.2086745 21.4979071
-15.6231280 -81.4230815 27.2885300
-15.6239597 -36.1849032 30.5597428
-15.6284459 45.6817970 28.8231615
-15.6314410 7.4084909 35.1483412
-15.6811252 -13.2660680 29.9322046
-15.6986322 -14.6551654 29.8712458
-15.7097075 50.3423624 27.3054913
-15.7308001 -51.0481149 31.9274515
-15.7344639 1.2910239 32.6202027
-15.7356896 6.3879057 34.9076018
-15.7452505 18.9371090 34.0651534
-15.7462060 -55.5293821 31.2732346
-15.7497767 -54.2873517 31.3487872
-15.7547910 -34.5735550 30.8289714
-15.8066042 5.2305516 34.4277918
-15.8078950 -45.5495343 34.2195034
-15.8197526 29.4146668 33.4227718
-15.8545282 52.9185161 25.8826073
-15.8629678 21.9091866 33.9017101
-15.8838853 -47.9692295 33.8237658
-15.8922598 -76.7510459 29.7328942
-15.9320440 20.6543710 33.9482576
-15.9404073 -62.3648427 30.5935573
-15.9439910 9.9681467 35.1945274
-16.0213932 -32.6082371 31.3312486
-16.0503164 -75.0759244 29.9381167
-16.0698351 51.8157184 26.4512002
-16.0742179 -80.5485994 27.8818123
-16.0852894 34.7597413 32.6195844
-16.1017142 17.2427706 34.1452435
-16.1119793 -2.6440707 31.0937110
-16.1161199 -83.1524059 23.6455463
-16.1173642 -79.4830769 28.5955090
-16.1365774 -41.7805538 33.8337310
-16.1552355 43.8523628 29.6041723
-16.1588863 -29.1481595 31.3876718
-16.1672905 39.6801867 31.4016715
-16.1707792 33.1805460 32.8877158
-16.2235368 -58.7779805 30.8155492
-16.2531156 -63.4017289 30.3581040
-16.2550285 -19.5854232 30.4458700
-16.2663925 -9.0697594 29.5174681
-16.3095612 12.0780105 34.8018184
-16.3347945 -72.1870884 29.9591068
-16.3431149 15.3882448 34.3031548
-16.3523797 -49.4452938 32.6085128
-16.3623318 -73.3939409 29.9308468
-16.3653065 -27.3440350 31.2961787
-16.3653400 -38.4652242 30.6726508
-16.3682345 2.4466354 33.0002047
-16.3769163 -83.7925747 21.9518393
-16.3783077 -64.8339614 30.1173087
-16.3794328 26.6813114 33.6055122
-16.3937695 38.2435396 31.7887366
-16.4006948 56.1810508 23.8718260
-16.4046474 57.5681217 23.0231471
-16.4108723 22.8232332 33.7967463
-16.4234601 -11.6704525 30.1559065
-16.4334085 47.3926105 28.3546317
-16.4417867 -24.9289833 31.1703496
-16.4429415 -67.0964271 29.9006924
-16.4465625 -82.5378373 24.7543808
-16.4520759 -0.4031172 32.3365331
-16.4593197 30.8868587 33.1790894
-16.4629482 -52.7403355 31.0348980
-16.4872520 55.2164689 24.4282391
-16.5084247 -47.0310897 33.8091627
-16.5108256 -16.0829686 29.8909023
-16.5439639 -78.3857927 28.9242677
-16.5449958 42.9157950 30.0526191
-16.5517628 -60.7726127 30.5717215
-16.6251194 -17.7618787 30.0724544
-16.6422911 53.6368415 25.3130738
-16.6914649 32.2559439 32.9642631
-16.6921280 49.1589494 27.6829917
-16.6928973 -50.2427891 31.7577422
-16.6947711 18.4138976 33.9691974
-16.6961681 -23.7125587 31.0139451
-16.7118609 -44.4019064 33.9066721
-16.7152341 -10.3261648 30.2434079
-16.7322922 6.0883411 34.6980728
-16.7415719 24.9582250 33.6651877
-16.7649575 -1.3997904 32.2682597
-16.7998746 -69.1573396 29.7429226
-16.8088842 -21.0998133 30.6554958
-16.8148112 -6.3395449 29.4471141
-16.8263447 -55.9546091 30.7647679
-16.8424621 45.8109379 28.5862256
-16.8740377 1.2398200 32.6127335
-16.8745704 -34.1728441 30.7858475
-16.9035122 -81.9111168 25.5882777
-16.9539135 28.8192965 33.3450362
-16.9696677 4.2367964 33.7662101
-16.9952288 -35.2158733 30.5759776
-16.9989988 -8.2651423 29.2253513
-17.0080848 -26.0397848 31.1382506
-17.0277078 13.4772593 34.4699882
-17.0434825 -22.4468708 30.8212284
-17.0901828 -12.7331913 30.0776176
-17.1100311 -57.9113103 30.5332337
-17.1509534 -45.7099266 33.6865745
-17.1619542 -76.2389973 29.3376930
-17.1745662 -64.1275495 29.9843084
-17.1868894 33.5224941 32.6983444
-17.1942860 -73.9922822 29.5989756
-17.2168855 -4.1428441 30.7528321
-17.3030365 -80.6719065 26.9864630
-17.3105206 41.8156683 30.4394737
-17.3266027 36.6217494 32.0610814
-17.3605327 -42.6318161 33.5008241
-17.3664559 -51.6872145 30.9854113
-17.3679050 -39.7648104 31.1759487
-17.3810143 59.6963465 21.4115568
-17.3835121 56.7073785 23.3276784
-17.4129568 -77.3649365 28.9013758
-17.4289737 -65.2463287 29.7629796
-17.4379572 -28.9845821 31.1335362
-17.4492672 7.5839250 35.0178145
-17.4836088 16.8101452 33.9752436
-17.5035428 51.1169545 26.5255608
-17.5049342 -30.4020643 31.1329197
-17.5104793 -14.5084765 29.8987869
-17.5274312 -61.5114570 30.1828086
-17.5294094 -2.7572280 31.3299671
-17.5320450 -72.9619563 29.5154247
-17.5392181 8.8705402 35.0993760
-17.5433233 -59.7042292 30.2858818
-17.5680220 -49.6943519 31.9768675
-17.5701883 2.8305002 33.0887213
-17.5702237 38.9115848 31.4276889
-17.5781827 -27.5033992 31.1037470
-17.6084731 -31.5461829 31.0861319
-17.6285636 -71.0756108 29.4823013
-17.6595990 27.9028267 33.3351344
-17.6660921 -41.1389768 32.5315520
-17.6956430 21.7943229 33.6498767
-17.7232828 37.6823060 31.7441225
-17.7421104 -32.7808894 30.9692305
-17.7524947 -79.6376988 27.5940225
-17.7586079 -75.3054842 29.2590149
-17.7788772 -48.2576787 33.0241099
-17.7805256 55.6841753 23.8523129
-17.7858528 -53.9076924 30.4529034
-17.7900400 -66.4907545 29.5230001
-17.7936815 -63.2398725 29.9041662
-17.8012662 18.4825417 33.7906331
-17.8149510 -82.5971514 23.1202841
-17.8222004 22.9203831 33.5935317
-17.8659689 -36.5375616 30.3077959
-17.8683847 -18.5840856 30.1306918
-17.8730786 46.0643694 28.3502489
-17.8796314 -24.0233578 30.9129898
-17.8832412 52.3042381 25.7871766
-17.8883839 43.5157008 29.4838157
-17.8984609 -83.2097903 21.5853248
-17.9036055 49.9002375 27.0712394
-17.9211386 35.3637375 32.2470218
-17.9245006 29.1784368 33.1759974
-17.9524533 -4.8853192 30.2332547
-17.9634523 10.6522739 34.8644741
-17.9643966 31.9707878 32.8302160
-17.9748107 -70.0557977 29.3487422
-17.9942288 -1.1475793 32.4136056
-18.0003233 -20.8760966 30.5129606
-18.0343874 0.8988926 32.6004438
-18.0653594 15.1390377 34.0583809
-18.0894546 57.4560799 22.6822123
-18.0951413 44.6467623 28.7324619
-18.1026086 -56.3275032 30.2270912
-18.1255508 -82.0853934 23.9849016
-18.1539226 -12.0099252 30.3027462
-18.1569830 3.8721869 33.4779285
-18.1710515 42.4498320 29.9987160
-18.1987323 -33.8732116 30.7617504
-18.2087496 58.5868619 21.9300091
-18.2123054 -38.8357490 30.3542074
-18.2549153 24.3362412 33.4739909
-18.2867218 -52.9528931 30.3456988
-18.3083341 -43.7151976 33.2141109
-18.3300618 40.8119336 30.6737702
-18.3343925 -16.1525290 29.8432522
-18.3606148 13.8769662 34.1837741
-18.3638651 -17.6538508 29.9719926
-18.3658674 -9.6341930 29.9995560
-18.4193756 -8.4720496 29.2731710
-18.4257329 -74.0569085 29.1297920
-18.4295177 -77.9927000 28.1450171
-18.4491072 -40.6674407 31.3270912
-18.4491202 36.4275575 31.9340937
-18.4706803 -68.7055513 29.1857179
-18.4776448 -46.5991087 33.1114195
-18.4830930 -7.2334544 29.3874945
-18.4904691 12.1800425 34.4465710
-18.5027234 -80.4110691 26.3849497
-18.5191371 53.0342385 25.2221972
-18.5538381 49.0508303 27.3323562
-18.5723342 -67.4898028 29.2034503
-18.5817759 -82.5458094 22.3159157
-18.5948201 -28.2656085 31.0407598
-18.6007563 -57.3538430 29.9910810
-18.6137464 -60.6691353 29.8516303
-18.6196677 -76.5652657 28.5920035
-18.6450798 -2.9700492 31.3160606
-18.6456833 6.9673555 34.7619615
-18.6521914 -62.3037592 29.7121499
-18.6574571 -72.1346289 29.1209817
-18.6666977 -37.5015065 30.1573426
-18.6995100 26.0384064 33.3174132
-18.7005345 47.7255881 27.7995486
-18.7193733 53.9068840 24.6693231
-18.7196471 5.2395598 34.0871662
-18.7369883 -24.7365255 30.9228301
-18.7558830 -41.8003723 32.2821736
-18.7717024 -14.1983675 29.9476963
-18.7767800 -55.1784895 30.0307274
-18.7828634 55.8365434 23.5033389
-18.8421831 -4.0113414 30.9638251
-18.8712794 1.7909057 32.7844284
-18.9236533 -22.3672278 30.6794066
-18.9249106 -58.8017665 29.8186596
-18.9383775 -54.1250184 30.0216284
-18.9482197 43.5814150 29.2281918
-18.9546812 -49.5477691 31.7950323
-18.9586207 33.9005142 32.3674753
-18.9863611 -31.9648199 30.9400316
-18.9887788 -44.5793979 32.9474881
-18.9990550 21.2052278 33.4487259
-19.0621540 50.5588427 26.4570303
-19.0724581 -34.7227342 30.5877812
-19.0830957 -36.0776447 30.3368773
-19.1049650 46.5330891 27.9995371
-19.1454738 2.8375890 33.0400094
-19.1667117 -15.2229741 29.8464093
-19.2073490 -51.2818359 30.3595234
-19.2124788 -39.4420736 30.2905068
-19.2220956 30.7259392 32.7995233
-19.2303304 39.1335115 31.0886111
-19.2731097 -80.9909180 24.9361601
-19.2877036 -12.9176565 30.1668253
-19.2879289 17.0650948 33.6234905
-19.3168595 -79.4321522 26.7450847
-19.3332508 32.7931568 32.4909836
-19.3392020 11.2535981 34.5086046
-19.3531569 -26.2029693 30.9802089
-19.3532817 -16.8455970 29.8611578
-19.3619430 9.9177947 34.7949900
-19.3703044 42.4981378 29.7359675
-19.3728264 -1.3231752 32.4362107
-19.3797220 24.3943390 33.2794636
-19.3806384 4.0828325 33.4756188
-19.3816517 41.2059724 30.3208847
-19.4064640 -29.6260733 31.0157221
-19.4206387 45.0198650 28.2753725
-19.4407571 -11.6401799 30.4543376
-19.4456130 -81.4082175 23.9685997
-19.4616746 -23.2630745 30.7716690
-19.4713380 -6.5256213 29.8594404
-19.4727946 -68.9926147 28.8500860
-19.4898713 22.9839925 33.3032534
-19.5011031 -64.3121526 29.1898679
-19.5323974 -57.7108897 29.6359267
-19.5433516 -52.5368862 29.9940314
-19.5577573 -82.4108124 21.3322788
-19.5806772 -71.3632628 28.8000107
-19.5836276 35.6456935 31.9221057
-19.5898004 -4.7086505 30.1377606
-19.5946898 -66.1103427 28.9717615
-19.6123850 15.0584690 33.7720737
-19.6158774 58.9125827 21.3102102
-19.6204707 -47.9317904 32.5306766
-19.6205918 -70.1029226 28.7930649
-19.6233895 -2.3007712 31.7941643
-19.6413547 52.7818054 25.0764024
-19.6527075 -77.0095959 27.9200841
-19.6935423 -18.9309288 30.1269032
-19.6954720 27.2012204 33.0642015
-19.7221264 18.6275970 33.4233604
-19.7330918 -32.9388343 30.8238994
-19.7544713 -55.2947186 29.6665225
-19.7556745 12.1972235 34.2053734
-19.7967123 49.4217202 26.8500838
-19.8054984 8.1639122 34.8104537
-19.8065825 -56.5367416 29.5834057
-19.8113378 5.6674862 34.1377482
-19.8232904 -75.9965777 28.1711593
-19.8556390 -72.9280785 28.6526382
-19.8563952 -46.8589403 32.5789675
-19.8649187 -41.3838476 30.9927277
-19.8739227 -37.7776958 30.0782993
-19.8881458 -49.7938432 31.2980562
-19.9210625 -10.5473483 30.5092596
-19.9308023 -30.7364482 30.9705045
-19.9440829 -0.0370063 32.6480083
-19.9638270 -21.0909322 30.4661486
-19.9738350 -15.9408133 29.8075825
-20.0110171 57.4284419 22.1615676
-20.0418364 -35.2582559 30.4890163
-20.0745892 -8.6585805 29.7718011
-20.0771037 -50.6614335 30.3797647
-20.1097410 -3.3296072 31.4410850
-20.1440845 -45.4718024 32.4920528
-20.1664269 -14.6344779 29.8848301
-20.2221051 -43.4407182 32.2481468
-20.2589259 -60.0813627 29.2786416
-20.2636179 16.7224463 33.4489755
-20.2655494 1.0215711 32.7250250
-20.2920418 20.3473028 33.2224146
-20.3194171 34.7957425 31.9622606
-20.3316174 -67.3232898 28.6348052
-20.3410089 28.5686832 32.8270085
-20.4103179 -79.5944780 25.7728212
-20.4302222 -65.4847026 28.7456475
-20.4322096 26.2332615 32.9877213
-20.4329267 32.2178155 32.3812775
-20.4393417 24.4324617 33.0722779
-20.4439051 -31.7092463 30.9097096
-20.4456747 29.6046715 32.7054635
-20.4527024 39.5961627 30.7058934
-20.4822440 54.0372953 24.1095722
-20.4839855 -61.3590814 29.1142594
-20.4887222 13.3130224 33.8472985
-20.5129124 46.9019227 27.5893342
-20.5328111 -81.2434927 22.9748189
-20.5496624 55.2453883 23.3629458
-20.5563679 43.1255549 29.1323252
-20.5941666 38.0961411 31.1360005
-20.6027441 -53.6331348 29.5162722
-20.6285473 -17.8622454 29.9256016
-20.6479225 -48.5041216 31.9923125
-20.6522197 51.7504402 25.3778454
-20.6532236 -51.4704920 29.8018288
-20.6712540 -7.2780205 30.2911829
-20.6807572 -24.4452227 30.8726672
-20.6827763 -44.4390699 32.2165862
-20.6886511 -75.1285106 27.9801041
-20.7115319 2.2252314 32.8721814
-20.7142644 -78.3600509 26.5750904
-20.7459852 -68.9192489 28.4287967
-20.7539629 -39.1583517 30.0209858
-20.7755473 49.7335829 26.4339820
-20.7809471 21.6593407 33.0746137
-20.7836591 -62.9321635 28.8655572
-20.7947847 -57.2346076 29.2027332
-20.8715014 9.5494762 34.6177779
-20.8794959 -73.4237731 28.1944368
-20.8824947 -80.5856958 23.9572525
-20.8885744 -32.7545181 30.8222175
-20.8918564 -27.3352861 31.0115647
-20.8957698 -2.0987070 32.1058705
-20.9086966 -56.1130308 29.2160083
-20.9238734 -12.3121934 30.2848741
-20.9722500 15.6329051 33.4012732
-20.9999904 -77.0246834 27.1457955
-21.0166369 11.4404298 34.1478549
-21.0320018 5.9969691 34.0954885
-21.0595038 -21.1790726 30.4405894
-21.0603625 57.3592968 21.8763947
-21.0628342 -37.0105244 30.1711932
-21.0745726 -49.5565608 31.1530251
-21.1126544 -70.1174811 28.2786041
-21.1182907 -19.1092510 30.1008578
-21.1217944 17.9673973 33.1551135
-21.1237576 47.9309745 27.1323789
-21.1598631 -13.8349105 29.9473833
-21.1673137 -42.5499007 31.1856512
-21.1863443 35.7943662 31.5897167
-21.1891681 -81.3520998 21.6882899
-21.2187096 3.7740970 33.2142934
-21.2207884 44.9453145 27.8963055
-21.2307610 -8.2564149 30.1989783
-21.2780628 -41.3398333 30.3098075
-21.3020518 -58.6965866 28.9645735
-21.3127844 -35.6050283 30.4323416
-21.3234313 -22.9537804 30.6903124
-21.3301536 -34.1808386 30.6528099
-21.3507917 27.9587675 32.6757208
-21.3642493 38.7757979 30.7755824
-21.3783961 56.0710616 22.5941855
-21.3996936 -52.9708192 29.3382332
-21.4207955 37.1509455 31.2191620
-21.4443412 -4.8844526 30.4914918
-21.4449391 46.2261476 27.5013186
-21.4536842 -1.0380900 32.6331593
-21.4770678 -15.4422903 29.7492780
-21.4856137 13.5337571 33.5882455
-21.4938968 39.8139060 30.4050948
-21.5182919 -79.6473697 24.7283820
-21.5206854 20.1660246 32.9463519
-21.5661693 -45.3412645 31.8994373
-21.5710923 -54.2632453 29.1452631
-21.5826612 -9.6845655 30.1159974
-21.5940941 -74.5298937 27.6606549
-21.6010083 -80.6958452 22.8073690
-21.6167960 -67.7861646 28.1757992
-21.6265768 -25.6600659 30.9516042
-21.6394104 1.6309661 32.7880830
-21.6496829 34.0178050 31.8480954
-21.6662437 -30.1926788 30.9860427
-21.6730237 41.3907394 29.7317617
-21.6740221 -38.5405980 29.9703404
-21.6902159 -63.4536743 28.4798313
-21.6995347 31.3562155 32.2482586
-21.7579566 -71.8124211 27.9670674
-21.7616186 53.9037846 23.7955842
-21.7667073 52.1782599 24.8038974
-21.7837542 -59.7613119 28.7331380
-21.7851270 55.0879277 23.0708625
-21.7916071 -47.5882180 31.7552052
-21.7956640 -11.0327713 30.5158328
-21.8267813 -50.2976999 30.2098934
-21.8692105 -3.4457634 31.5980501
-21.8692888 -44.1561267 31.6062979
-21.9046623 21.1925078 32.8229144
-21.9136048 -26.8368460 31.0018342
-21.9221190 -2.0082530 32.2899669
-21.9741426 0.4119141 32.7299275
-21.9804011 -28.4905992 31.0221873
-21.9854116 11.8178613 33.8451639
-22.0028032 24.7449651 32.7139273
-22.0246986 26.8701054 32.6052494
-22.0387168 -73.0943680 27.7238470
-22.0456272 -7.3152520 30.4861870
-22.0553931 -5.9162783 30.4601919
-22.0594369 -48.9356257 31.2399287
-22.0827051 -46.4107580 31.7142867
-22.0827647 -32.4039981 30.8408011
-22.0953729 48.9491820 26.4378879
-22.0957305 -61.8496500 28.4662545
-22.1140198 -37.4556631 30.1008467
-22.1165307 42.5234586 29.0481821
-22.1165624 -56.0409911 28.8069155
-22.1375246 -75.4769966 27.0999894
-22.1644063 -43.0284105 30.8994744
-22.1685171 -17.1346199 29.7375768
-22.1771840 -39.8607999 29.8892874
-22.2480390 -69.2976564 27.8957915
-22.2751666 2.8692901 32.9135805
-22.2879648 -64.3592551 28.1840954
-22.2953055 -65.8596233 28.0626174
-22.2993828 36.5148410 31.1826002
-22.3067608 -20.4934496 30.2553270
-22.3292150 -8.6134197 30.1284920
-22.3365761 44.2458875 27.9139951
-22.4141274 -77.8669491 25.6800968
-22.4179197 15.0384344 33.1224799
-22.4223230 -18.1515887 29.8510753
-22.4412885 45.8921976 27.2989944
