-11.05529 44.56103 29.88713
-14.83668 44.55869 29.40122
-16.07747 44.54703 29.2032
-20.9061 44.4147 28.22783
-23.20707 44.2781 27.6247
-24.69259 44.1614 27.18341
-26.13835 44.03483 26.71213
-27.54464 43.90772 26.21182
-5.068679 44.26226 30.40323
-6.81563 44.26706 30.35116
-12.00617 44.2853 29.94992
-13.70583 44.28316 29.73681
-17.0538 44.25017 29.21534
-18.28855 44.22466 28.98681
-19.50741 44.19015 28.73803
-21.88272 44.08852 28.17521
-28.77489 43.53533 25.8926
-29.77629 43.43736 25.47372
-30.75442 43.3282 25.04268
-31.71322 43.19886 24.6028
-33.58587 42.84487 23.70859
-4.218839 43.98867 30.56039
-9.500734 43.99883 30.35171
-15.52291 43.9847 29.64181
-23.99131 43.67687 27.76453
-25.46823 43.56132 27.28749
-26.90005 43.43878 26.77896
-32.51957 42.82735 24.33489
-34.66436 42.34903 23.26064
-2.457523 43.71478 30.71589
-3.350833 43.7125 30.70831
-6.025082 43.71013 30.66756
-7.803108 43.71196 30.60703
-8.690169 43.71336 30.55979
-10.45608 43.71542 30.42762
-12.64085 43.7133 30.19975
-14.36893 43.70473 29.97647
-16.50677 43.6815 29.65365
-17.77633 43.65917 29.43648
-20.26762 43.59083 28.93693
-22.66007 43.4827 28.33643
-28.14264 43.0622 26.45875
-5.166968 43.42632 30.82133
-6.962492 43.42493 30.78268
-11.4222 43.42399 30.48855
-18.77315 43.34183 29.42068
-21.25711 43.2612 28.88215
-24.75769 43.06263 27.87459
-26.22388 42.94978 27.36244
-29.35606 42.68596 26.1008
-30.34631 42.59399 25.64917
-31.30884 42.49224 25.18424
-33.171 42.22892 24.22876
-35.87224 41.56901 22.78064
-4.291312 43.13972 30.96362
-9.718525 43.13131 30.78422
-13.28208 43.11997 30.43063
-15.03756 43.10576 30.19736
-15.90979 43.09558 30.06925
-17.21108 43.07573 29.86294
-19.77401 43.01636 29.38743
-23.42359 42.86221 28.46843
-27.48139 42.56837 27.04184
-32.11325 42.13346 24.90547
-33.94149 41.844 23.92087
-35.13484 41.57523 23.26052
-2.481183 42.85464 31.10508
-3.398181 42.85019 31.09886
-6.142676 42.84021 31.07174
-7.968009 42.83608 31.02152
-8.879222 42.83432 30.97791
-10.69352 42.82996 30.84886
-12.04334 42.82488 30.7191
-18.21592 42.75295 29.84738
-20.77466 42.68334 29.33384
-22.01185 42.63616 29.03255
-25.50595 42.43643 27.95486
-28.70881 42.18877 26.68289
-37.05217 40.77047 22.26303
-5.259343 42.54386 31.20944
-7.100714 42.53716 31.18105
-13.92914 42.50649 30.64178
-16.59703 42.47506 30.2659
-24.17208 42.22865 28.57068
-26.78474 42.0536 27.63642
-29.90721 41.81058 26.28818
-30.88849 41.72589 25.80672
-32.76244 41.52476 24.80491
-36.31961 40.81442 22.74606
-37.78128 40.30872 21.91055
-4.35931 42.24484 31.33709
-9.923096 42.2209 31.17955
-11.30232 42.21438 31.06819
-12.67112 42.20604 30.92957
-17.60874 42.14697 30.24978
-18.9328 42.1198 30.01989
-19.80564 42.09832 29.85227
-21.51525 42.04602 29.47615
-22.75601 41.99751 29.15433
-28.02972 41.67063 27.2777
-31.69708 41.37291 25.5195
-33.53046 41.1574 24.48583
-34.42028 41.01665 23.9602
-39.3859 39.42838 21.07255
-2.503361 41.94942 31.46457
-3.442562 41.9431 31.45948
-6.253202 41.92669 31.44262
-8.123015 41.91767 31.3999
-9.056821 41.91334 31.35888
-14.58141 41.87516 30.83275
-15.48686 41.86464 30.7101
-24.90482 41.58445 28.64326
-26.04084 41.51547 28.23421
-29.24417 41.29057 26.8825
-35.16028 40.63179 23.61372
-5.346033 41.61913 31.56495
-7.230615 41.60812 31.54392
-10.5205 41.59006 31.38798
-11.91806 41.58091 31.26683
-13.30472 41.56986 31.11945
-16.95587 41.52571 30.62822
-18.30957 41.50178 30.41044
-20.52961 41.45033 29.9913
-22.24741 41.39667 29.59051
-23.488 41.34782 29.24683
-27.31132 41.13238 27.87939
-30.42929 40.91321 26.45331
-32.3431 40.75352 25.42152
-35.88951 40.24144 23.2541
-38.49481 39.5039 21.65121
-4.423017 41.30903 31.67823
-9.642391 41.27607 31.56547
-16.15591 41.21657 30.87525
-19.3358 41.16041 30.36154
-24.45124 40.99245 29.09127
-28.54619 40.75072 27.48526
-31.24965 40.56183 26.16062
-33.11408 40.39739 25.09347
-34.00671 40.29501 24.54505
-36.89786 39.77883 22.69934
-2.524121 41.00416 31.7917
-3.484104 40.99642 31.78751
-6.356941 40.97524 31.77787
-8.268519 40.96261 31.74013
-11.12523 40.94334 31.57512
-12.53992 40.93213 31.44422
-13.94346 40.919 31.28829
-14.8734 40.90888 31.17256
-17.64137 40.87001 30.77603
-21.24853 40.79196 30.10387
-22.96936 40.73818 29.67605
-25.39617 40.63439 28.90906
-26.54062 40.57287 28.47874
-29.74975 40.37319 27.05637
-34.74387 39.9295 24.18775
-37.6128 39.37517 22.31666
-5.427284 40.65812 31.88573
-7.352543 40.64415 31.86949
-10.23612 40.6241 31.75116
-16.8284 40.55685 31.01946
-18.67498 40.52622 30.72808
-20.04279 40.49845 30.48039
-23.9496 40.38361 29.52403
-27.805 40.19264 28.09056
-30.59018 40.02141 26.76838
-31.89256 39.93269 26.0629
-35.46851 39.56157 23.81687
-39.78187 38.50784 21.02168
-4.48264 40.33906 31.98582
-8.844743 40.30624 31.92868
-11.73645 40.28424 31.74159
-13.1672 40.27158 31.60117
-15.5277 40.24606 31.31582
-21.96056 40.12667 30.1899
-24.91133 40.02718 29.34453
-29.03213 39.81547 27.66447
-32.67347 39.58364 25.72905
-33.58166 39.50833 25.16528
-36.18302 39.19169 23.43395
-39.03786 38.56087 21.52944
-2.543538 40.02667 32.08679
-3.522959 40.01817 32.08334
-6.454235 39.99432 32.07828
-7.917336 39.98325 32.05688
-10.83701 39.96122 31.91679
-14.19766 39.93087 31.59094
-17.97195 39.88208 31.07099
-19.36886 39.85816 30.83774
-20.74635 39.83045 30.57517
-25.8532 39.66996 29.1388
-27.00708 39.61645 28.68986
-29.88351 39.46289 27.37801
-31.23764 39.38508 26.67791
-34.32171 39.15646 24.80014
-36.88987 38.82045 23.04047
-38.30803 38.53649 22.07034
-5.5034 39.67056 32.17413
-9.429451 39.64029 32.09858
-12.35344 39.61663 31.88887
-16.18557 39.57644 31.44016
-17.13335 39.56392 31.30519
-22.66403 39.45795 30.25011
-23.53222 39.43374 30.01639
-24.37761 39.40722 29.76385
-28.26752 39.24228 28.27244
-32.03935 39.03891 26.34881
-35.04675 38.80436 24.42104
-37.59159 38.44857 22.6378
-4.538426 39.34558 32.26344
-7.009569 39.32567 32.25743
-8.491236 39.31431 32.22727
-11.44422 39.29126 32.06384
-13.39187 39.27414 31.8819
-14.8394 39.25962 31.7161
-18.65307 39.21037 31.1723
-20.061 39.18681 30.92589
-21.44478 39.15982 30.64664
-25.33828 39.05305 29.56327
-26.53211 39.00764 29.12416
-29.13523 38.88981 27.99023
-30.52994 38.82045 27.29271
-33.12646 38.67568 25.80894
-35.75927 38.45237 24.02952
-2.561697 39.02803 32.35406
-3.559295 39.01946 32.35124
-6.048549 38.99901 32.3504
-10.02177 38.96848 32.25083
-17.80378 38.89111 31.40605
-27.44216 38.65428 28.87195
-31.35544 38.47581 26.97058
-33.87648 38.33355 25.43947
-36.46177 38.10085 23.62703
-39.5609 37.58535 21.4153
-5.074356 38.67145 32.4347
-7.574225 38.65198 32.42203
-9.073434 38.64073 32.38137
-12.55051 38.61342 32.14984
-14.02325 38.60032 31.99924
-15.48482 38.58582 31.82484
-16.45365 38.5752 31.69651
-19.33382 38.53763 31.2547
-20.74985 38.51501 30.99324
-22.13649 38.48932 30.69561
-23.03824 38.47026 30.47401
-23.91808 38.44951 30.23252
-24.77406 38.42693 29.97153
-26.01206 38.38937 29.54669
-28.33228 38.30355 28.59795
-29.77863 38.24242 27.90917
-32.48044 38.11873 26.43887
-34.60872 37.99282 25.05551
-37.15664 37.75012 23.21484
-37.99307 37.63617 22.59993
-38.83505 37.49973 21.98975
-40.26702 37.21186 20.99317
-4.086559 38.34302 32.51581
-6.603099 38.32341 32.51436
-10.62079 38.29362 32.38653
-11.61943 38.28595 32.3158
-18.47516 38.21786 31.48962
-26.9403 38.03933 29.29932
-30.61854 37.89875 27.59083
-33.25028 37.78112 26.07405
-35.32557 37.65349 24.65855
-2.071361 38.02191 32.59846
-3.085986 38.01376 32.59674
-5.619689 37.99419 32.59586
-8.147537 37.97569 32.57225
-9.663099 37.96487 32.51983
-13.17267 37.93832 32.26124
-14.65854 37.9256 32.10152
-17.11101 37.9014 31.78385
-20.01279 37.86577 31.31849
-21.4338 37.84456 31.04021
-25.44376 37.76316 29.95424
-27.8477 37.69175 29.02927
-28.97393 37.65257 28.52184
-31.78114 37.54576 27.06869
-33.99953 37.44599 25.69349
-36.02953 37.3157 24.24999
-4.623516 37.66438 32.672
-7.166561 37.64609 32.66585
-12.23305 37.61052 32.42852
-15.71936 37.58188 32.05629
-19.14632 37.54593 31.55632
-22.47135 37.49923 30.89769
-23.38448 37.48337 30.66919
-24.27496 37.4662 30.42032
-29.83393 37.31024 28.21022
-32.57718 37.21072 26.71167
-34.73036 37.1131 25.29881
-36.72311 36.97971 23.83116
-37.55452 36.90456 23.19616
-38.38389 36.81491 22.56191
-39.2185 36.70789 21.9315
-3.614681 37.33407 32.74726
-6.17397 37.31611 32.74679
-8.728768 37.29903 32.70848
-10.7684 37.28551 32.61373
-13.79898 37.26391 32.3587
-17.77001 37.22931 31.85626
-20.68859 37.19641 31.36398
-26.10072 37.10339 29.91633
-26.91938 37.0834 29.6098
-28.48551 37.04034 28.95295
-31.02586 36.96056 27.6952
-33.34928 36.87912 26.33736
-35.4451 36.78237 24.89154
-39.90516 36.36586 21.49156
-2.594551 37.00329 32.8218
-5.16946 36.98583 32.82011
-7.738395 36.96923 32.80484
-9.791559 36.95637 32.7403
-12.85122 36.93645 32.52763
-14.86705 36.9219 32.31888
-16.3655 36.90991 32.13326
-19.81593 36.87696 31.6064
-21.74065 36.85417 31.23182
-24.937 36.80515 30.39739
-29.36177 36.70103 28.64485
-31.84489 36.6274 27.34572
-34.10008 36.55056 25.94762
-36.14625 36.45385 24.473
-4.152799 36.6552 32.89057
-6.736743 36.63919 32.88718
-11.3747 36.61158 32.71939
-18.42963 36.56041 31.91407
-22.78124 36.51354 31.07499
-23.70453 36.5009 30.83966
-27.55732 36.43117 29.54019
-30.21901 36.36546 28.31866
-32.64565 36.298 26.98065
-34.83182 36.22469 25.54399
-37.11395 36.11067 23.8276
-37.94074 36.05351 23.17577
-38.76429 35.98553 22.52397
-40.71485 35.77249 21.01968
-3.124813 36.32421 32.96068
-5.72391 36.3089 32.9596
-8.836478 36.29144 32.91653
-10.38997 36.28286 32.84982
-13.98311 36.26185 32.56299
-15.50428 36.25193 32.3925
-17.01366 36.24118 32.19691
-20.96935 36.20711 31.54631
-25.58726 36.14889 30.35497
-26.44004 36.1345 30.05812
-28.46277 36.09456 29.24554
-31.05821 36.03379 27.9759
-33.42211 35.97205 26.59851
-35.54678 35.90132 25.12797
-39.4384 35.65999 22.07441
-2.08672 35.99285 33.02861
-4.699635 35.97835 33.0268
-7.828742 35.96183 33.00809
-11.98572 35.94039 32.81207
-13.01626 35.93481 32.72588
-19.08871 35.89534 31.95702
-20.07864 35.88731 31.78712
-22.02494 35.86958 31.40069
-24.36031 35.84369 30.8132
-29.34768 35.7612 28.93118
-31.8802 35.70597 27.61788
-34.17651 35.64924 26.20106
-36.53041 35.56861 24.48238
-40.11235 35.3381 21.61924
-3.664194 35.64755 33.09243
-6.810254 35.63206 33.08611
-9.427584 35.61972 33.02588
-10.99373 35.61235 32.94623
-14.61241 35.59417 32.63395
-16.14397 35.58558 32.45356
-17.66307 35.5763 32.2472
-23.06775 35.53396 31.23009
-27.07171 35.48547 29.98441
-27.89246 35.47262 29.65849
-30.21283 35.43129 28.59864
-32.68509 35.38172 27.24521
-34.91123 35.3292 25.78984
-37.49172 35.23799 23.82078
-38.3155 35.1967 23.15377
-5.781168 35.30216 33.15444
-8.411702 35.29076 33.12151
-13.63847 35.26798 32.79918
-21.22987 35.22427 31.70742
-25.0053 35.19133 30.76791
-25.89231 35.18159 30.48312
-28.79805 35.14231 29.35132
-31.05894 35.10489 28.24929
-33.46778 35.06073 26.8566
-35.92059 35.00369 25.14769
-39.25549 34.86642 22.47331
-40.90438 34.75417 21.1353
-2.623276 34.98084 33.21837
-4.741401 34.97215 33.21725
-7.385096 34.96173 33.2028
-10.02455 34.95165 33.12247
-12.12612 34.94352 32.99199
-15.24455 34.93053 32.69306
-16.78548 34.92342 32.50212
-18.31283 34.91573 32.28395
-19.32231 34.91024 32.12271
-20.32291 34.90442 31.94752
-22.28811 34.89165 31.54868
-23.71824 34.88094 31.20134
-29.68307 34.81511 29.02503
-31.88656 34.78197 27.88442
-34.22754 34.74274 26.45263
-36.89993 34.68088 24.48692
-3.691352 34.64209 33.27769
-6.348299 34.63268 33.27254
-9.001149 34.62365 33.22251
-11.11748 34.61652 33.12099
-14.26393 34.60537 32.86089
-26.51931 34.53617 30.40651
-30.54814 34.4911 28.68103
-32.69605 34.46231 27.50492
-35.27153 34.42202 25.8176
-37.85668 34.36082 23.8107
-38.6789 34.33325 23.13
-40.3103 34.26192 21.7664
-1.564043 34.31546 33.33599
-5.30136 34.30367 33.33456
-7.96691 34.29567 33.30784
-12.74193 34.28159 33.06025
-15.87899 34.27143 32.74034
-17.42807 34.26587 32.53797
-21.47146 34.24868 31.84891
-22.9367 34.24113 31.52335
-24.35896 34.23282 31.15437
-25.27865 34.22682 30.88305
-27.46949 34.20994 30.12244
-28.30196 34.20245 29.78899
-29.10999 34.19465 29.44082
-31.3937 34.17023 28.32054
-33.48571 34.14561 27.11066
-36.27836 34.10441 25.16112
-39.61195 34.01604 22.43483
-41.24779 33.94413 21.06542
-2.636262 33.97907 33.39251
-4.244536 33.97476 33.39215
-6.922639 33.96782 33.38026
-10.1301 33.95982 33.28704
-11.72704 33.95582 33.19294
-14.89218 33.94745 32.91113
-18.5199 33.9364 32.43568
-19.53983 33.93288 32.26976
-20.5499 33.92915 32.08897
-29.99605 33.87303 29.10389
-32.21991 33.8524 27.94464
-34.57199 33.82802 26.48647
-37.25521 33.78975 24.48666
-5.868627 33.64017 33.44297
-9.091732 33.63344 33.38343
-13.36116 33.62452 33.11711
-16.51513 33.61724 32.77559
-22.11765 33.60093 31.82672
-23.57685 33.59552 31.48038
-25.90219 33.5853 30.80457
-26.79026 33.58073 30.50085
-30.862 33.55423 28.74961
-33.02677 33.53735 27.5541
-35.61464 33.51378 25.8377
-38.20899 33.47817 23.79714
-39.031 33.46218 23.10411
-40.6549 33.42091 21.71314
-4.805145 33.31282 33.49919
-8.042944 33.30734 33.46562
-10.73389 33.30292 33.35929
-12.34039 33.30024 33.25333
-15.52274 33.29461 32.9499
-17.61499 33.29049 32.68171
-21.19548 33.28226 32.07469
-24.60381 33.27222 31.2573
-27.74187 33.25972 30.20606
-31.70794 33.23815 28.37907
-33.81306 33.22481 27.149
-36.62058 33.20254 25.16825
-39.9581 33.15506 22.39541
-41.58152 33.11655 20.99712
-2.64842 32.98734 33.55076
-3.732798 32.98588 33.55119
-6.984473 32.98162 33.53515
-9.68923 32.97823 33.4601
-13.9834 32.97275 33.16282
-18.713 32.96577 32.56988
-19.74232 32.96401 32.39902
-22.75674 32.95814 31.78749
-28.67234 32.94113 29.89068
-29.49229 32.93793 29.53639
-30.28808 32.93465 29.16848
-32.53358 32.92461 27.99315
-34.89853 32.91276 26.51139
-37.59652 32.89423 24.4814
-5.916721 32.65639 33.59484
-8.633986 32.65397 33.54669
-11.34187 32.6516 33.41988
-12.95714 32.65016 33.30258
-16.68275 32.64657 32.91093
-21.83546 32.6404 32.04398
-23.80245 32.63744 31.57796
-25.22487 32.63496 31.17782
-26.14453 32.63318 30.88703
-27.04041 32.63128 30.57829
-31.15573 32.62031 28.805
-33.33857 32.61333 27.59247
-35.94123 32.60361 25.85017
-38.54876 32.58898 23.77979
-39.37175 32.58243 23.07569
-40.98969 32.56552 21.65978
-4.840181 32.33172 33.64728
-7.569001 32.33024 33.62
-10.29143 32.32881 33.52498
-14.60822 32.32647 33.19751
-15.67537 32.32586 33.08187
-17.78952 32.32455 32.80869
-20.38269 32.32273 32.38253
-27.99381 32.31488 30.27372
-32.0028 32.30818 28.42541
-34.45562 32.30334 26.96129
-36.94765 32.29714 25.16901
-40.29377 32.28249 22.35449
-2.659809 32.00796 33.69329
-3.755579 32.00772 33.69434
-6.494839 32.00714 33.682
-9.23028 32.00658 33.61601
-11.9535 32.00603 33.4694
-13.57685 32.0057 33.34102
-18.893 32.00446 32.6874
-22.96484 32.00325 31.88042
-24.42461 32.00272 31.50297
-28.92662 32.00059 29.94938
-29.75564 32.00009 29.59131
-30.56043 31.99958 29.21954
-32.82852 31.99802 28.03038
-35.2078 31.99619 26.52756
-37.92395 31.99333 24.47093
-41.74275 31.98535 21.14604
-8.159257 31.68505 33.69364
-10.89775 31.6853 33.57863
-16.83937 31.68588 33.03032
-21.01849 31.6864 32.35055
-22.03251 31.68655 32.13823
-25.4416 31.68714 31.24933
-26.36786 31.68734 30.95325
-27.27121 31.68755 30.63994
-33.97806 31.6897 27.40679
-36.2516 31.69065 25.85508
-38.87569 31.69232 23.75833
-39.70073 31.69307 23.0443
-41.04704 31.69465 21.84597
-5.424588 31.36372 33.77755
-7.079042 31.36433 33.75889
-9.831196 31.3653 33.674
-12.56835 31.36627 33.50835
-14.74018 31.36707 33.31558
-15.81807 31.36749 33.19842
-17.95234 31.36838 32.91987
-19.52891 31.3691 32.66933
-23.58782 31.37133 31.81005
-28.22665 31.37501 30.32652
-34.74908 31.38301 26.97724
-37.25954 31.38731 25.16335
-3.223697 31.04284 33.82159
-4.330173 31.04353 33.82221
-8.754647 31.04617 33.75609
-11.50767 31.04776 33.62165
-13.69529 31.04905 33.45533
-22.65842 31.05571 32.07706
-24.62419 31.05777 31.56997
-29.16212 31.06418 29.99414
-30.00021 31.06568 29.6329
-30.81407 31.06722 29.2579
-31.60323 31.06878 28.86979
-33.4648 31.07271 27.84648
-35.82121 31.0783 26.30986
-38.23714 31.08617 24.4551
-40.45502 31.09787 22.53872
-42.05546 31.11085 21.083
-7.668811 30.72799 33.82536
-10.43616 30.73011 33.72125
-16.98557 30.73543 33.13485
-18.58559 30.73694 32.90499
-20.16122 30.73856 32.63678
-21.19537 30.73971 32.43583
-25.64106 30.7458 31.30556
-26.57347 30.74741 31.00452
-27.48396 30.74912 30.68705
-32.45328 30.76114 28.47715
-34.25587 30.76637 27.42205
-36.54581 30.77408 25.85258
-39.18921 30.78738 23.73248
-41.36181 30.80595 21.79432
-2.120633 30.40631 33.89629
-6.017478 30.41023 33.89032
-9.354565 30.41337 33.80784
-12.67153 30.41644 33.61452
-14.86356 30.41856 33.41961
-15.95137 30.41967 33.30074
-23.77204 30.42984 31.87358
-28.44162 30.43962 30.36569
-35.35798 30.46223 26.76099
-37.55604 30.47238 25.15132
-39.84565 30.48865 23.23975
-3.796917 30.09262 33.93592
-4.913564 30.0939 33.93459
-11.59875 30.10106 33.7247
-13.80607 30.10343 33.55634
-17.6161 30.1079 33.12347
-19.21634 30.11002 32.87684
-21.81911 30.11395 32.37536
-22.83338 30.11568 32.14268
-24.8078 30.11948 31.62258
-29.37994 30.13141 30.02628
-30.22698 30.13421 29.66234
-31.04987 30.13709 29.28463
-31.84776 30.14001 28.89358
-36.09927 30.15775 26.30719
-38.53559 30.17246 24.43394
-40.76334 30.19452 22.49565
-42.35647 30.21911 21.01907
-7.163818 29.78269 33.94341
-8.283081 29.784 33.91518
-10.51564 29.78657 33.82176
-16.57959 29.79387 33.29611
-20.31949 29.79932 32.71448
-25.82437 29.81037 31.3483
-26.76252 29.81283 31.0426
-27.67982 29.81546 30.72131
-33.07698 29.8356 28.28714
-34.86066 29.84365 27.20749
-37.13487 29.8558 25.61013
-39.20592 29.87174 23.9444
-41.6641 29.90356 21.74077
-2.686789 29.46428 34.00177
-6.05614 29.46877 33.99444
-9.422787 29.47298 33.90639
-12.76802 29.47706 33.70893
-14.9788 29.47988 33.51159
-18.24517 29.48448 33.1002
-23.94151 29.49497 31.92399
-28.63974 29.50822 30.39308
-33.8917 29.53029 27.86537
-35.61959 29.53902 26.75794
-37.83665 29.55287 25.13347
-40.14283 29.57525 23.20318
-3.815645 29.15424 34.037
-4.941733 29.15581 34.03574
-11.68392 29.16455 33.8168
-13.90959 29.16743 33.64623
-17.20742 29.17203 33.28074
-19.36083 29.17545 32.95216
-20.94161 29.17825 32.65623
-21.97635 29.18026 32.43528
-22.99447 29.18239 32.19583
-24.9764 29.18708 31.66296
-30.0118 29.20363 29.86627
-30.8557 29.20718 29.4931
-31.67498 29.21081 29.10625
-32.46831 29.21447 28.70602
-36.68233 29.23676 26.06635
-38.52483 29.25051 24.64858
-41.05774 29.28112 22.4499
-42.38353 29.30644 21.20451
-1.564043 28.84046 34.06274
-7.210307 28.8485 34.03863
-8.339013 28.85 34.00869
-10.58993 28.85291 33.912
-15.60345 28.85958 33.50817
-25.99256 28.88009 31.37977
-26.93605 28.88294 31.06967
-27.85981 28.88599 30.74484
-33.30991 28.90948 28.29407
-37.39894 28.93305 25.59272
-39.488 28.9518 23.91263
-2.695754 28.53271 34.09472
-6.092296 28.53759 34.08756
-9.486523 28.54212 33.99509
-12.8582 28.54649 33.7938
-14.53125 28.54872 33.64921
-18.37614 28.55442 33.17327
-19.98348 28.55716 32.90077
-24.0971 28.56576 31.96341
-29.26685 28.58203 30.23547
-34.4843 28.60659 27.64713
-36.19704 28.6163 26.51897
-38.10085 28.62965 25.11049
-40.42479 28.65469 23.16332
-41.78094 28.67733 21.91764
-3.833189 28.22592 34.12702
-4.968108 28.22754 34.12597
-11.76352 28.23649 33.89997
-16.22844 28.24247 33.49525
-17.32822 28.24409 33.35448
-21.08259 28.25046 32.71217
-22.12114 28.25253 32.4846
-23.14254 28.25473 32.23844
-25.13104 28.2596 31.69312
-30.20122 28.27698 29.8776
-31.05364 28.28072 29.5024
-31.88142 28.28455 29.11343
-32.68282 28.28842 28.7108
-35.26016 28.30187 27.19814
-36.92951 28.31192 26.04905
-39.08527 28.32939 24.37769
-41.06586 28.35481 22.65164
-42.65945 28.38678 21.14187
-1.564043 27.915 34.14819
-7.253746 27.92297 34.12405
-8.391256 27.92443 34.09288
-10.65936 27.92727 33.99362
-13.47664 27.93079 33.80072
-15.15397 27.93298 33.64352
-18.99927 27.93862 33.12916
-26.62336 27.95539 31.24639
-27.56262 27.95835 30.92512
-28.48282 27.96154 30.59019
-33.90243 27.98561 28.07986
-37.64636 28.00759 25.57011
-39.75402 28.02679 23.87705
-2.704164 27.60991 34.17706
-6.126132 27.61455 34.17063
-9.546081 27.61879 34.07523
-17.95232 27.62944 33.32022
-20.1129 27.63283 32.95651
-24.23996 27.641 31.99337
-29.43838 27.65674 30.24357
-34.70317 27.68072 27.63916
-38.65422 27.70581 24.84151
-40.41024 27.72436 23.36933
-42.05008 27.75082 21.86266
-3.849659 27.30538 34.20655
-4.992847 27.30686 34.2059
-12.40418 27.31554 33.93658
-14.09669 27.3175 33.7998
-16.33391 27.32023 33.56355
-21.21262 27.32744 32.75869
-22.25444 27.32933 32.52456
-23.27867 27.33134 32.27182
-25.7601 27.33706 31.56501
-30.80917 27.35386 29.69443
-31.65761 27.35744 29.31047
-32.48038 27.36108 28.91263
-33.27522 27.36474 28.5008
-35.82338 27.37741 26.95607
-39.33565 27.40169 24.34336
-41.32895 27.42621 22.60328
-42.92046 27.45735 21.07799
-7.294376 27.00389 34.20031
-8.44009 27.00515 34.16852
-11.29348 27.00818 34.03476
-15.24989 27.01246 33.71181
-19.1175 27.01731 33.18451
-26.76731 27.03215 31.25807
-27.7118 27.03482 30.93331
-28.63823 27.03771 30.59563
-34.10571 27.05966 28.07123
-36.57227 27.07192 26.48697
-38.19298 27.08187 25.30296
-40.00371 27.09749 23.83784
-2.712074 26.6934 34.24872
-6.157856 26.69729 34.24368
-10.17382 26.70136 34.1203
-16.95696 26.70821 33.53345
-18.06233 26.70951 33.37726
-20.23255 26.71233 33.00311
-24.86855 26.72028 31.87129
-30.04349 26.73449 30.06357
-35.26269 26.75578 27.3993
-37.30497 26.76607 26.00853
-38.8883 26.77639 24.80769
-40.94079 26.79657 23.07423
-42.30351 26.81732 21.8056
-3.865168 26.38994 34.27448
-5.016119 26.39112 34.27444
-13.04681 26.39844 33.96053
-14.1814 26.39946 33.86422
-15.87237 26.40104 33.68974
-21.85718 26.40809 32.67762
-22.8929 26.40968 32.42762
-23.91063 26.41139 32.15972
-25.89242 26.41525 31.5751
-30.97432 26.4295 29.6895
-31.83037 26.43257 29.3038
-32.66057 26.43569 28.90406
-33.46234 26.43882 28.49004
-36.02749 26.44965 26.93417
-39.5696 26.47063 24.30465
-41.57585 26.49226 22.55193
-43.16605 26.52005 21.01259
-1.564043 26.08305 34.2854
-7.909363 26.08884 34.25068
-9.061727 26.08977 34.21275
-11.93022 26.09199 34.06242
-19.22715 26.09834 33.22908
-27.37685 26.11114 31.09801
-28.31788 26.11341 30.76392
-29.24106 26.11587 30.41745
-34.66757 26.13424 27.83465
-36.77624 26.14298 26.45945
-40.52774 26.16725 23.54422
-2.719546 25.77982 34.30572
-6.766218 25.78305 34.29455
-10.80477 25.78585 34.15048
-14.80255 25.78855 33.84589
-17.05403 25.79025 33.58283
-18.16474 25.79117 33.42241
-20.87764 25.79379 32.92785
-24.99103 25.79922 31.87878
-30.1933 25.81042 30.05376
-35.45249 25.82753 27.37518
-37.83684 25.83734 25.73686
-41.17424 25.86096 23.02375
-42.8041 25.88258 21.48712
-4.458881 25.47676 34.32791
-5.617592 25.47754 34.32453
-13.11965 25.48194 34.01484
-15.96158 25.48364 33.73837
-21.96947 25.48849 32.69847
-23.00756 25.48963 32.44234
-24.02755 25.49088 32.16859
-26.50103 25.49453 31.41651
-31.56188 25.5058 29.48271
-32.41224 25.50821 29.08837
-33.23521 25.51064 28.6797
-34.02764 25.51306 28.25622
-36.21658 25.52027 26.90407
-38.54704 25.52975 25.24122
-40.08726 25.53885 24.0115
-42.07989 25.55746 22.24015
-1.564043 25.17051 34.33132
-8.528776 25.17442 34.28447
-9.687142 25.17497 34.2407
-11.99471 25.17602 34.11392
-18.78106 25.17958 33.35564
-19.87304 25.18033 33.15963
-27.50229 25.18882 31.08791
-28.4484 25.19048 30.75123
-29.37737 25.19229 30.40265
-37.30312 25.21367 26.18743
-39.24256 25.22179 24.73777
-40.74665 25.23109 23.49341
-3.307928 24.86721 34.34962
-7.379744 24.86902 34.32891
-10.86104 24.87032 34.19863
-13.73954 24.87135 33.99719
-14.88234 24.87179 33.88957
-17.14498 24.87274 33.61974
-20.9819 24.87487 32.94647
-25.60028 24.87894 31.7228
-30.78072 24.88705 29.84844
-38.02849 24.90541 25.69526
-41.67295 24.92517 22.7132
-43.28454 24.9426 21.16054
-5.059003 24.56333 34.36499
-6.224958 24.56372 34.35856
-16.04559 24.56651 33.77555
-22.59617 24.56953 32.57875
-23.62734 24.57025 32.30802
-24.64071 24.57105 32.02081
-26.61686 24.57294 31.40335
-31.70734 24.58043 29.4579
-32.56388 24.58206 29.06199
-33.39276 24.58371 28.6516
-34.19056 24.58535 28.22611
-34.95415 24.58698 27.78513
-36.73956 24.59108 26.632
-38.73885 24.59675 25.1952
-42.56539 24.61889 21.91998
-2.14763 24.25762 34.36366
-8.569321 24.25922 34.32388
-9.734522 24.25944 34.28159
-12.63387 24.25997 34.11515
-17.76338 24.26111 33.55743
-18.87456 24.26144 33.37849
-19.96979 24.26181 33.17698
-28.09721 24.26716 30.901
-29.04003 24.26822 30.55627
-29.96523 24.2694 30.19969
-35.73791 24.27885 27.31669
-37.48032 24.2824 26.14381
-39.74554 24.28878 24.4402
-41.24008 24.2954 23.18387
-3.902807 23.95306 34.38009
-7.41301 23.95363 34.36288
-11.49548 23.95412 34.20463
-13.80937 23.95439 34.03443
-14.95805 23.95454 33.92434
-16.66627 23.95479 33.72392
-21.61156 23.95599 32.83424
-25.70823 23.95789 31.70841
-30.91413 23.96249 29.82068
-38.2058 23.97334 25.64766
-40.41841 23.97926 23.92258
-42.15412 23.98711 22.39465
-43.4892 23.99664 21.09065
-5.079032 23.64776 34.39034
-6.251376 23.64787 34.38649
-22.69475 23.64967 32.57646
-23.72814 23.64999 32.30055
-24.7439 23.65036 32.00864
-27.21222 23.65154 31.21991
-31.84353 23.65515 29.42678
-32.7054 23.65602 29.0292
-33.53938 23.6569 28.61703
-34.34185 23.65778 28.18956
-35.10946 23.65864 27.74631
-39.23715 23.66453 24.8985
-42.76485 23.67648 21.85383
-2.737838 23.34168 34.38612
-9.194016 23.34199 34.33709
-10.36454 23.34201 34.2899
-12.69555 23.34205 34.15039
-15.57997 23.34213 33.88141
-17.84807 23.34225 33.57803
-19.51385 23.34239 33.29318
-20.60296 23.34251 33.07461
-28.21095 23.34456 30.87596
-29.15843 23.34504 30.52911
-30.08856 23.34557 30.17064
-36.25067 23.35026 27.04097
-39.92477 23.35466 24.3846
-41.71697 23.35874 22.86693
-3.915941 23.0354 34.39743
-8.032722 23.03547 34.37836
-11.54989 23.03546 34.23904
-13.87636 23.03546 34.06692
-16.74574 23.03549 33.74777
-21.70416 23.03574 32.83379
-26.30548 23.03642 31.53052
-31.04036 23.03796 29.78886
-37.00653 23.0411 26.55491
-38.70045 23.04231 25.35249
-40.89817 23.0448 23.6111
-42.34157 23.04753 22.32921
-43.67853 23.05143 21.01853
-1.564043 22.72845 34.39151
-5.098429 22.72849 34.40683
-6.276816 22.7285 34.40646
-18.46255 22.72849 33.49852
-22.78799 22.72863 32.5696
-24.33507 22.72874 32.14272
-25.34515 22.72882 31.83949
-27.31889 22.72905 31.19595
-31.97233 22.72993 29.39243
-32.83859 22.73015 28.99293
-33.67674 22.73037 28.57877
-34.87312 22.7307 27.92838
-35.62609 22.73092 27.47515
-37.74721 22.7316 26.06112
-39.40305 22.73231 24.84271
-42.94877 22.73549 21.78507
-2.744306 22.42093 34.39812
-9.82294 22.42101 34.34579
-12.75518 22.42103 34.1836
-14.49968 22.42105 34.03292
-19.59888 22.42111 33.30191
-20.69025 22.42113 33.07759
-28.32069 22.4213 30.84954
-29.27247 22.42133 30.50052
-40.09008 22.4219 24.32596
25.86081 -68.00377 24.90749
25.87333 -66.14149 25.23152
25.93639 -35.26881 29.45113
25.95107 -31.47072 29.94272
25.95459 -29.55845 30.08995
25.95501 -27.63752 30.13993
26.26299 -66.89158 24.88943
26.40616 -34.52319 29.43592
26.41569 -33.38433 29.59854
26.42383 -32.24424 29.74241
26.43189 -30.71892 29.89787
26.43671 -28.80219 30.01776
26.43508 -26.8827 30.02959
26.62738 -68.03988 24.42326
26.67519 -65.78813 24.84906
26.86129 -35.29823 29.18495
26.90406 -31.49529 29.70615
26.9134 -29.96545 29.84377
26.91676 -27.6608 29.93752
27.04006 -66.95881 24.4189
27.15553 -51.05454 26.43684
27.15565 -50.19114 26.57212
27.15655 -48.90778 26.77542
27.33564 -34.5539 29.17043
27.35389 -33.41326 29.34137
27.36957 -32.27143 29.49402
27.38533 -30.7441 29.66203
27.39419 -29.20981 29.77934
27.39329 -26.90386 29.83124
27.4615 -65.8838 24.39147
27.48756 -64.98776 24.53679
27.63591 -42.31733 27.68752
27.78238 -35.33183 28.90942
27.85083 -31.52237 29.45823
27.86627 -29.98995 29.60908
27.873 -27.6813 29.72613
28.00223 -51.43549 26.04044
28.00296 -50.15556 26.24314
28.00468 -48.88772 26.44669
28.08584 -41.53846 27.66778
28.11211 -40.35744 27.87596
28.25999 -34.58738 28.89479
28.28625 -33.4446 29.07334
28.30897 -32.30045 29.23437
28.33214 -30.76989 29.41489
28.34576 -29.23225 29.54659
28.34666 -26.92027 29.62486
28.1892 -66.80335 23.74639
28.2539 -65.52473 24.00695
28.28999 -64.65305 24.15597
28.43161 -48.0437 26.41859
28.47199 -43.94843 27.09597
28.49489 -42.74582 27.30214
28.57266 -39.595 27.8617
28.68692 -35.74865 28.55783
28.7907 -31.54948 29.19893
28.81236 -30.0132 29.36333
28.82289 -28.47035 29.47417
28.84926 -51.38273 25.71228
28.85079 -50.12016 25.91493
28.85341 -48.86773 26.11855
28.86036 -47.21332 26.39049
28.87052 -45.98428 26.5942
28.88704 -44.76574 26.7977
28.94613 -41.9665 27.28185
28.97821 -40.78496 27.49329
29.03799 -38.83773 27.84883
29.07635 -37.68111 28.06233
29.11526 -36.53095 28.27311
29.16567 -35.00269 28.54374
29.20065 -33.85758 28.73398
29.23172 -32.71133 28.90899
29.27162 -30.79397 29.15634
29.29054 -29.25171 29.30304
29.2968 -27.70422 29.39155
28.93063 -66.8214 23.25874
29.01769 -65.5923 23.53813
29.18783 -61.72764 24.15006
29.26438 -55.17799 24.96313
29.28024 -48.03303 26.08999
29.32955 -43.9707 26.77195
29.35739 -42.7741 26.98073
29.43899 -40.02082 27.47732
29.59245 -35.78359 28.26023
29.71331 -31.95825 28.87672
29.75067 -30.03318 29.10612
29.76592 -28.48488 29.23382
29.46655 -64.58464 23.50871
29.53451 -63.31788 23.72381
29.62509 -60.73539 24.07766
29.64418 -59.86754 24.18268
29.65886 -58.99915 24.28642
29.66958 -58.13173 24.39207
29.67695 -57.26669 24.5018
29.69581 -51.3317 25.38336
29.69756 -50.08593 25.58568
29.70045 -48.84841 25.78898
29.70824 -47.21091 26.06088
29.71989 -45.99241 26.2652
29.7391 -44.78264 26.47007
29.80854 -41.99716 26.95915
29.84647 -40.81886 27.17331
29.90268 -39.26118 27.46182
29.94791 -38.10204 27.6792
29.99452 -36.94918 27.89542
30.07101 -35.03491 28.2442
30.11359 -33.8871 28.44069
30.1518 -32.73772 28.6231
30.1935 -31.20005 28.83804
30.22722 -29.26663 29.04806
30.23805 -27.7127 29.15576
29.70367 -66.43133 22.87331
29.9843 -62.32657 23.66798
30.10633 -56.3386 24.4504
30.11211 -55.06741 24.63271
30.11617 -53.80566 24.82281
30.11843 -52.55243 25.0188
30.12587 -48.02287 25.75888
30.17975 -43.99184 26.44247
30.21145 -42.80093 26.65286
30.30562 -40.05494 27.15474
30.46937 -36.19888 27.88051
30.63197 -31.98027 28.59027
30.6717 -30.43588 28.79283
30.70105 -28.49381 28.98231
30.70724 -26.93559 29.0694
30.17331 -65.45951 22.87655
30.27443 -64.25692 23.13236
30.43452 -61.35305 23.60872
30.47545 -60.08547 23.77959
30.50361 -58.81303 23.94337
30.52108 -57.54079 24.10965
30.54221 -51.69466 24.9867
30.54242 -50.46273 25.18741
30.54341 -49.23726 25.3892
30.55074 -47.20864 25.72732
30.56246 -46.00005 25.9313
30.58309 -44.79853 26.13657
30.66038 -42.02585 26.62835
30.70333 -40.85048 26.84435
30.76759 -39.29461 27.13601
30.81973 -38.13541 27.35633
30.87381 -36.98146 27.5761
30.94587 -35.44699 27.86282
30.99752 -34.29652 28.06879
31.0451 -33.14451 28.26313
31.11089 -31.21691 28.55175
31.14785 -29.6651 28.74109
31.17212 -27.71452 28.90914
30.73715 -63.29074 23.09667
30.94948 -56.62736 24.05704
30.9564 -55.37703 24.23917
30.96076 -54.13441 24.42811
30.96272 -52.89852 24.62234
30.96387 -48.41712 25.35591
31.02096 -44.0115 26.10598
31.0558 -42.82577 26.31717
31.1611 -40.08608 26.82253
31.34806 -36.22757 27.55827
31.5248 -32.38293 28.23215
31.58832 -30.44643 28.50766
31.62197 -28.88692 28.68304
30.87036 -65.86801 22.29918
31.00185 -64.72585 22.58425
31.19574 -62.34083 23.0511
31.26079 -61.11631 23.24629
31.30801 -59.87946 23.4253
31.3405 -58.63602 23.59665
31.36061 -57.39086 23.76903
31.38137 -52.0504 24.58614
31.38017 -50.83258 24.78504
31.37923 -49.61945 24.98506
31.3826 -47.60746 25.32043
31.39143 -46.40633 25.52314
31.40965 -45.21042 25.7275
31.50229 -42.05168 26.28927
31.54986 -40.87866 26.50647
31.62165 -39.32388 26.80045
31.68035 -38.16413 27.02312
31.74165 -37.00862 27.24589
31.82402 -35.47082 27.53795
31.88364 -34.31712 27.74918
31.93917 -33.16137 27.95013
32.00369 -31.61465 28.19641
32.064 -29.66829 28.45806
32.09398 -28.10097 28.61903
31.47526 -63.79165 22.56286
31.78601 -56.49862 23.71659
31.79343 -55.27134 23.90146
31.79748 -54.0497 24.09154
31.79846 -52.83279 24.28568
31.79342 -48.80529 24.94744
31.84083 -44.42408 25.69207
31.87571 -43.24089 25.90221
32.00483 -40.11279 26.48074
32.21444 -36.25001 27.22483
32.41807 -32.39314 27.91832
32.48118 -30.8389 28.156
32.53787 -28.88214 28.40322
32.56398 -27.30761 28.54962
31.64151 -65.51205 21.91305
31.94651 -62.86924 22.53116
32.03499 -61.6888 22.74787
32.10133 -60.49036 22.94441
32.14869 -59.27999 23.12745
32.18029 -58.06291 23.30496
32.21212 -51.99844 24.246
32.20881 -50.79584 24.44335
32.20569 -49.5961 24.64158
32.20498 -48.00062 24.90726
32.21015 -46.80718 25.10802
32.22459 -45.61712 25.31075
32.31528 -42.46559 25.86885
32.36475 -41.29265 26.08553
32.46181 -39.34823 26.45423
32.52696 -38.18738 26.67884
32.59549 -37.0298 26.90423
32.68837 -35.48805 27.2012
32.75629 -34.33069 27.41746
32.82027 -33.17081 27.62485
32.89599 -31.61795 27.88229
32.95706 -30.05531 28.11104
33.01001 -28.08791 28.34352
32.13444 -64.61515 21.91674
32.60909 -57.183 23.25036
32.62091 -55.97612 23.43444
32.62641 -54.77214 23.6227
32.62674 -52.77233 23.94361
32.61283 -48.7907 24.59903
32.64669 -44.83185 25.26955
32.68016 -43.65141 25.47783
32.81276 -40.5239 26.05396
33.06545 -36.26633 26.87919
33.29782 -32.39598 27.59177
33.37264 -30.83511 27.84225
33.43149 -29.26361 28.06179
33.48066 -27.28596 28.27959
32.62487 -63.72651 21.90645
32.75046 -62.60376 22.15428
32.8484 -61.45519 22.37717
32.92169 -60.2871 22.58054
32.97375 -59.10533 22.77037
33.00808 -57.91493 22.95376
33.03934 -53.53787 23.64144
33.03378 -51.95131 23.89978
33.02722 -50.76274 24.09497
33.02082 -49.57521 24.29079
33.01614 -47.99329 24.5533
33.01906 -46.80807 24.75196
33.03239 -45.62469 24.95313
33.11103 -42.87508 25.43817
33.16124 -41.70242 25.65355
33.2628 -39.75581 26.02152
33.33258 -38.59232 26.24681
33.40732 -37.43162 26.4743
33.5368 -35.49888 26.85182
33.61353 -34.33752 27.07294
33.68664 -33.17319 27.28664
33.77472 -31.61384 27.55515
33.84808 -30.04411 27.79847
33.90474 -28.46347 28.00868
33.43305 -57.05724 22.89964
33.44462 -55.87279 23.08635
33.44863 -54.68897 23.2755
33.44444 -52.71796 23.59495
33.41873 -48.77791 24.24227
33.44655 -44.84211 24.90618
33.48105 -43.66543 25.11354
33.60133 -40.93079 25.61563
33.87265 -36.66327 26.44488
34.16304 -32.39141 27.25212
34.25081 -30.82365 27.51525
34.3226 -29.24469 27.75125
34.37705 -27.655 27.95224
33.30042 -64.15459 21.33861
33.45846 -63.0861 21.60916
33.58496 -61.98557 21.85295
33.68215 -60.86004 22.07461
33.75346 -59.71536 22.27902
33.80272 -58.55694 22.47184
33.85203 -53.4764 23.28975
33.84189 -51.90964 23.54562
33.83151 -50.73372 23.73825
33.82131 -49.55707 23.93129
33.81119 -47.59431 24.25528
33.81474 -46.41614 24.45237
33.90498 -42.8891 25.06809
33.95825 -41.71754 25.28308
34.04387 -40.15914 25.57689
34.11749 -38.99309 25.80206
34.19768 -37.82917 26.03056
34.34006 -35.89077 26.41366
34.42654 -34.72599 26.64084
34.51068 -33.55825 26.86291
34.6392 -31.6021 27.21467
34.72611 -30.02522 27.4723
34.79639 -28.4368 27.70098
34.84935 -26.83914 27.89347
34.22727 -57.71578 22.41581
34.24757 -56.55535 22.60453
34.25518 -55.3911 22.79373
34.25537 -54.22574 22.98365
34.24691 -52.66975 23.2378
34.2061 -48.37566 23.94055
34.21412 -45.63379 24.39812
34.24056 -44.45909 24.60078
34.39291 -40.94381 25.23965
34.65812 -37.05612 25.99621
34.98567 -32.77171 26.82737
35.11481 -30.80504 27.17444
35.20072 -29.21876 27.4265
35.2695 -27.62106 27.64807
34.12036 -63.53001 21.04027
34.27929 -62.48065 21.30495
34.4047 -61.40076 21.54577
34.49967 -60.29642 21.76685
34.56792 -59.17319 21.97258
34.6479 -53.42106 22.92911
34.62888 -51.48463 23.24573
34.61465 -50.31936 23.43576
34.60147 -49.15168 23.62614
34.58935 -47.20036 23.9464
34.6521 -43.68154 24.54776
34.70061 -42.50971 24.75857
34.83085 -40.16953 25.1956
34.91021 -39.00148 25.42127
34.99725 -37.83473 25.65094
35.12139 -36.27931 25.96048
35.21703 -35.11102 26.19218
35.31182 -33.93985 26.42092
35.46081 -31.97833 26.78927
35.58969 -30.00039 27.13157
35.67465 -28.40461 27.37812
35.74267 -26.79877 27.59347
34.99102 -58.34943 21.91605
35.02465 -57.21641 22.11025
35.04084 -56.07494 22.30172
35.04334 -54.1626 22.61883
35.0272 -52.2407 22.9343
34.97605 -47.97913 23.62802
34.97428 -46.41956 23.8852
34.98975 -45.2482 24.08274
35.12439 -41.73384 24.70771
35.45494 -37.05726 25.61185
35.78477 -33.14967 26.38307
35.93551 -31.1781 26.74866
36.06373 -29.18862 27.08615
36.14772 -27.58367 27.3275
35.12279 -61.55556 21.07324
35.23543 -60.48581 21.30582
35.3182 -59.39393 21.5219
35.43131 -55.27326 22.24262
35.4211 -52.98797 22.62172
35.39591 -51.06978 22.93492
35.37882 -49.91324 23.12237
35.36377 -48.75268 23.31026
35.38817 -44.47058 24.02223
35.42976 -43.29965 24.22798
35.55182 -40.95731 24.6562
35.62998 -39.78659 24.87849
35.71787 -38.6164 25.10577
35.91549 -36.27607 25.57139
36.01977 -35.10354 25.80584
36.1239 -33.92787 26.03862
36.25774 -32.35359 26.34278
36.40905 -30.37139 26.70554
36.53661 -28.37054 27.03833
36.62047 -26.75779 27.27553
35.73592 -58.59045 21.4651
35.7801 -57.48308 21.66592
35.80407 -56.36414 21.8614
35.80888 -53.72565 22.30732
35.78706 -51.82268 22.62015
35.72777 -46.81032 23.43218
35.73684 -45.64301 23.62592
35.84181 -42.52272 24.16964
36.16696 -37.83643 25.05984
36.59412 -33.13368 25.99691
36.72981 -31.55192 26.29997
36.88097 -29.55907 26.65986
37.00794 -27.54758 26.98836
36.03475 -59.60855 21.05553
36.18642 -55.57614 21.79864
36.1886 -54.45304 21.99017
36.17337 -52.56697 22.30404
36.1376 -50.28098 22.67537
36.11961 -49.12946 22.86047
36.1026 -47.58568 23.10908
36.12489 -44.8664 23.55904
36.16269 -43.69704 23.761
36.25778 -41.74494 24.11055
36.3322 -40.57252 24.32804
36.41824 -39.39974 24.55124
36.61922 -37.05345 25.0128
36.72939 -35.87858 25.24844
36.84212 -34.70111 25.48487
37.06366 -32.33458 25.95271
37.20011 -30.74515 26.25459
37.35099 -28.74214 26.61171
37.47837 -26.72184 26.93715
36.48724 -58.10677 21.13879
36.52937 -57.01487 21.34213
36.55239 -53.3019 21.9857
36.52078 -51.03437 22.35722
36.46982 -46.42317 23.09931
36.56602 -42.91968 23.69629
36.85735 -38.61768 24.49773
37.30657 -33.90712 25.43838
37.53176 -31.53083 25.90604
37.66821 -29.93395 26.20674
37.81897 -27.92167 26.56141
36.91189 -55.87433 21.34221
36.9212 -54.02678 21.66393
36.89858 -51.77964 22.0376
36.86102 -49.50234 22.40434
36.84487 -48.35323 22.5877
36.83529 -47.19752 22.77282
36.85048 -45.25993 23.09015
36.88383 -44.09254 23.28803
36.97394 -42.14098 23.63091
37.04681 -40.96742 23.8446
37.13249 -39.79263 24.06435
37.3003 -37.83291 24.44345
37.41282 -36.65578 24.6773
37.53069 -35.47663 24.91402
37.77058 -33.10888 25.38963
37.9976 -30.72293 25.85695
38.13392 -29.11923 26.15656
38.28492 -27.09923 26.50958
37.26816 -52.51608 21.71553
37.23472 -50.25699 22.08274
37.20106 -46.03752 22.75814
37.27897 -43.31511 23.21729
37.56448 -39.00822 24.00432
37.98816 -34.68245 24.86176
38.23318 -32.30676 25.33854
38.46066 -29.91174 25.80551
38.59709 -28.30214 26.10429
37.62013 -55.07978 21.07032
37.62637 -53.24295 21.38996
37.60248 -51.00389 21.75971
37.57455 -49.11159 22.06237
37.56145 -47.96529 22.24425
37.55639 -46.81139 22.42824
37.58334 -44.87512 22.74488
37.67907 -42.53592 23.1458
37.74927 -41.36156 23.35512
37.8331 -40.18507 23.57061
38.00019 -38.22113 23.9434
38.1143 -37.04131 24.17457
38.23552 -35.85973 24.40985
38.44525 -33.8847 24.80728
38.69334 -31.5014 25.28504
38.92072 -29.09843 25.75186
39.05761 -27.48422 26.05039
37.9614 -51.74233 21.43433
37.93772 -49.86536 21.73756
37.92319 -45.65263 22.40919
37.98178 -43.7093 22.73336
38.25733 -39.39882 23.50383
38.68597 -35.06431 24.35132
38.90072 -33.08391 24.75045
39.15009 -30.69368 25.22916
39.37767 -28.28431 25.69624
39.51655 -26.66768 25.99603
38.30821 -52.47156 21.10564
38.2702 -48.34374 21.77185
38.26474 -47.19612 21.95316
38.30777 -44.48998 22.39177
38.37372 -42.93016 22.65565
38.44051 -41.75543 22.86022
38.52132 -40.5776 23.07086
38.68481 -38.60993 23.43586
38.79831 -37.42756 23.66305
38.9205 -36.24371 23.89532
39.13556 -34.26603 24.29047
39.35346 -32.28074 24.69117
39.60295 -29.88469 25.17098
39.8315 -27.47093 25.63914
38.63102 -50.22949 21.26377
38.62178 -49.10006 21.44355
38.62155 -46.04152 21.92728
38.93708 -39.79002 22.99703
39.36275 -35.44737 23.82988
39.58309 -33.46539 24.22716
39.80255 -31.47594 24.6294
40.05187 -29.07562 25.11064
40.28349 -26.66039 25.58175
38.95755 -47.57792 21.47232
38.99598 -44.88165 21.90248
39.03978 -43.71432 22.09509
39.09824 -42.54137 22.29292
39.17075 -41.36387 22.49638
39.3557 -38.99973 22.92169
39.4666 -37.81496 23.14385
39.58752 -36.62891 23.37182
39.8038 -34.64866 23.76197
40.02746 -32.66305 24.1613
40.24716 -30.67041 24.56519
40.49693 -28.26769 25.0484
39.29631 -48.33748 21.14023
39.30616 -46.42824 21.43987
39.57465 -40.57635 22.41443
40.02069 -35.8317 23.2989
40.24238 -33.84811 23.69146
40.46766 -31.85977 24.09285
40.68688 -29.86524 24.49859
40.93821 -27.46233 24.98471
39.67106 -45.27188 21.40767
39.71289 -44.10698 21.59605
39.76851 -42.93512 21.78913
39.83739 -41.75755 21.98737
39.98096 -39.78585 22.33062
40.08372 -38.59938 22.54488
40.19802 -37.41154 22.76552
40.45192 -35.03244 23.22329
40.67697 -33.04631 23.6182
40.9025 -31.05636 24.02174
41.12147 -29.0615 24.42972
40.23184 -40.96952 21.89795
40.61904 -36.61403 22.68398
40.87989 -34.23176 23.14489
41.10648 -32.24413 23.54222
41.33129 -30.25389 23.9481
41.551 -28.26047 24.35889
41.68122 -27.06308 24.60681
40.35681 -44.88698 21.02941
40.40679 -43.71956 21.21651
40.46872 -42.54467 21.40798
40.62831 -40.17853 21.80648
40.72594 -38.99025 22.01458
40.83515 -37.80028 22.22905
41.03832 -35.81494 22.59987
41.30354 -33.43057 23.06382
41.53018 -31.44264 23.46365
41.75409 -29.45362 23.87219
40.85071 -41.75824 21.31059
41.24466 -37.00221 22.13933
41.45383 -35.01468 22.51287
41.72105 -32.62951 22.97993
41.94659 -30.64259 23.38241
42.17041 -28.65642 23.79408
42.30499 -27.46521 24.04473
41.23314 -40.96828 21.21054
41.32159 -39.77969 21.41037
41.42099 -38.58836 21.6162
41.65031 -36.20242 22.04656
41.8632 -34.21362 22.42266
42.13051 -31.82912 22.893
42.35465 -29.84471 23.29845
42.71825 -26.67645 23.96885
41.81326 -37.78962 21.51668
42.04964 -35.4012 21.95031
42.26424 -33.41223 22.32904
42.53033 -31.03003 22.80291
42.754 -29.04976 23.21186
42.89037 -27.86402 23.46279
42.023 -38.9803 21.06816
42.19966 -36.9888 21.41371
42.44043 -34.59905 21.85039
42.6552 -32.61121 22.23199
42.91975 -30.23309 22.7098
43.28473 -27.07779 23.3778
42.57783 -36.18635 21.30697
42.82086 -33.79669 21.74681
43.03498 -31.81138 22.13161
43.29905 -29.43927 22.614
43.43535 -28.25806 22.8633
42.94581 -35.38287 21.19634
43.18961 -32.99492 21.63973
43.403 -31.01361 22.02812
43.80945 -27.47357 22.76909
43.30248 -34.57912 21.08194
43.54639 -32.1946 21.52941
43.75983 -30.21886 21.92189
43.93852 -28.64721 22.24861
43.68709 -33.3783 21.03759
43.8917 -31.39665 21.41621
44.10716 -29.42803 21.81344
44.54149 -27.86265 21.87034
44.46691 -30.59663 21.02517
44.68668 -28.63907 21.42577
44.93458 -26.70079 21.8504
45.2335 -27.85774 21.02672
-1.564043 -85.99275 23.94476
-1.564043 -84.6402 28.40366
-1.564043 -80.57487 32.04359
-1.564043 -77.78259 33.06003
-1.260968 -87.33149 21.24282
-1.250705 -84.96274 27.38886
-1.228121 -82.17315 31.166
-1.223688 -81.31807 31.67759
-1.2133 -78.87283 32.71851
-1.205655 -76.40637 33.37173
-0.9603379 -86.88933 22.02822
-0.960054 -86.29715 23.22955
-0.9558131 -85.75297 24.55645
-0.950633 -85.41915 25.55089
-0.9439056 -85.14751 26.56112
-0.9036391 -83.13262 30.40605
-0.8705123 -79.92675 32.31747
-0.8521522 -77.28688 33.18264
-0.6142725 -84.74509 28.11909
-0.599715 -84.28756 29.03963
-0.5336 -80.70112 31.97299
-0.5039559 -78.13936 32.9447
-0.484923 -75.84739 33.45191
-0.3515787 -87.20081 21.44546
-0.3523708 -86.03285 23.81587
-0.3121402 -84.96632 27.31627
-0.262461 -83.79885 29.68762
-0.231218 -82.66822 30.78216
-0.2129983 -81.87535 31.33638
-0.1656531 -79.22895 32.57091
-0.1347668 -76.75041 33.28345
-0.0531978 -86.58335 22.58796
-0.0423234 -85.7277 24.57718
-0.03044701 -85.40511 25.53784
-0.01482018 -85.14042 26.51216
0.1676798 -80.02802 32.24497
0.2095133 -77.6276 33.06523
0.2390349 -75.24905 33.50729
0.3317627 -84.75003 28.01761
0.3600414 -84.32055 28.92203
0.4045975 -83.3951 30.09132
0.479689 -81.27313 31.64713
0.5475224 -78.47419 32.79914
0.5859321 -76.17056 33.35854
0.5663123 -87.32354 21.18008
0.5559734 -86.8833 21.96411
0.5551608 -86.2193 23.31452
0.7620879 -82.74371 30.66102
0.8777652 -79.29769 32.49351
0.9260714 -77.07091 33.16144
0.8672299 -85.82582 24.2204
0.8818206 -85.49367 25.14014
0.9023263 -85.2116 26.07558
0.9283157 -84.98372 27.01525
1.028829 -83.85076 29.51467
1.127894 -81.98339 31.18417
1.18156 -80.60035 31.92915
1.259286 -77.94075 32.91451
1.161674 -86.49883 22.6524
1.272218 -84.72943 27.90336
1.312765 -84.32338 28.79038
1.388295 -83.27667 30.1113
1.549417 -79.85213 32.22303
1.584674 -78.78063 32.62166
1.643341 -76.46709 33.22912
1.662373 -75.53669 33.3782
1.487326 -87.35263 21.04492
1.471297 -86.90023 21.84106
1.468788 -86.07776 23.52068
1.756657 -82.60218 30.66964
1.824649 -81.35042 31.48823
1.970971 -77.36026 33.00389
1.784088 -85.69568 24.40196
1.802818 -85.38043 25.29393
1.82906 -85.11338 26.19614
1.862573 -84.89351 27.10112
1.985658 -83.84895 29.36618
2.204903 -80.38249 31.92268
2.250504 -79.33107 32.35358
2.290435 -78.22073 32.72953
2.075499 -86.33724 22.84992
2.21377 -84.61807 27.95055
2.352306 -83.27829 29.95631
2.446522 -82.02222 30.99629
2.679843 -76.73001 33.0622
2.706178 -75.79418 33.22694
2.401422 -87.18339 21.21038
2.385465 -86.72817 22.02541
2.384031 -85.92311 23.70279
2.578089 -84.1722 28.75939
2.828451 -81.12387 31.47023
2.897935 -79.8585 32.05518
2.94844 -78.76432 32.46414
2.992204 -77.61312 32.81038
2.700952 -85.54921 24.55465
2.722238 -85.2476 25.41723
2.752364 -84.99152 26.28642
2.79151 -84.77448 27.1583
3.031209 -82.77143 30.30625
2.990483 -86.16085 23.02594
3.147428 -84.47149 27.97215
3.253055 -83.65898 29.30419
3.412817 -82.00057 30.83127
3.586336 -79.28785 32.16866
3.639737 -78.15127 32.54981
3.687227 -76.95398 32.85737
3.720708 -76.01407 33.03528
3.752192 -75.04846 33.17284
3.3156 -86.99652 21.36733
3.300654 -86.53957 22.19467
3.299204 -85.75267 23.85773
3.798181 -81.08778 31.30579
3.864988 -80.07747 31.78758
3.61602 -85.38501 24.67778
3.63814 -85.09395 25.51034
3.670188 -84.84518 26.34743
3.713016 -84.62568 27.18849
3.809162 -84.06238 28.52814
3.919747 -83.19104 29.65861
3.990456 -82.54042 30.27399
3.905143 -85.9697 23.17873
4.374777 -81.72699 30.78604
4.537799 -79.48312 31.89296
4.586379 -78.63317 32.19824
4.629628 -77.74816 32.46347
4.669844 -76.82711 32.68243
