4.47153 17.2851 -0.477558
4.53447 17.2628 -0.465666
4.4651 17.2246 -0.46781
1.56983 15.9698 -0.794538
1.58976 15.976 -0.805503
1.55341 15.947 -0.810182
1.5319 15.9396 -0.801171
1.53981 15.9476 -0.766232
1.62793 16.0189 -0.785445
1.61977 16.0072 -0.797863
1.59384 15.9897 -0.790607
1.6079 16.0031 -0.762468
1.99023 15.4558 -1.1828
1.97401 15.4699 -1.15869
1.96753 15.4827 -1.13806
1.89048 15.498 -1.11509
1.92381 15.5061 -1.10421
1.95899 15.5451 -1.05533
1.989 15.529 -1.07525
1.96751 15.5148 -1.09299
3.889 16.1726 -0.437271
3.86346 16.0989 -0.434759
3.82981 16.1529 -0.458384
3.91313 16.1139 -0.417472
3.94574 16.1568 -0.412592
0.413249 15.46 -0.541093
0.480793 15.4744 -0.480128
1.27922 15.5037 -1.1075
1.29405 15.52 -1.0867
1.30709 15.5044 -1.10615
1.31465 15.5166 -1.09012
1.33102 15.5321 -1.07082
1.33473 15.5149 -1.09225
1.30311 15.49 -1.12692
1.32906 15.4865 -1.1321
1.29833 15.5396 -1.06374
3.66731 17.6445 -0.503746
3.69624 17.648 -0.510954
3.64809 17.6319 -0.513034
3.61978 17.6288 -0.498351
3.60334 17.6156 -0.514989
3.64857 17.6384 -0.490198
3.4004 16.357 -0.731213
3.41838 16.3208 -0.712684
3.42881 16.3663 -0.714029
1.70203 16.0835 -0.756802
1.71264 16.0966 -0.737706
1.6826 16.071 -0.709411
1.69617 16.0839 -0.690947
1.75943 16.1415 -0.762776
1.72552 16.1051 -0.768917
1.73997 16.1241 -0.738069
0.942332 15.6193 -0.115479
1.31579 15.7923 -0.737137
1.32041 15.7959 -0.720719
1.37327 15.8304 -0.712965
3.31675 16.3518 -0.742374
3.42259 16.4002 -0.723597
3.39536 16.3792 -0.734062
0.18669 15.4334 -0.516156
0.251885 15.4398 -0.506438
1.20134 15.7424 -0.122644
1.1427 15.7116 -0.0885512
1.18331 15.7329 -0.0656868
1.23234 15.7599 -0.0870302
1.14942 15.7153 -0.0483242
1.18375 15.7332 -0.0312549
0.288314 15.3867 -1.35381
0.299097 15.3782 -1.38866
0.329765 15.373 -1.41906
4.51882 17.4206 -0.494897
4.46134 17.4511 -0.508084
4.50184 17.4608 -0.504222
3.14905 15.9151 -0.82302
3.13627 15.909 -0.824704
3.12088 15.9016 -0.827265
3.11297 15.9386 -0.817086
2.30562 15.522 -1.08343
2.3 15.5005 -1.11328
2.32379 15.5065 -1.10415
2.34923 15.5127 -1.09614
2.3436 15.4912 -1.12599
2.30717 15.4839 -1.13958
2.31765 15.5457 -1.05606
2.34329 15.5508 -1.05006
2.33271 15.5285 -1.07654
0.480421 15.4375 -1.16856
0.441064 15.4331 -1.12956
0.405701 15.423 -1.18244
0.425331 15.4243 -1.20717
0.411182 15.4208 -1.22471
2.28535 16.7533 -0.246752
2.34652 16.8155 -0.301408
2.39437 16.8616 -0.348605
3.37729 16.2325 -0.725385
3.33592 16.2267 -0.753582
3.30956 16.2048 -0.764605
3.34311 16.1931 -0.742976
3.31523 16.1827 -0.761328
3.30265 16.2265 -0.764359
3.25106 16.2155 -0.766396
4.36639 17.8191 -0.0100361
4.34237 17.8105 -0.00336839
4.39106 17.8168 -0.00334538
4.42385 17.8276 -0.0203347
4.43968 17.8229 -0.00331121
4.37789 17.8218 -0.0435897
1.58507 16.0016 -0.123488
1.53929 15.9655 -0.0596908
1.57028 15.9902 -0.0547053
1.62187 16.0326 -0.0854272
1.51169 15.9443 -0.0156112
1.55567 15.9803 -0.032915
4.19237 17.2368 -0.525033
4.22718 17.2041 -0.510422
4.2699 17.1575 -0.492401
4.27338 17.2135 -0.501547
4.31659 17.1789 -0.486094
3.87449 17.0642 -0.600789
3.90605 17.078 -0.590883
4.0473 16.8185 -0.493627
1.71692 16.118 -0.0832511
1.71065 16.1116 -0.13269
1.67556 16.0797 -0.106642
1.77218 16.1715 -0.112332
3.73346 16.1959 -0.509827
3.78589 16.2536 -0.495529
0.00511879 15.2131 -2.57413
7.78e-18 15.2067 -2.54423
0.00434525 15.2212 -2.5255
7.78e-18 15.215 -2.49419
3.46679 17.574 -0.112914
4.8225 17.8434 -0.188996
4.77482 17.8487 -0.183699
4.81134 17.8489 -0.169121
4.82238 17.8438 -0.141631
4.78203 17.849 -0.140364
4.81134 17.8493 -0.121194
4.8279 17.8329 -0.159911
4.82961 17.8153 -0.102728
4.82195 17.8441 -0.0945655
4.82806 17.8059 -0.135748
2.54104 16.9933 -0.455216
2.56785 17.0183 -0.364181
2.5791 17.0263 -0.424014
4.29603 17.462 -0.540116
4.33816 17.4868 -0.535749
4.27982 17.4426 -0.540505
4.22803 17.4167 -0.548117
4.26781 17.3975 -0.535545
1.38597 15.4097 -1.28229
1.37333 15.4343 -1.22554
1.33344 15.4546 -1.18417
1.37476 15.4552 -1.18336
2.32406 15.6964 -0.921912
2.36544 15.6909 -0.925828
2.28886 15.705 -0.916473
2.29921 15.7361 -0.898228
2.35577 15.7406 -0.895584
3.17571 17.4344 -0.178623
3.35254 15.6464 -0.638974
3.32462 15.6833 -0.665946
3.36432 15.6969 -0.639717
3.39283 15.6665 -0.614243
3.33901 15.7396 -0.665224
0.203924 15.4424 -0.167679
0.249995 15.447 -0.14381
0.197418 15.4426 -0.101178
3.00516 15.8989 -0.827921
2.94275 15.9177 -0.823115
2.96373 15.8826 -0.832843
2.9641 15.847 -0.846469
2.92547 15.8658 -0.838889
4.25659 17.7982 -0.410821
4.269 17.7985 -0.477176
4.23897 17.7938 -0.467952
4.31648 17.8058 -0.47589
4.34359 17.8073 -0.481127
4.29946 17.7994 -0.48369
4.25273 17.7915 -0.485077
4.29489 17.8031 -0.461167
3.11978 15.7482 -0.846625
3.09436 15.7612 -0.871828
3.16062 15.7862 -0.816015
3.12011 15.7974 -0.854129
3.14366 15.8133 -0.835897
3.50465 15.0469 -1.6674
3.50027 14.9969 -1.66419
3.46005 15.0357 -1.73038
3.48567 15.0168 -1.69284
3.46984 15.0102 -1.71106
2.56223 15.5038 -1.1081
2.54285 15.5197 -1.0874
2.55916 15.4851 -1.13446
2.54015 15.5 -1.11296
2.51788 15.4967 -1.11823
1.70562 15.6501 -0.955367
1.7208 15.6768 -0.935341
1.67586 15.6643 -0.944351
1.6414 15.6441 -0.959955
1.65463 15.6221 -0.978629
1.89581 15.8922 -0.829521
1.92199 15.8693 -0.837311
1.88161 15.8392 -0.848456
1.85534 15.8079 -0.860404
1.89013 15.8176 -0.856637
1.88134 15.7878 -0.869922
0.277743 15.4292 -0.812847
0.312767 15.436 -0.761706
2.43732 15.5729 -1.02483
2.44251 15.5954 -1.00218
2.41313 15.6 -0.997619
2.42852 15.6183 -0.981564
0.742183 15.5106 -1.08148
0.749394 15.5142 -1.06009
0.711719 15.5024 -1.06746
0.696135 15.5021 -1.00271
2.56749 17.0213 -0.153597
2.50257 16.965 -0.15734
3.21655 15.3986 -1.29649
3.23225 15.4132 -1.27498
3.2517 15.4349 -1.22395
3.25312 15.4129 -1.25981
3.24935 15.4255 -1.24556
3.2685 15.4285 -1.23706
3.26721 15.4584 -1.17798
3.28563 15.445 -1.20452
3.27724 15.4398 -1.21282
2.80915 17.2061 -0.307037
2.81944 17.2141 -0.264699
2.88075 17.2558 -0.290937
1.41457 15.8524 -0.826285
1.43459 15.8617 -0.832106
1.39784 15.8341 -0.8445
1.37506 15.8253 -0.836986
1.35816 15.8072 -0.85545
1.42956 15.8646 -0.793016
1.38961 15.8367 -0.806133
1.39689 15.8431 -0.772598
1.42544 15.8646 -0.731983
1.45532 15.8848 -0.754777
2.92247 15.7058 -0.915904
2.88868 15.7358 -0.898276
2.868 15.7072 -0.915242
2.84335 15.7106 -0.912778
2.85329 15.7343 -0.898455
2.87095 15.6716 -0.939492
2.61234 15.4153 -1.27131
2.67508 15.3972 -1.32183
2.65125 15.3939 -1.33136
2.58559 15.4138 -1.27383
2.61762 15.4022 -1.30718
2.5673 15.3987 -1.3141
2.61983 15.39 -1.34438
2.6473 15.3833 -1.37123
2.57298 15.3763 -1.41237
2.62188 15.3782 -1.39945
2.60611 15.3712 -1.43739
0.262941 15.4074 -1.13866
0.184223 15.4027 -1.1002
0.120223 15.3954 -1.14935
0.0824855 15.3967 -1.10537
0.963634 15.5996 -0.956004
0.911437 15.578 -0.959565
0.84999 15.555 -0.958854
3.84931 17.7032 -0.493593
3.80346 17.6896 -0.496006
3.77559 17.6832 -0.440746
2.6778 15.5168 -1.09027
2.65425 15.5141 -1.09424
2.66115 15.5337 -1.06885
2.67131 15.4984 -1.11633
3.65371 16.2807 -0.564698
3.62931 16.2236 -0.56782
1.318 15.8052 -0.42163
1.33641 15.8172 -0.402775
2.57364 15.4298 -1.23307
2.548 15.4168 -1.26434
2.51749 15.415 -1.26857
2.5089 15.4293 -1.23518
2.53789 15.4353 -1.22192
1.19215 15.7062 -0.909657
1.15842 15.694 -0.906684
1.16739 15.6998 -0.885908
1.1301 15.6805 -0.889962
1.13747 15.6869 -0.838279
1.24006 15.7404 -0.878077
1.2742 15.7553 -0.879712
1.23276 15.7297 -0.895536
1.19962 15.7167 -0.891876
1.19378 15.7164 -0.842488
1.13371 15.4967 -1.11967
1.16624 15.4912 -1.12763
1.17204 15.469 -1.16072
1.13717 15.4752 -1.15253
1.10575 15.46 -1.17719
1.07964 15.4461 -1.20094
1.11609 15.4418 -1.20966
1.14292 15.4549 -1.18526
1.12247 15.4309 -1.23316
1.15786 15.4389 -1.21745
1.17509 15.424 -1.24952
4.58305 16.0204 -0.241206
4.65548 16.0009 -0.231693
4.6195 16.0328 -0.24009
1.90963 15.7612 -0.88363
1.85728 15.7624 -0.882581
1.81476 15.7366 -0.896769
1.79826 15.7449 -0.892182
3.03371 17.3509 -0.375868
3.07201 17.3741 -0.350356
2.74227 15.4178 -1.26038
2.7805 15.4095 -1.28158
4.06766 17.7657 -0.145226
3.99437 17.748 -0.205528
2.3824 15.3831 -1.36751
2.36826 15.3872 -1.35251
2.44064 15.3905 -1.33994
2.42582 15.3822 -1.37137
2.45147 15.3854 -1.35747
2.37175 15.3703 -1.43826
2.35207 15.3754 -1.40734
2.39881 15.3789 -1.38795
2.43926 15.3759 -1.40673
1.72401 15.8813 -0.833066
1.72863 15.9178 -0.823249
1.74275 15.9424 -0.817336
3.96382 16.6313 -0.489529
4.02386 16.5978 -0.462496
3.95972 16.5277 -0.472714
4.71928 17.8447 -0.350178
4.81218 17.8462 -0.355547
4.76238 17.8452 -0.380645
1.00104 15.4268 -1.24039
1.0623 15.4152 -1.26799
1.01763 15.4161 -1.26528
1.032 15.3989 -1.31503
1.01004 15.3861 -1.3571
4.28778 17.2718 -0.508362
4.31421 17.3015 -0.507828
4.3373 17.2778 -0.49907
0.971458 15.6246 -0.465985
0.950471 15.6144 -0.518569
0.920825 15.6044 -0.44727
0.879856 15.5855 -0.546395
2.1833 15.4087 -1.28527
2.15033 15.4024 -1.30287
2.15193 15.4153 -1.26971
2.12749 15.4082 -1.28692
2.09854 15.4024 -1.3028
2.10014 15.4154 -1.26964
2.13821 15.4402 -1.21606
2.12007 15.4239 -1.25109
2.09573 15.4472 -1.20006
2.09292 15.3916 -1.33901
2.11686 15.398 -1.31742
3.1472 15.4443 -1.20446
0.233565 15.3922 -1.28946
0.239923 15.3905 -1.3181
1.11017 15.6621 -0.940192
1.07618 15.651 -0.937779
1.08472 15.6562 -0.916791
1.04719 15.6385 -0.921972
1.18612 15.6917 -0.925273
1.15118 15.684 -0.924794
1.11752 15.6719 -0.921789
4.21905 16.2339 -0.341534
4.23628 16.2704 -0.343735
4.28174 16.232 -0.326574
4.32057 16.286 -0.327594
4.2953 16.2935 -0.334428
4.35109 16.3388 -0.331062
4.37976 16.3043 -0.319621
2.83675 15.6827 -0.931457
2.8438 15.6665 -0.942959
2.81723 15.666 -0.943556
3.72318 16.9199 -0.639272
3.78227 16.9047 -0.612584
3.66715 16.8403 -0.653225
3.66356 16.8631 -0.65211
3.6975 16.8572 -0.64456
3.69504 16.8802 -0.646232
3.69155 16.9029 -0.645091
3.72549 16.8969 -0.637541
3.72799 16.862 -0.630658
4.395 17.8228 -0.0651159
4.43716 17.8288 -0.0464313
4.43084 17.827 -0.0981451
4.47959 17.8324 -0.0685807
4.52713 17.8366 -0.11195
4.54412 17.8382 -0.0715807
0.778333 15.5593 -0.102842
0.718878 15.5403 -0.123028
4.66413 17.846 -0.0532518
4.60537 17.8427 -0.0869224
3.33793 16.0536 -0.721957
3.36933 16.065 -0.701823
1.71016 15.4679 -1.16317
1.7107 15.4823 -1.14048
1.79609 15.5271 -1.07616
0.468767 15.3693 -1.44521
0.416816 15.3683 -1.44972
0.399837 15.3643 -1.47795
0.45174 15.3621 -1.49817
0.499132 15.3594 -1.52353
0.983441 15.4945 -1.12247
0.982829 15.4536 -1.18765
0.994329 15.4756 -1.14933
0.973343 15.4627 -1.17048
1.57737 15.7992 -0.865968
1.60832 15.7643 -0.882239
1.57186 15.7714 -0.880057
1.54888 15.7175 -0.908949
1.56648 15.7433 -0.894236
1.57294 15.7135 -0.91142
1.59067 15.7389 -0.89644
1.57914 15.6839 -0.931769
1.59699 15.7093 -0.915183
2.60806 15.7082 -0.914191
2.56835 15.6999 -0.919715
2.52379 15.655 -0.951647
2.51813 15.679 -0.934409
2.54958 15.7119 -0.911927
2.50944 15.7008 -0.919155
2.16376 15.6318 -0.970634
2.13576 15.6189 -0.982233
2.12844 15.6485 -0.957328
2.10352 15.6382 -0.965511
2.0779 15.6273 -0.975375
2.07057 15.657 -0.950471
2.10604 15.6724 -0.940272
2.11878 15.5479 -1.05226
2.08722 15.5638 -1.03605
2.11461 15.5765 -1.02372
2.0683 15.5894 -1.01166
2.0505 15.6146 -0.987705
2.11861 15.5957 -1.00503
2.83626 15.4141 -1.2703
2.83371 15.3948 -1.32666
2.79902 15.3936 -1.33075
2.80356 15.3867 -1.35365
2.84911 15.3862 -1.35585
2.81935 15.3706 -1.43719
2.80328 15.3778 -1.39516
1.9975 15.5541 -1.04522
2.02747 15.5872 -1.01293
2.03141 15.5389 -1.06263
2.06059 15.552 -1.04767
2.09681 15.5389 -1.06228
2.03269 15.5166 -1.0906
2.07382 15.5323 -1.07089
2.07954 15.5063 -1.10373
1.99715 15.5872 -1.01343
4.08799 17.7671 -0.361717
4.085 17.7651 -0.421393
4.00274 17.7463 -0.41205
0.974353 15.4375 -1.21737
0.964038 15.4308 -1.23126
0.964726 15.4234 -1.24761
0.936909 15.4274 -1.23831
2.52219 16.9715 -0.619868
2.54929 16.9881 -0.625735
2.51368 16.9566 -0.631252
2.4707 16.9265 -0.612286
2.47827 16.9249 -0.636803
2.50457 16.9568 -0.602223
2.58301 15.3655 -1.47033
2.63437 15.3624 -1.49355
2.60248 15.3582 -1.5376
4.82242 15.878 -0.0077575
4.8279 15.8566 -0.0329698
4.19234 17.0016 -0.483635
4.17922 16.9416 -0.476542
4.13646 16.9734 -0.494181
4.23411 16.9532 -0.464828
4.18099 16.915 -0.471442
0.261857 15.4155 -1.01598
0.266832 15.4106 -1.09588
0.215386 15.408 -1.06527
0.342168 15.4197 -1.09774
3.66543 14.9358 -1.45691
3.68108 14.9049 -1.43583
3.72135 14.8838 -1.3934
3.63446 15.031 -1.5062
2.18604 16.6449 -0.132044
4.06965 15.1434 -1.18589
4.06498 15.0966 -1.18643
4.05412 15.1296 -1.19816
4.03521 15.1402 -1.20428
4.02831 15.0868 -1.20507
4.01983 15.1263 -1.21661
4.05216 15.0426 -1.1837
3.9693 15.0635 -1.23583
3.9989 15.1073 -1.22544
4.65844 17.4238 -0.482175
4.65973 17.4716 -0.490593
4.73731 17.4502 -0.482806
1.92597 16.3006 -0.751308
1.93451 16.3263 -0.741604
1.9661 16.3092 -0.752273
1.96477 16.3621 -0.735333
1.94867 16.3045 -0.750623
3.51588 14.2612 -1.50422
3.50994 14.2695 -1.5229
3.52724 14.3066 -1.50629
3.51018 14.3369 -1.53447
3.52679 14.3613 -1.51636
3.49341 14.2558 -1.53451
3.48779 14.2641 -1.55326
3.47127 14.2504 -1.56503
3.49888 14.2953 -1.54307
2.94545 17.3007 -0.0493666
2.90813 17.277 -0.0636523
2.93226 17.2918 -0.0123046
2.87201 17.2527 -0.045744
2.89095 17.2649 -0.0123046
2.88002 17.2512 -0.00413521
3.78067 16.4668 -0.535476
1.15232 15.7086 -0.507291
1.16196 15.7178 -0.347628
1.19201 15.734 -0.347273
1.19831 15.7359 -0.408315
1.24071 15.7603 -0.382532
1.25696 15.7684 -0.423637
2.17239 15.4251 -1.24906
2.17927 15.4697 -1.15817
2.14717 15.4771 -1.14677
2.08476 15.3648 -1.47405
2.06473 15.3629 -1.48929
2.04988 15.3712 -1.43253
1.97573 15.3672 -1.45781
2.01762 15.3657 -1.46773
2.02859 15.3579 -1.53814
0.725022 15.5262 -0.716172
0.676661 15.5098 -0.76644
0.738778 15.5288 -0.749402
0.809397 15.5531 -0.727968
4.14305 17.7772 -0.416333
4.11247 17.7707 -0.452561
4.34543 17.8136 -0.31354
4.3287 17.8105 -0.356672
4.22184 17.7904 -0.478551
4.20628 17.7826 -0.486639
4.15288 17.778 -0.473311
4.15914 17.7736 -0.488203
4.19267 17.7869 -0.441344
0.156834 15.4402 -0.01641
0.136274 15.4337 -0.00546999
0.124838 15.4384 -0.0564182
0.11002 15.4376 -0.01641
0.0460662 15.4358 -0.116832
0.0162343 15.4348 -0.114846
0.0318704 15.4354 -0.082034
0.0706778 15.4361 -0.0729066
0.0787791 15.4364 -0.032816
2.00726 15.8744 -0.835357
2.02919 15.8387 -0.848575
2.09242 15.8867 -0.831294
2.0715 15.864 -0.839138
2.05181 15.9171 -0.82303
2.04148 15.8881 -0.830849
2.02473 15.9037 -0.826379
0.58254 15.5045 -0.0506359
0.556726 15.4993 -0.0299308
2.48046 15.6457 -0.958706
2.45101 15.6384 -0.964301
2.44548 15.6656 -0.943709
2.40593 15.6382 -0.96441
2.39789 15.6731 -0.938455
2.67163 15.36 -1.51696
4.51747 16.3644 -0.309016
4.43989 16.3336 -0.314456
4.43972 16.3644 -0.319759
4.51508 16.4213 -0.319287
4.15074 17.3584 -0.558099
4.20531 17.3806 -0.547791
4.18324 17.3534 -0.548595
4.28829 17.3393 -0.52009
4.22874 17.3759 -0.540707
0.838909 15.5799 -0.0790578
0.812672 15.571 -0.0156302
0.842029 15.5812 -0.0312069
0.790503 15.5638 -0.0411188
0.768159 15.5563 -0.0156302
1.64007 16.0387 -0.556309
1.57445 15.9859 -0.49087
3.32089 14.2125 -1.84603
3.33221 14.2483 -1.82639
3.30638 14.2065 -1.88055
3.31356 14.238 -1.86842
3.32851 14.2842 -1.84058
0.0779801 15.3909 -1.18382
4.23988 16.5576 -0.393538
4.19354 16.5184 -0.398178
4.0957 16.7025 -0.458185
3.72093 14.9512 -1.40571
3.47891 15.806 -0.582116
3.5306 15.8155 -0.551825
3.53405 15.7934 -0.546267
3.49355 15.8515 -0.58092
3.42536 15.8148 -0.618457
3.75977 16.76 -0.597264
3.23423 15.9784 -0.788181
3.30038 15.9789 -0.73607
1.1974 15.7408 -0.0156283
1.21396 15.7439 -0.00520944
1.23839 15.7635 -0.0156283
1.25494 15.7669 -0.00521135
1.21799 15.7523 -0.0411252
1.25934 15.7755 -0.0452346
1.30207 15.8008 -0.0962563
1.42347 15.8651 -0.687059
1.46897 15.8968 -0.70519
1.0691 15.6416 -0.956409
1.02261 15.6268 -0.941096
0.996664 15.6152 -0.927053
0.9385 15.5901 -0.937489
4.75295 17.225 -0.442733
4.6789 17.2343 -0.447538
4.72104 17.2372 -0.445927
4.64285 17.3239 -0.465546
0.012354 15.3836 -1.26061
0.0460135 15.3888 -1.20257
0.0123545 15.3875 -1.21154
1.66682e-07 15.3795 -1.09745
6.66727e-07 15.3759 -1.14654
0.0045437 15.3844 -1.17965
3.94478 17.0362 -0.568028
3.95679 16.9901 -0.555233
3.9952 16.9732 -0.538366
3.9214 16.9375 -0.559416
3.85638 16.8788 -0.575041
3.90884 16.8979 -0.557257
2.18789 16.6336 -0.678082
2.20889 16.6522 -0.682825
2.18159 16.6178 -0.690535
2.15079 16.5818 -0.696846
2.17206 16.6163 -0.658437
3.06174 17.3694 -0.273431
3.04628 17.3616 -0.175807
3.10153 17.3931 -0.212476
3.12636 17.4049 -0.341904
3.16465 17.4277 -0.250463
4.42289 16.2878 -0.309069
4.48327 16.3023 -0.302737
4.45217 16.2387 -0.295974
0.252598 15.4446 -0.327968
2.82576 16.0638 -0.793086
2.80836 15.9606 -0.812634
2.77125 15.9984 -0.804581
2.7529 15.9814 -0.807943
2.7246 15.9538 -0.814225
2.72045 15.9984 -0.804581
2.73649 16.0843 -0.789468
2.76211 15.9203 -0.822469
0.729742 15.539 -0.401184
0.656379 15.5183 -0.371483
0.622154 15.5104 -0.328481
3.48536 15.5824 -0.544495
3.46059 15.6182 -0.560472
3.49834 15.5951 -0.532877
3.52672 15.5868 -0.519527
3.5185 15.6226 -0.52546
3.53893 15.5993 -0.509201
3.45838 15.5907 -0.557507
3.43617 15.6346 -0.579231
3.48187 15.6565 -0.553995
3.8198 14.8729 -1.30734
3.87537 14.8716 -1.26517
3.82796 14.8362 -1.29427
2.58343 15.8041 -0.863005
2.54316 15.8345 -0.850963
2.60035 15.7853 -0.871309
2.59799 15.7438 -0.893542
2.56533 15.7757 -0.876194
2.54913 15.7896 -0.869392
2.53261 15.7455 -0.892597
2.51447 15.776 -0.876053
3.43812 16.2727 -0.69075
1.62623 15.4605 -1.17533
1.62321 15.4436 -1.20623
1.64639 15.4515 -1.19084
1.67604 15.4605 -1.17533
1.67302 15.4436 -1.20623
1.6315 15.4265 -1.24369
1.6563 15.4366 -1.2215
1.66135 15.415 -1.26951
1.71614 15.4476 -1.198
2.34324 15.3347 -1.75748
2.48786 15.3306 -1.7924
2.44421 15.3158 -1.91497
1.33914 15.8241 -0.0489261
1.40286 15.8656 -0.0912725
1.37507 15.8472 -0.0964395
1.27885 15.7872 -0.0156398
1.2953 15.791 -0.00521326
1.31904 15.8116 -0.0156398
1.29902 15.7995 -0.041146
1.77047 16.1701 -0.0469115
1.75422 16.1546 -0.0441082
1.78143 16.1813 -0.0156389
1.79761 16.1984 -0.0414586
1.72032 16.1213 -0.0698594
2.45235 16.1125 -0.784491
2.4118 16.0187 -0.8009
2.33233 16.0401 -0.797016
3.79158 14.9733 -1.34767
3.76612 14.9378 -1.36288
4.029 16.0548 -0.365112
3.92808 15.937 -0.380303
3.95299 15.9791 -0.378397
4.0071 15.9756 -0.358671
1.75923 15.7152 -0.909498
3.50145 15.6989 -0.549296
3.52403 15.7452 -0.543806
3.54832 15.6789 -0.517611
3.59056 15.6792 -0.493375
3.58646 15.7292 -0.504461
3.58834 15.7701 -0.510718
3.65896 15.6933 -0.458628
0.343269 15.3608 -1.5104
0.398699 15.347 -1.64626
0.287477 15.3579 -1.52592
1.19013 15.4107 -1.27974
1.22767 15.4155 -1.26761
1.20888 15.4044 -1.29742
1.24274 15.4097 -1.28222
1.27734 15.4155 -1.26763
1.23473 15.3943 -1.33096
1.27991 15.4257 -1.24475
1.63681 16.0386 -0.00520648
1.65646 16.063 -0.0156231
1.64484 16.0526 -0.0312389
1.67961 16.0836 -0.0546719
1.64074 16.0488 -0.0577866
1.58513 16.0022 -0.0156158
1.62117 16.0322 -0.0156158
1.60321 16.0173 -0.0410888
1.10025 15.6903 -0.0156053
1.14214 15.7115 -0.0156053
1.11574 15.6983 -0.0582665
1.04266 15.6632 -0.0626089
1.05789 15.6702 -0.0155907
1.0721 15.6767 -0.031196
1.1902 15.2854 -2.14388
1.31244 15.287 -2.13242
1.32178 15.2698 -2.25206
2.93198 17.2873 -0.396808
2.98606 17.3214 -0.396496
0.37787 15.4637 -0.0665981
0.358236 15.461 -0.0157494
0.389128 15.4656 -0.0314457
0.44479 15.4749 -0.0658683
0.311769 15.4549 -0.0157494
0.335172 15.458 -0.0415199
3.81354 16.7795 -0.576405
3.82045 16.8336 -0.582525
3.69905 16.8341 -0.639749
3.81241 15.708 -0.387581
3.86414 15.6613 -0.357497
3.80287 15.6601 -0.383212
3.74153 15.6835 -0.415753
3.84821 15.6414 -0.360664
3.83367 15.6249 -0.363777
3.87727 15.628 -0.346265
3.27527 14.3541 -1.99008
3.27062 14.2846 -1.99222
3.25498 14.3075 -2.04698
4.50649 17.8287 -0.471665
4.53753 17.8255 -0.478924
4.48983 17.8207 -0.479867
4.44343 17.8231 -0.467995
4.44074 17.8155 -0.480817
4.48409 17.8272 -0.45625
4.42835 17.8209 -0.463031
3.36167 17.5237 -0.387846
3.34013 17.5117 -0.465333
1.32567 15.4788 -1.14358
1.38089 15.4737 -1.1519
1.35406 15.4962 -1.11807
2.73595 15.6521 -0.954135
2.7303 15.6716 -0.938945
2.75501 15.6791 -0.934167
2.73991 15.6866 -0.928402
2.70528 15.7153 -0.909479
2.74577 15.709 -0.913197
7.78e-18 15.2753 -2.09354
0.00492012 15.2888 -2.07742
0.00484224 15.2819 -2.12754
7.78e-18 15.2683 -2.14376
-0.000132785 15.2445 -2.11476
2.8544 15.4465 -1.19984
2.84727 15.4295 -1.23424
2.90152 15.4671 -1.15571
2.87914 15.4596 -1.17281
4.72537 17.8485 -0.0366376
4.74311 17.8487 -0.0146765
4.76659 17.849 -0.0388579
4.72985 17.843 -0.0041927
4.76328 17.8491 -0.0581295
4.6842 17.8477 -0.0381814
0.580218 15.4896 -0.652182
0.533533 15.4773 -0.687757
0.580611 15.491 -0.616763
0.566958 15.4905 -0.548479
0.0429873 15.4179 -0.746401
6.66727e-07 15.406 -0.62266
1.66682e-07 15.4039 -0.671856
3.38992 15.6145 -0.606876
4.35416 15.8684 -0.247242
4.35151 15.8443 -0.243469
4.29753 15.9076 -0.265682
4.41735 15.8702 -0.236372
2.03904 15.674 -0.938489
2.0023 15.7167 -0.909401
2.04843 15.6925 -0.925703
1.97277 15.7325 -0.899491
2.02355 15.7277 -0.902382
2.04399 15.7385 -0.896224
0.223945 15.3706 -1.42693
4.31819 17.3869 -0.522129
4.35777 17.3514 -0.508033
4.41178 17.3063 -0.490631
4.42649 17.3668 -0.49865
4.42038 17.4163 -0.508312
3.96984 14.746 -1.17941
3.97434 14.7155 -1.17127
3.92749 14.7237 -1.20288
3.94822 14.6803 -1.18159
4.00897 14.6975 -1.14739
0.701077 15.4965 -1.1006
0.673187 15.4875 -1.11375
0.637448 15.4786 -1.10115
0.731182 15.5027 -1.1034
3.53304 14.2747 -1.4932
3.53943 14.2664 -1.47477
3.54852 14.2951 -1.47692
3.55659 14.28 -1.46392
3.55521 14.3414 -1.47651
3.56328 14.2716 -1.44557
3.57577 14.3166 -1.44706
3.58011 14.361 -1.44974
0.0157064 15.367 -1.44995
1.15345e-06 15.3557 -1.39152
0.00523622 15.3639 -1.42237
6.53451e-07 15.3511 -1.44053
0.0063691 15.3602 -1.47323
4.25004 16.4359 -0.369675
4.19601 16.4697 -0.388963
4.21152 16.486 -0.387797
4.2719 16.5123 -0.378249
4.14829 16.5098 -0.408917
4.14511 16.4716 -0.403186
3.24167 14.3591 -2.10399
3.26064 14.3682 -2.03889
3.24249 14.3333 -2.09656
3.2443 14.2653 -2.07722
3.23464 14.2944 -2.12087
1.43608 15.8891 -0.0156231
1.47426 15.9162 -0.0156231
1.4664 15.9108 -0.0867614
1.49334 15.93 -0.0703674
1.49935 15.9347 -0.0312343
3.23075 15.5645 -0.717858
3.21782 15.5498 -0.733555
3.19418 15.5593 -0.747114
3.18407 15.5451 -0.759886
3.21524 15.5907 -0.734985
3.17015 15.5558 -0.767071
3.15139 15.5403 -0.78732
3.13464 15.5504 -0.797684
3.11171 15.5359 -0.820309
3.16959 15.5892 -0.773632
2.28365 16.7439 -0.563202
2.32046 16.7806 -0.62184
2.38274 16.8416 -0.642266
2.34741 16.8078 -0.62625
3.62575 14.5211 -1.42588
3.60658 14.4627 -1.43665
3.58417 14.5065 -1.47062
3.60162 14.5623 -1.46003
3.64219 14.5508 -1.41355
3.08839 15.638 -0.855772
3.09429 15.5827 -0.840032
3.12333 15.5712 -0.811398
3.12307 15.6173 -0.819779
3.1249 15.6391 -0.821926
3.18027 15.6384 -0.772844
4.45952 17.3937 -0.498205
0.425173 15.4358 -1.0513
0.440401 15.4363 -1.08281
2.74773 15.8849 -0.831882
2.76389 15.9014 -0.827105
2.75132 15.8276 -0.853085
2.70998 15.8338 -0.850573
2.73085 15.8691 -0.837158
2.77173 15.8479 -0.845419
0.623946 15.382 -1.37188
0.653463 15.379 -1.38483
0.671601 15.3817 -1.37294
0.672468 15.3717 -1.42745
0.634569 15.3887 -1.34669
0.654863 15.3604 -1.51281
0.618138 15.368 -1.45222
0.663888 15.3668 -1.45928
0.687288 15.3616 -1.5021
3.29245 14.2004 -1.91526
3.27962 14.1942 -1.9503
3.29922 14.2321 -1.90279
3.28596 14.2257 -1.93796
3.29889 14.2614 -1.90857
4.0699 16.1821 -0.374302
4.02114 16.1525 -0.385133
4.00916 16.1023 -0.380145
3.41988 14.4316 -1.68827
3.45459 14.4388 -1.63344
3.41956 14.4059 -1.6845
3.44085 14.3775 -1.64431
3.42323 14.3378 -1.66599
3.40758 14.3671 -1.69839
0.820103 15.5639 -0.554769
0.764798 15.5455 -0.547116
0.787912 15.5543 -0.509648
0.84497 15.5752 -0.469499
3.33352 17.5146 -0.0112486
3.31135 17.4982 -0.0037756
3.35599 17.5191 -0.00374952
3.3783 17.5355 -0.0112486
3.40075 17.5397 -0.00372502
3.31837 17.5079 -0.0375064
3.36283 17.5282 -0.0224971
3.3841 17.5387 -0.0477492
3.39896 17.5446 -0.0991022
3.42256 17.555 -0.0623306
6.66727e-07 15.3883 -0.966552
0.00527137 15.4009 -0.93995
1.66682e-07 15.3913 -0.917405
0.0158134 15.4049 -0.967614
0.0418654 15.4071 -0.942787
3.36459 14.3166 -1.76957
3.3436 14.3394 -1.81741
3.36799 14.3544 -1.76964
3.34194 14.3772 -1.82768
3.3714 14.3919 -1.76971
3.35123 14.2858 -1.79168
3.32959 14.3308 -1.84676
1.70566 15.3898 -1.34533
1.7172 15.4014 -1.30703
1.70677 15.4265 -1.24388
1.15317 15.7072 -0.567568
0.476856 15.4635 -0.734455
0.550945 15.4779 -0.760605
0.521527 15.4693 -0.803696
0.540599 15.4701 -0.870982
0.485738 15.4613 -0.810903
4.11522 16.5595 -0.426955
4.09907 16.5085 -0.422753
4.04924 16.5504 -0.445735
4.03865 16.4676 -0.434735
2.81002 15.4112 -1.27716
2.78918 15.4018 -1.30409
2.8076 15.4053 -1.2931
4.29608 16.9825 -0.455487
4.25263 16.9238 -0.454852
2.57581 17.0287 -0.0936651
2.54613 17.0034 -0.0980258
2.52746 16.9878 -0.0473492
2.51369 16.9753 -0.0131531
2.55169 17.0091 -0.0347313
2.58588 17.0378 -0.0349657
1.88339 16.2747 -0.739482
1.88448 16.2775 -0.712102
1.85329 16.2425 -0.695991
1.88797 16.283 -0.668046
1.91435 16.3125 -0.689297
1.91342 16.3094 -0.734218
1.94385 16.3454 -0.727865
3.87687 16.5457 -0.507938
3.91041 16.5973 -0.503674
3.89972 16.5282 -0.495742
2.62046 17.0606 -0.424192
2.35253 15.408 -1.28869
2.31132 15.4153 -1.26976
2.33534 15.4048 -1.29598
2.34147 15.3956 -1.32365
2.29901 15.3988 -1.31276
3.26726 15.7108 -0.714318
3.29106 15.6394 -0.683534
3.23569 15.6422 -0.727571
3.26308 15.5859 -0.693135
3.2446 15.583 -0.709765
3.30477 15.5736 -0.661563
3.28725 15.5982 -0.679019
4.15015 14.8055 -1.09279
4.16585 14.8302 -1.08989
4.2066 14.8102 -1.069
4.18577 14.7587 -1.06873
4.13899 14.7544 -1.08907
3.49519 16.5054 -0.695678
1.67093 15.2663 -2.27517
1.5363 15.2605 -2.31449
1.59497 15.2787 -2.19123
0.893072 15.5749 -0.887961
4.10702 14.7857 -1.10985
4.03607 14.7674 -1.14395
4.10584 14.8154 -1.11559
3.74473 15.8472 -0.443157
3.78947 15.8188 -0.417515
3.71785 15.7783 -0.44394
3.68475 15.8128 -0.466696
3.25414 17.4619 -0.541879
3.22975 17.4554 -0.530826
3.24315 17.4649 -0.481951
3.27361 17.4796 -0.522103
3.25634 17.4705 -0.480114
3.29077 17.4874 -0.495122
3.2969 17.483 -0.53819
3.31521 17.4981 -0.523518
4.17465 15.7684 -0.270822
4.17047 15.7507 -0.26877
4.11975 15.7501 -0.283184
4.23643 15.7529 -0.252543
1.76832 16.1601 -0.507485
1.7127 16.1062 -0.506088
3.72369 16.0461 -0.488044
3.78281 16.105 -0.470751
3.77335 15.9916 -0.455359
4.69743 17.8411 -0.467581
4.72546 17.8385 -0.474282
4.68103 17.835 -0.476723
4.64956 17.8391 -0.467938
4.63314 17.8326 -0.477352
4.68158 17.8417 -0.436916
4.81207 17.8452 -0.401468
4.78546 17.8445 -0.427232
4.8279 17.6848 -0.428557
4.8279 17.6755 -0.466919
4.8279 17.7091 -0.481969
4.82952 17.6333 -0.473512
4.8279 17.6587 -0.49086
2.09245 16.5359 -0.0981568
2.04156 16.4758 -0.106559
2.04851 16.4811 -0.339801
4.71675 15.6606 -0.168147
4.66965 15.6601 -0.170722
4.64335 15.6479 -0.174772
4.67589 15.7072 -0.178534
4.74821 15.6775 -0.169937
2.87396 15.346 -1.65588
2.9293 15.3509 -1.61537
2.95176 15.3457 -1.65714
2.84986 15.3384 -1.72331
2.9283 15.3409 -1.7008
2.96976 15.342 -1.64141
2.96474 15.352 -1.60948
2.92808 15.3552 -1.56712
4.63011 15.8138 -0.200378
4.6021 15.882 -0.215004
4.67212 15.8755 -0.208373
4.6585 15.9341 -0.219673
2.05648 15.3011 -2.02871
2.04554 15.3224 -1.86106
2.18331 15.3127 -1.93945
3.5094 16.0147 -0.599964
3.57355 16.1316 -0.582476
3.64922 16.0988 -0.535069
3.58458 16.0775 -0.566778
4.29025 14.8105 -1.0369
4.30799 14.8465 -1.037
4.35961 14.8169 -1.01543
3.22502 14.2443 -2.1531
3.22836 14.2461 -2.13842
3.22392 14.2277 -2.15617
3.21888 14.2065 -2.17703
3.21376 14.219 -2.20493
3.22244 14.179 -2.1643
3.21504 14.1813 -2.19229
3.212 14.1496 -2.20314
3.20769 14.1914 -2.23596
4.29252 16.8265 -0.428769
4.3272 16.7936 -0.415754
3.20978 14.1414 -2.18349
3.2175 14.1479 -2.14682
3.22427 14.1772 -2.14566
3.227 14.1625 -2.12999
3.24466 14.2366 -2.07128
3.23396 14.199 -2.10664
2.45043 15.3021 -2.02078
2.56551 15.3053 -1.99638
2.42439 16.8866 -0.00450024
2.44073 16.9091 -0.013383
2.42426 16.8946 -0.0491023
2.45849 16.9258 -0.0349537
2.4817 16.9467 -0.0691916
2.43623 16.9049 -0.0806091
2.36945 16.8407 -0.0136185
2.41114 16.8833 -0.0254104
2.3985 16.8693 -0.0524105
2.35118 16.8191 -0.353925
2.38779 16.8537 -0.426268
2.42862 16.8934 -0.385905
4.376 14.4385 -0.943642
4.39081 14.3744 -0.928178
4.36654 14.3901 -0.937967
4.40311 14.3919 -0.928022
4.43026 14.406 -0.923389
4.42744 14.376 -0.918814
1.33477 15.7987 -0.848163
1.36119 15.818 -0.808647
1.31808 15.7815 -0.867661
1.29475 15.7733 -0.860485
1.34734 15.81 -0.78436
1.30863 15.7835 -0.828876
1.30878 15.7862 -0.775871
3.46056 16.1268 -0.65051
3.45443 16.1061 -0.650716
2.98119 17.3139 -0.555042
2.99599 17.3236 -0.541768
3.02473 17.3429 -0.538592
3.04594 17.3469 -0.561999
3.04419 17.3538 -0.518206
3.06285 17.3634 -0.546599
2.73558 15.7536 -0.887642
2.72699 15.7909 -0.868578
2.76439 15.7624 -0.882973
3.05777 17.3692 -0.0119232
3.10045 17.3937 -0.0119232
3.03935 17.3586 -0.0271473
3.05215 17.3658 -0.0688409
3.01495 17.3451 -0.0332884
2.27902 16.7468 -0.224903
1.42121 15.8662 -0.630951
1.3071 15.79 -0.667444
1.38315 15.8391 -0.658277
0.0536271 15.435 -0.174012
0.0162348 15.4344 -0.164065
0.00541182 15.4287 -0.147585
1.66682e-07 15.4175 -0.131034
2.90322 15.3692 -1.4458
2.95598 15.363 -1.48882
4.05048 17.7587 -0.00467606
4.05861 17.7642 -0.0207397
4.02899 17.7574 -0.0104101
4.00501 17.746 -0.00347002
4.01414 17.7548 -0.0390446
3.98112 17.7457 -0.0104101
4.10214 17.7735 -0.0834027
4.04291 17.7606 -0.051237
4.09139 17.772 -0.045088
0.522458 15.489 -0.21271
0.454847 15.4753 -0.221676
4.08549 16.793 -0.477003
4.10216 16.7402 -0.462694
2.31197 15.3872 -1.3525
2.33531 15.3816 -1.3743
2.31839 15.3783 -1.3904
0.834728 15.389 -1.34958
0.799314 15.407 -1.29145
0.835679 15.4033 -1.30403
0.858362 15.3809 -1.37811
0.878197 15.386 -1.35938
0.839149 15.3759 -1.4029
0.889838 15.3775 -1.39407
0.885983 15.3735 -1.41815
3.18333 15.9997 -0.804359
3.12279 16.0309 -0.79871
3.1627 15.9527 -0.814333
3.04296 15.6392 -0.900284
3.0092 15.6564 -0.936668
2.98268 15.6078 -0.956434
2.98124 15.6259 -0.960635
1.35139 15.8314 -0.150242
1.41588 15.874 -0.147162
0.00545486 15.4215 -0.497459
0.0163515 15.4263 -0.524999
0.0054509 15.4199 -0.54665
0.0327031 15.4255 -0.557818
0.016352 15.4246 -0.574206
1.66682e-07 15.4096 -0.524356
6.66727e-07 15.4079 -0.573563
2.11555 15.5208 -1.08523
2.12587 15.466 -1.16442
2.0937 15.4787 -1.1445
2.11763 15.4945 -1.11963
2.50777 15.2738 -2.22453
2.58455 15.288 -2.1245
2.67467 15.2765 -2.21078
2.6349 15.2643 -2.28893
1.88655 16.2905 -0.381733
1.8593 16.2605 -0.345556
1.87053 16.274 -0.303624
1.97735 16.3963 -0.38298
3.65561 17.6437 -0.377479
2.53441 16.9828 -0.604962
2.52053 16.972 -0.564448
2.59458 17.0336 -0.609146
2.55397 17.0018 -0.601395
2.57681 17.0196 -0.591821
4.23076 14.8732 -1.07011
4.18018 14.9099 -1.09763
4.23158 14.9178 -1.0776
0.271314 15.443 -0.468964
0.258657 15.4432 -0.413403
0.318132 15.4486 -0.465536
0.326581 15.4515 -0.393995
4.55892 17.5842 -0.519292
4.60632 17.5972 -0.516998
4.54313 17.5578 -0.516249
4.60469 17.5648 -0.511296
4.58226 17.4743 -0.497329
4.46814 17.5206 -0.519314
4.52662 17.5058 -0.50917
4.49938 17.5388 -0.518396
4.51365 17.5685 -0.521833
0.0756829 15.4196 -0.718693
0.0325246 15.4194 -0.705414
0.15118 15.419 -0.803931
0.106229 15.4186 -0.760751
0.16745 15.4228 -0.746634
0.132968 15.4236 -0.685022
2.8542 15.4827 -1.08873
2.85603 15.5016 -1.07918
2.86292 15.4878 -1.07066
2.8838 15.4886 -1.05306
2.87132 15.495 -1.06115
2.83671 15.499 -1.10434
2.85154 15.5067 -1.08756
3.53322 17.6012 -0.108848
2.09917 15.9438 -0.816472
1.24937 15.7467 -0.857616
1.27724 15.7632 -0.848731
1.26909 15.7603 -0.814549
1.22775 15.7374 -0.798772
4.5014 14.3789 -0.90228
4.46429 14.3776 -0.909989
4.48099 14.4351 -0.91625
4.4464 14.4198 -0.92157
3.89695 16.2811 -0.453321
3.9368 16.2805 -0.437731
3.93615 16.2214 -0.427628
2.83576 17.2196 -0.532866
2.82199 17.2083 -0.573022
2.79402 17.1902 -0.536261
2.72132 17.136 -0.546157
2.76185 17.1663 -0.555685
3.56614 14.9755 -1.57472
3.53405 14.9841 -1.61663
3.54495 15.0248 -1.61001
3.52396 15.0204 -1.63654
2.02769 16.4491 -0.605043
1.8402 16.2375 -0.421258
3.60457 16.1698 -0.571794
2.31578 16.7739 -0.653932
2.29098 16.7497 -0.624875
2.22815 16.6824 -0.603492
2.25774 16.7142 -0.631642
2.43838 16.9011 -0.451667
1.75241 15.8119 -0.858909
1.76786 15.8278 -0.852594
1.74125 15.871 -0.836352
1.77311 15.8655 -0.838685
1.777 15.9157 -0.823394
3.9869 17.0607 -0.556908
3.19717 15.5145 -0.899567
3.31705 15.4959 -1.00502
3.20356 15.4911 -1.03234
3.28815 15.4281 -1.22303
3.28681 15.4626 -1.17052
3.32425 15.4458 -1.18864
3.30604 15.4564 -1.18213
3.33448 15.4626 -1.17052
0.36543 15.4579 -0.361965
0.308918 15.4508 -0.328178
0.358341 15.4587 -0.277345
0.395763 15.4628 -0.343872
0.421102 15.4684 -0.286358
2.75861 17.1734 -0.0213848
2.78289 17.1901 -0.0252207
2.7836 17.1906 -0.0662962
2.80942 17.2091 -0.0125066
2.79769 17.193 -0.00330634
2.83934 17.2232 -0.00416887
2.8501 17.2372 -0.0125066
2.83528 17.2275 -0.044459
0.729153 15.5178 -0.904771
0.764206 15.5284 -0.917357
0.809499 15.542 -0.933342
4.80878 17.8495 -0.0785841
4.82153 17.8443 -0.0474972
4.80878 17.8496 -0.0306534
4.8279 17.8169 -0.0800311
4.82835 17.7739 -0.0504861
0.121664 15.3892 -1.22549
0.092444 15.3844 -1.27132
4.26363 15.8365 -0.260644
4.19145 15.828 -0.276924
4.23381 15.8644 -0.272716
2.9229 15.3344 -1.72591
2.93521 15.3229 -1.71267
2.92026 15.3196 -1.74212
2.92692 15.2939 -1.72391
2.9373 15.251 -1.69591
2.9146 15.2472 -1.74123
2.90253 15.3277 -1.76854
2.90882 15.2897 -1.76154
2.89888 15.3145 -1.78679
2.94608 15.3371 -1.68514
2.95867 15.3277 -1.66901
2.94704 15.2989 -1.68633
3.82046 16.0784 -0.449275
3.76862 16.1445 -0.484178
1.48516 15.9206 -0.333723
1.49312 15.9272 -0.302063
1.52511 15.9492 -0.409145
1.49865 15.9299 -0.368865
1.54066 15.9628 -0.34359
1.54801 15.9657 -0.451572
4.42933 16.8507 -0.407255
4.4052 16.7913 -0.400806
2.30027 16.7705 -0.0138595
2.28377 16.7441 -0.00366607
2.31939 16.7825 -0.00461984
2.3345 16.8059 -0.0138595
2.32372 16.7954 -0.0514777
2.35505 16.8276 -0.0538358
0.556441 15.4942 -0.333955
2.0453 16.4807 -0.0148788
2.07574 16.5164 -0.0148788
2.08992 16.5249 -0.00491511
2.06049 16.4986 -0.0391391
3.34483 15.8892 -0.687951
3.29092 15.8221 -0.715572
1.31449 15.8044 -0.369709
1.39692 15.8561 -0.428867
2.07552 15.7229 -0.90528
2.06431 15.7496 -0.890421
2.09911 15.7999 -0.86456
2.07382 15.7878 -0.87029
2.06347 15.8242 -0.854328
2.046 15.8026 -0.863306
2.10993 15.8467 -0.845855
1.19219 15.395 -1.32847
1.17576 15.3852 -1.36076
1.14986 15.3922 -1.33761
1.09268 15.3811 -1.37683
1.11222 15.3877 -1.35215
1.10952 15.3777 -1.39294
1.14264 15.3811 -1.37676
1.1592 15.3777 -1.39294
1.08468 15.3737 -1.41755
1.13436 15.3737 -1.41748
1.11622 15.3687 -1.44812
3.68357 14.4533 -1.35381
3.64776 14.4496 -1.38982
3.68481 14.4998 -1.36081
4.52019 14.6604 -0.947865
4.53545 14.6111 -0.936383
4.48815 14.6089 -0.945237
4.45929 14.6415 -0.957554
4.5278 14.5661 -0.929859
3.00476 15.4528 -1.18744
3.05357 15.4606 -1.17174
1.7679 15.8014 -0.863363
1.79418 15.8086 -0.860142
3.68301 16.5726 -0.60149
3.71513 16.4822 -0.56915
3.02055 15.3512 -1.55607
3.03494 15.3425 -1.54018
3.01814 15.297 -1.56038
3.02641 15.3107 -1.5481
3.04372 15.2663 -1.51307
3.01886 15.2595 -1.55139
2.99633 15.3106 -1.59903
2.99054 15.262 -1.59969
3.04746 15.3553 -1.51476
3.06218 15.3465 -1.49909
3.07464 15.36 -1.47227
3.04896 15.3201 -1.51501
0.668851 15.5262 -0.0725104
0.633278 15.5168 -0.0156315
0.663448 15.5248 -0.031261
0.618129 15.5129 -0.0312631
0.587812 15.5054 -0.0156315
0.03277 15.4302 -0.41018
0.189674 15.4351 -0.470572
4.34091 17.816 -0.0173755
4.31614 17.8121 -0.0775101
4.30107 17.8107 -0.0343153
4.29383 17.8032 -0.00339139
4.26945 17.8048 -0.0101742
2.7446 17.1522 -0.582556
2.71214 17.129 -0.562068
2.94467 15.5816 -0.992464
2.95256 15.5998 -0.986745
2.92833 15.56 -1.00767
2.92443 15.5722 -1.01349
0.324949 15.4044 -1.27051
0.404184 15.418 -1.24654
0.390084 15.4124 -1.27098
0.361296 15.4094 -1.26828
0.371912 15.4143 -1.23192
3.16651 17.4231 -0.513645
3.20308 17.4418 -0.521981
3.18673 17.4328 -0.540428
3.12717 17.4017 -0.511078
1.80809 15.2701 -2.2503
1.88274 15.2775 -2.1996
1.95489 15.259 -2.32418
4.28238 17.8042 -0.323672
1.53744 15.3547 -1.57266
1.55941 15.36 -1.51837
1.62615 15.3461 -1.65545
1.60945 15.3608 -1.51021
4.79965 17.4458 -0.482152
4.79764 17.4255 -0.477197
4.77524 17.4007 -0.473232
4.06169 16.3942 -0.414694
3.99481 16.388 -0.435741
4.00848 16.4329 -0.438728
4.10223 16.4314 -0.408473
4.17836 16.3963 -0.380863
3.34508 15.0004 -1.93082
3.33876 14.9812 -1.94076
3.31336 14.9881 -2.00098
3.32872 14.9943 -1.9656
2.72992 17.1477 -0.34534
2.95454 15.4761 -1.1213
2.89547 15.4484 -1.1959
2.92643 15.4612 -1.16956
3.3832 17.5304 -0.508601
3.39868 17.5387 -0.453517
3.41722 17.5456 -0.509993
3.43077 17.5453 -0.5282
3.44137 17.5578 -0.502158
3.47522 17.5643 -0.52397
3.45683 17.5637 -0.478561
3.48954 17.5763 -0.510114
4.73932 17.4288 -0.478934
4.7031 17.3761 -0.471271
3.68803 17.6534 -0.473863
3.63673 17.6347 -0.463881
3.75858 17.6755 -0.493114
3.78852 17.6794 -0.503823
3.74338 17.6647 -0.506401
3.71255 17.6622 -0.48945
3.72944 17.6671 -0.461098
1.40891 15.4547 -1.18437
1.39482 15.4474 -1.19785
1.42453 15.4315 -1.23166
1.44196 15.4489 -1.19507
1.49316 15.439 -1.21604
1.47365 15.4303 -1.23499
1.01531 15.6507 -0.0155907
1.00107 15.6443 -0.0467675
0.983475 15.6372 -0.0506655
0.951117 15.6235 -0.0414597
0.925165 15.6125 -0.0636314
3.47565 14.7603 -1.65795
2.99975 17.3279 -0.00403678
2.98793 17.3269 -0.0242207
2.97373 17.3183 -0.0121103
0.342932 15.4425 -0.710848
0.395563 15.4481 -0.755927
0.39413 15.4492 -0.728195
2.76694 15.3212 -1.87521
2.82665 15.3143 -1.9261
2.77673 15.3121 -1.947
2.84207 15.3111 -1.90898
4.52074 17.8379 -0.0212352
4.46312 17.8307 -0.00983113
4.48826 17.8277 -0.00327704
4.48124 17.8329 -0.0241901
2.87904 15.2136 -1.81274
2.86248 15.2576 -1.86045
2.87855 15.2933 -1.82816
4.11248 16.9266 -0.492463
4.08347 16.8705 -0.49148
4.07145 16.9631 -0.51153
4.03231 16.893 -0.51182
0.887737 15.5933 -0.390869
0.838473 15.5759 -0.350547
0.850931 15.5819 -0.288534
4.23591 17.7993 -0.0452713
4.2038 17.7942 -0.0358859
4.22121 17.7968 -0.010258
4.14346 17.7828 -0.0458022
4.17276 17.7879 -0.010258
4.20253 17.7934 -0.0731584
4.25942 17.8042 -0.0360475
1.84706 15.2398 -2.44683
4.60188 17.8362 -0.469699
4.58532 17.8292 -0.478162
4.55409 17.8329 -0.470289
4.62225 17.839 -0.429488
4.57105 17.8344 -0.459197
4.56786 17.8357 -0.397497
4.53179 17.8323 -0.440888
2.3799 15.8058 -0.862206
2.34222 15.8213 -0.855901
2.34261 15.7735 -0.877623
2.35099 15.7916 -0.868475
2.38864 15.7649 -0.882156
3.57008 17.6159 -0.083193
3.55953 17.6118 -0.0109635
3.58906 17.6232 -0.0217978
3.62435 17.637 -0.0523329
3.63446 17.6398 -0.0719695
3.51385 17.5936 -0.0109635
3.4888 17.5795 -0.00497488
3.53177 17.5949 -0.00365448
3.4918 17.5846 -0.0596254
3.54339 17.6054 -0.0219269
1.04089 15.6416 -0.809075
1.08466 15.6624 -0.80415
1.07062 15.6577 -0.760283
3.88609 17.7206 -0.0104951
3.88188 17.72 -0.0272189
3.86388 17.7141 -0.0842795
3.79184 17.6928 -0.0106015
3.84611 17.7105 -0.0180146
3.81332 17.6998 -0.0297576
1.09688 15.6852 -0.329088
1.11132 15.6932 -0.291956
4.43606 17.0006 -0.432533
4.51364 17.0224 -0.425534
4.47526 16.9632 -0.42028
4.55244 16.9969 -0.416509
3.4779 15.9214 -0.60353
3.42972 15.8814 -0.627521
3.37983 15.8568 -0.657251
3.3183 17.5059 -0.237134
3.3229 17.5068 -0.316775
2.50517 15.3693 -1.4454
2.53069 15.365 -1.47344
2.54787 15.3675 -1.45646
2.53443 15.3596 -1.52147
2.56021 15.363 -1.48921
4.3808 17.8206 -0.139903
3.81426 17.6993 -0.134857
3.87802 17.7178 -0.168534
3.88019 17.7172 -0.25371
3.64519 16.4099 -0.592273
3.6098 16.4093 -0.611278
3.76916 14.3174 -1.25108
3.74983 14.3045 -1.25865
3.74055 14.3131 -1.27561
3.7212 14.3001 -1.28335
3.75276 14.3677 -1.27419
3.78847 14.3372 -1.23825
3.78677 14.3693 -1.24533
3.78804 14.3979 -1.24925
3.81299 14.351 -1.22096
3.83794 14.3744 -1.20535
3.90977 17.7232 -0.376933
4.82257 17.2433 -0.43931
4.78162 17.2738 -0.45121
4.81271 17.2759 -0.450539
4.72966 17.3135 -0.458987
4.78356 17.3174 -0.458852
4.82284 17.2934 -0.447721
4.81271 17.3258 -0.459345
4.8279 17.262 -0.430652
4.8279 17.3119 -0.439457
4.82448 17.3399 -0.453873
4.82809 17.2588 -0.389871
0.0163135 15.3561 -1.55831
0.00539779 15.3489 -1.57484
0.00543806 15.354 -1.52446
0.0163138 15.3611 -1.50783
0.0522459 15.3594 -1.52747
0.0603573 15.3549 -1.57454
0.101546 15.3559 -1.56078
0.0508829 15.3493 -1.62499
1.58423 15.4097 -1.28229
1.59541 15.4225 -1.25213
1.61986 15.4045 -1.29754
1.6339 15.4097 -1.28248
1.65596 15.4042 -1.29814
1.5596 15.4184 -1.26148
1.60654 15.4366 -1.22142
4.33005 17.8093 -0.440524
4.34842 17.8106 -0.468371
4.41135 17.8186 -0.473645
4.39046 17.8106 -0.48171
0.847719 15.3683 -1.44983
0.851441 15.345 -1.66464
0.824692 15.3588 -1.52941
0.898466 15.3599 -1.51839
0.875428 15.3629 -1.48942
3.22561 14.1543 -2.11023
3.23594 14.1689 -2.09364
3.23512 14.1608 -2.07376
3.24374 14.2151 -2.07165
3.24553 14.1753 -2.05728
3.25997 14.2511 -2.02061
3.25227 14.1964 -2.03679
2.6385 17.0813 -0.0183831
2.65195 17.0911 -0.0129303
2.67183 17.1069 -0.0333635
2.58837 17.0392 -0.0129303
2.6138 17.0602 -0.0258605
1.76014 16.1584 -0.218787
1.75435 16.1517 -0.291444
1.78512 16.1841 -0.180999
1.8247 16.2254 -0.183453
1.79601 16.1944 -0.246603
4.24851 16.711 -0.418817
3.60238 15.0678 -1.54843
3.62866 15.0729 -1.51995
3.61756 15.0116 -1.52111
3.20593 14.1431 -2.23995
3.20384 14.1577 -2.25569
3.20046 14.1366 -2.27682
3.19741 14.1284 -2.2573
3.19276 14.1218 -2.29448
3.19611 14.13 -2.31394
3.1993 14.1705 -2.29136
4.62978 17.8443 -0.0202075
4.65282 17.8454 -0.0104797
4.70203 17.8475 -0.0104797
4.57221 14.5501 -0.919298
0.872205 15.572 -0.796354
0.815968 15.5503 -0.829553
4.36039 17.0273 -0.450325
4.32422 17.0874 -0.468276
3.35439 15.3282 -1.14261
3.34497 15.3481 -1.15576
3.30027 15.3334 -1.19851
2.79777 15.7679 -0.880464
2.80357 15.7861 -0.870951
2.83749 15.7637 -0.88261
2.86084 15.7925 -0.868025
2.84264 15.7823 -0.872761
2.84858 15.8166 -0.85784
2.82017 15.7968 -0.865896
2.79699 15.8127 -0.859084
2.82371 15.8453 -0.846725
0.157415 15.3868 -1.28156
3.82309 17.7022 -0.082192
3.7562 17.6814 -0.0929816
2.66301 15.2512 -2.37673
2.70232 15.2574 -2.34209
2.68701 15.2628 -2.29887
2.72428 15.2522 -2.33179
2.70333 15.2592 -2.32242
2.7197 15.2618 -2.30587
3.52956 16.1271 -0.60753
3.84003 16.4864 -0.512876
3.05472 15.1143 -1.46942
3.06953 15.1067 -1.45573
3.08314 15.1216 -1.42808
3.09094 15.1524 -1.42215
3.12802 15.172 -1.37459
3.10257 15.1398 -1.40356
4.81154 14.4405 -0.454312
4.81165 14.454 -0.408205
4.82992 14.4742 -0.465217
4.82055 14.4486 -0.435622
4.82256 14.4412 -0.481439
4.82597 14.4685 -0.394799
4.828 14.4669 -0.426475
4.82808 14.5363 -0.456265
4.4678 17.551 -0.524911
3.20746 15.7405 -0.767724
3.19882 15.6901 -0.766284
3.21302 15.669 -0.750761
2.12879 15.9262 -0.820782
2.16017 15.9649 -0.811557
2.17543 15.9311 -0.819852
2.14338 15.8858 -0.831614
2.17711 15.9007 -0.827326
2.10978 15.8714 -0.836431
2.15202 15.8343 -0.850677
2.17035 15.8615 -0.840111
4.05628 17.0405 -0.53
0.269017 15.4374 -0.619141
4.38853 17.0702 -0.452906
4.34186 17.1291 -0.471863
4.26789 17.1095 -0.484038
3.31301 15.4246 -1.20166
3.30063 15.401 -1.21004
3.34195 15.3961 -1.16719
3.30814 15.3634 -1.19575
3.23947 15.3939 -1.2759
3.27572 15.4092 -1.23798
3.25806 15.3741 -1.25176
2.90066 15.5484 -1.03623
2.91725 15.5439 -1.01624
0.612569 15.4805 -0.977294
0.576449 15.4751 -0.929634
0.592437 15.4809 -0.890043
0.537059 15.4652 -0.947052
0.487159 15.4565 -0.906036
0.555325 15.4953 -0.268221
1.5169 15.9285 -0.787752
1.55714 15.9629 -0.727621
1.50206 15.9199 -0.733849
1.49316 15.9096 -0.808275
1.4543 15.8809 -0.817076
1.46981 15.8936 -0.787933
2.72265 15.7243 -0.903797
2.76473 15.728 -0.901667
1.02815 15.1847 -2.67747
0.388697 15.1961 -2.67397
0.37811 15.2081 -2.63807
0.396473 15.2098 -2.64078
0.436787 15.1961 -2.67399
0.450375 15.2077 -2.63974
0.458922 15.2033 -2.66426
0.455135 15.2145 -2.59994
3.2281 17.4627 -0.0570653
3.20118 17.4487 -0.0115701
3.23011 17.4638 -0.0229751
3.15764 17.4254 -0.0115701
0.774508 15.5534 -0.390277
0.829243 15.5714 -0.406302
0.780317 15.5536 -0.450687
0.849142 15.5777 -0.433793
0.903093 15.5966 -0.477481
1.77449 15.2258 -2.53231
1.84148 15.218 -2.57949
1.81374 15.2089 -2.64016
1.13899 15.6921 -0.749153
1.12656 15.6846 -0.776893
1.20958 15.7305 -0.734669
1.17043 15.7061 -0.796078
4.47269 15.818 -0.218705
4.5047 15.8707 -0.223721
4.54602 15.8043 -0.206759
4.45976 15.9295 -0.240149
0.493261 15.4838 -0.140664
4.7269 14.3841 -0.873031
4.75195 14.374 -0.864225
4.71397 14.3736 -0.866625
4.68905 14.3837 -0.875621
4.70711 14.412 -0.87928
4.65133 14.383 -0.879345
4.66398 14.4002 -0.880891
4.63168 14.4107 -0.886483
4.59374 14.4279 -0.894406
4.6226 14.4886 -0.901272
4.67145 14.438 -0.886744
4.47374 17.1639 -0.455964
4.41708 17.1685 -0.465378
0.374914 15.3705 -1.43646
0.402472 15.3596 -1.52155
0.340786 15.3763 -1.39888
4.2599 17.8023 -0.195
4.28307 17.8053 -0.267339
4.22247 17.7957 -0.219101
2.0015 15.471 -1.15673
2.04267 15.4568 -1.18106
2.03657 15.4735 -1.15276
2.0616 15.4645 -1.16701
2.07601 15.4082 -1.28692
2.04949 15.4152 -1.26989
2.06812 15.4325 -1.23246
2.02806 15.4281 -1.24172
2.02023 15.4473 -1.20037
3.68076 17.6564 -0.0403382
3.65166 17.6462 -0.0108343
3.68132 17.6567 -0.0215459
3.6054 17.6292 -0.0108343
2.77566 15.2885 -2.09382
2.78698 15.2775 -2.07961
2.7778 15.2731 -2.11121
2.76516 15.2803 -2.1394
2.77123 15.2424 -2.13176
2.76513 15.2664 -2.1589
2.78567 15.2271 -2.07533
2.77473 15.1907 -2.10792
2.79126 15.2926 -2.04992
2.80188 15.2838 -2.03251
2.80644 15.299 -2.00265
2.7947 15.2543 -2.05109
3.81722 16.5168 -0.528058
3.69224 15.9015 -0.4785
3.66533 15.9143 -0.494349
3.65943 15.9456 -0.502835
3.73032 15.9691 -0.471378
3.71535 15.8678 -0.460957
3.75364 15.9231 -0.45236
0.499542 15.3506 -1.61172
0.508043 15.3313 -1.78601
2.30806 15.3694 -1.4435
2.28331 15.3648 -1.47397
2.32448 15.3608 -1.50973
2.33295 15.3648 -1.47393
2.37455 15.3602 -1.51599
3.43292 14.822 -1.73529
3.42027 14.7821 -1.74957
3.45805 14.8665 -1.70349
3.4584 14.823 -1.69503
3.44312 14.7734 -1.71049
3.00145 15.3548 -1.57148
2.99502 15.3467 -1.59854
2.96163 15.3578 -1.55334
3.02728 15.359 -1.52944
3.00246 15.3576 -1.5436
4.3397 16.5469 -0.369815
4.26985 16.6014 -0.39439
4.3442 16.5976 -0.377897
4.3385 16.6502 -0.388368
4.14192 15.695 -0.266882
4.11483 15.6422 -0.265634
4.0937 15.6916 -0.280217
4.06971 15.6399 -0.278841
4.04559 15.6275 -0.288881
4.02481 15.6373 -0.293172
4.04574 15.6791 -0.29348
3.58753 15.0174 -1.55668
3.57705 15.0628 -1.57697
3.56883 15.0266 -1.5802
3.55218 15.0576 -1.60665
4.14586 17.7763 -0.00269897
4.1394 17.7815 -0.0125438
4.09551 17.7667 -0.00344321
4.07673 17.7682 -0.0103296
3.93568 15.0296 -1.25125
3.93011 15.0841 -1.2647
3.95287 15.1194 -1.25602
3.97126 15.093 -1.23994
4.23003 14.6014 -1.02247
4.2649 14.5562 -1.00129
4.2118 14.5618 -1.02303
4.21995 14.6529 -1.0357
4.18677 14.6251 -1.04472
4.2468 14.5394 -1.00506
0.0852351 15.4361 -0.123619
0.138219 15.4387 -0.117904
1.82262 15.7918 -0.86792
1.21744 15.743 -0.530853
1.21519 15.7432 -0.4797
0.326689 15.4348 -0.820549
0.269578 15.4257 -0.860232
1.64665 16.0532 -0.183553
1.63651 16.0445 -0.152574
0.291611 15.4522 -0.0549065
0.21856 15.4449 -0.0158453
0.234951 15.4411 -0.00528178
0.265232 15.4493 -0.0158453
0.258698 15.4487 -0.0616481
3.08526 15.0282 -1.87247
3.18191 15.0506 -1.74517
1.49836 15.392 -1.33832
1.47384 15.3852 -1.36079
1.44061 15.3945 -1.33013
1.39104 15.3811 -1.37676
1.41433 15.3877 -1.35223
1.4076 15.3777 -1.39293
1.44072 15.3811 -1.37676
1.45728 15.3777 -1.39292
1.43286 15.3736 -1.4182
2.19953 15.3425 -1.68758
2.25775 15.3573 -1.54589
2.38446 15.3471 -1.64498
2.89053 15.8864 -0.831537
2.89642 15.8507 -0.84481
2.87531 15.8532 -0.843465
2.83981 15.8855 -0.831754
2.82098 15.8703 -0.836972
2.83453 15.9647 -0.81164
1.81561 15.4677 -1.16268
1.84424 15.4495 -1.19435
1.85694 15.4581 -1.1786
1.85476 15.4152 -1.2688
1.87181 15.4299 -1.23639
1.83222 15.4271 -1.24279
1.82691 15.4455 -1.20312
1.59103 15.9928 -0.674611
1.65544 16.048 -0.667163
1.65476 16.0496 -0.615956
