45.4011224 24.5859958 -45.6575938
45.3956351 23.9266455 -33.2760252
45.3882664 20.0354829 -35.4181342
45.3373976 -89.3915668 -84.4510645
45.3282930 56.3158169 -67.4977526
45.3223921 61.7061779 -77.5347054
45.2902541 28.7141893 -20.7870528
45.1974720 26.4373329 -22.1307129
45.1801009 -58.8706359 -22.6287786
45.1681949 -17.2201954 -37.6160182
45.1649018 48.6532748 -68.5229003
45.1633111 -26.9528292 -47.7027744
45.1478288 22.9861848 -37.8181003
45.1263487 -93.2573974 -92.3394784
45.1055318 -74.5368153 -82.6220959
45.0665019 9.4229206 -31.2166493
45.0634509 -19.3102956 -39.5518504
45.0559482 7.0534009 -29.8472159
45.0528972 25.2768788 -24.5458744
45.0484902 -38.8776772 -59.8336309
45.0381413 18.8252758 -35.8936600
45.0270623 14.0162380 -34.5448367
45.0162031 76.7523497 -83.1506923
45.0136289 -4.2180624 -23.7293094
44.9985340 15.6062711 -35.8495228
44.9960716 -55.4166138 -22.3488696
44.9768305 -2.5105043 -27.9512722
44.9598134 31.1381128 -51.8132932
44.9594036 58.4062673 -59.5685206
44.9337065 -13.5621913 -32.3064439
44.9138880 -22.3095790 -42.2923453
44.8983088 -91.2238285 -84.4687819
44.8889658 23.0368786 -40.0051512
44.8706821 -20.9546201 -40.7911278
44.8647067 -12.3054460 -30.2722864
44.8625572 22.8376482 -30.1262178
44.8466763 57.6597825 -56.9406189
44.7831750 64.4029528 -42.9366194
44.7549634 58.6097538 -54.5398518
44.7528847 -56.9662526 -21.9777655
44.7370261 63.9565140 -45.1184362
44.7187573 58.5015342 -75.3516778
44.7018221 55.4584190 -62.4433048
44.6794964 -54.4149652 -72.6855248
44.6580462 61.5829565 -48.0428711
44.6505398 52.9446937 -67.6112920
44.6412936 -3.7608433 -22.3826896
44.6341485 -58.9047298 -24.5935973
44.6293056 93.5348868 -92.0351073
44.6271747 59.9880740 -54.4463284
44.6258858 -8.7570781 -23.7606727
44.6148477 -0.5092669 -26.5754499
44.6133502 24.8843208 -29.9495887
44.5607901 56.3447140 -65.9238398
44.5591137 56.2677719 -60.0358881
44.5572995 -11.3387620 -28.2797012
44.5454493 86.4554644 -84.3433067
44.5430242 26.3550859 -26.0600727
44.5283353 54.3533079 -65.2807951
44.5108004 23.4115701 -28.4388997
44.4946066 38.7166329 -59.0444952
44.4690399 92.8685740 -84.4771340
44.4561988 -94.1274762 -85.7152417
44.4523022 -56.7846820 -23.7070844
44.4460362 -18.3804948 -37.1323526
44.4285572 55.6366183 -69.7324052
44.4032662 6.6801123 -27.5580045
44.4010757 91.7477533 -92.9483622
44.3973206 -93.4060365 -84.4795555
44.3922542 -93.8377529 -90.2168900
44.3892218 -55.6614660 -23.1373589
44.2832634 36.0629521 -56.0671948
44.2775190 81.0738876 -83.8416591
44.2713127 59.3414716 -52.2421300
44.2625359 -52.9115871 -21.5571001
44.2557111 -35.5690941 -55.5132776
44.2274846 -51.4633879 -19.6059812
44.2189798 -37.1924490 -57.1640730
44.2125872 -16.3639095 -34.4899297
44.1528894 89.0005231 -84.4275057
44.1094264 20.9236443 -32.3599465
44.0456606 0.1792130 -24.5599095
44.0040119 -76.9821778 -83.0626413
44.0032445 -5.2118059 -18.8859496
43.9834520 -63.8984218 -78.1884417
43.9698957 -60.6601574 -76.3846859
43.8616313 50.8327484 -67.7223802
43.8390784 25.5791266 -43.7052473
43.8064709 16.5662635 -33.4697030
43.7862054 -16.5382139 -33.5202590
43.6291881 -8.5277352 -22.1427549
43.6181128 -24.0550376 -41.4831676
43.5985550 76.8562257 -82.9908699
43.5769297 -94.5918709 -84.4839513
43.5693637 28.0009396 -19.8067147
43.5674675 -16.0441939 -32.3947854
43.5539037 71.8604848 -81.5302208
43.5239300 94.3953842 -88.4096771
43.5035750 -9.6329330 -23.8249823
43.4997231 59.8939471 -53.1727560
43.4950627 -11.1926002 -26.2975916
43.4914380 -2.2467792 -21.0247934
43.4857123 59.0254329 -51.8905371
43.4604362 64.4312426 -42.9883189
43.4367210 60.3651740 -51.8788882
43.4351377 -13.8921468 -29.7728311
43.4317365 22.1656766 -29.6316352
43.4189774 -51.3946563 -19.6809657
43.4181429 -40.6906642 -59.8333627
43.4130207 -0.7717069 -22.1318994
43.3576405 62.4400340 -77.1664679
43.3383025 -57.6218255 -23.9034742
43.3126129 -55.2766994 -22.4752538
43.2974733 52.7873971 -66.0894066
43.2788320 47.1113883 -65.8617318
43.2672426 90.0866538 -84.4391659
43.2634912 57.9782277 -74.3087754
43.2584248 58.1296422 -57.7361733
43.2463214 5.6298627 -22.9631905
43.2220474 -51.5804812 -21.8513925
43.2142019 -79.8989013 -83.5605785
43.1699790 61.3319613 -46.8182862
43.1574397 26.8920735 -19.8712964
43.1382507 63.0700439 -45.3734510
43.1342609 94.7959945 -84.4839960
43.1080051 45.6003584 -64.3291995
43.1077592 28.5144467 -45.7716472
43.1035720 19.1570595 -32.0385210
43.0979729 56.4596951 -57.2353788
43.0863835 11.6473474 -26.6439244
43.0631191 -92.8206593 -92.9483622
43.0617295 26.7660767 -23.7709675
43.0613756 -22.6612724 -38.6252664
43.0599488 -3.5638667 -18.5149573
43.0501699 54.3986894 -62.5059158
43.0404507 20.2934425 -31.2410276
43.0113152 16.5264476 -31.3351899
42.9979302 55.2395508 -67.2069192
42.9471582 -71.8720257 -81.3956931
42.8896062 -1.7235706 -19.5270814
42.8890511 55.9762381 -71.5927109
42.8714119 -49.5468751 -19.5449237
42.8508446 48.9144661 -66.5542930
42.8136401 24.9112453 -40.6982228
42.7991897 2.5520157 -20.1576371
42.7975729 25.7320814 -26.0978155
42.7928120 -61.2973534 -27.2216350
42.7880362 85.9897658 -84.2625201
42.7838378 -66.5825382 -79.1362152
42.7129678 37.4070406 -55.5130653
42.7113026 51.4513738 -66.2875101
42.6691622 22.8839554 -27.3669716
42.6617675 16.6966319 -30.5064768
42.6549017 57.2360754 -59.4632588
42.6042154 -12.7741517 -26.0970555
42.5984263 -94.9826911 -85.7152417
42.5847247 21.0228004 -29.7128689
42.5706394 94.4519714 -92.3395306
42.5568894 53.2508641 -64.4304678
42.5558202 -11.5985973 -24.6480983
42.5512083 27.3399316 -21.6478612
42.5427780 -55.3159341 -23.4022457
42.5409153 -5.7031387 -17.8675950
42.4749143 -58.8879883 -25.6423801
42.4476825 -58.2855903 -74.1736367
42.4439050 9.1925310 -22.2717784
42.4216278 -89.5081088 -84.4199732
42.4200594 55.2826747 -69.8369965
42.3655696 -58.9682050 -27.3203142
42.3432998 59.0883754 -53.6600389
42.3427336 18.0435032 -30.5013880
42.3393436 61.3732561 -48.1115282
42.3382893 24.0139663 -32.2840400
42.3237868 -56.7925423 -73.0658472
42.2770754 8.0717010 -20.7677297
42.2767363 -10.3690494 -22.3221947
42.2589667 23.5396717 -25.6657749
42.2413163 24.2885984 -37.6956090
42.2155783 -56.8695180 -26.4751967
42.2119498 -28.6518969 -44.2941561
42.1932973 -24.6210601 -39.1036607
42.1671942 64.3176511 -40.5961685
42.1535000 61.4081770 -76.0664567
42.1375073 -34.8615870 -51.8139750
42.1349779 -52.4955690 -69.6472600
42.1247594 -94.6892649 -92.0350328
42.1174988 -21.7994265 -35.2827311
42.1157815 -39.0667021 -56.6184595
42.0457385 93.2301283 -84.4735280
42.0440920 55.0036319 -65.9974068
42.0305654 -8.4815137 -19.2748401
42.0250781 -51.3507649 -23.1833663
42.0188382 -55.5254146 -25.9747170
42.0181639 55.3285852 -58.2725704
41.9432782 24.0062419 -34.0604521
41.9293195 -1.3860021 -16.2371378
41.8898836 -19.0549269 -31.1542209
41.8790840 59.5157258 -48.7324521
41.8719575 -2.6268619 -16.2371676
41.8340154 6.2924707 -17.7492853
41.8149456 54.3847606 -60.3416078
41.8090746 74.6645555 -82.1190625
41.7772345 -16.0967186 -27.1027610
41.7693555 -17.3085071 -28.5814218
41.7541377 57.4198849 -73.1514767
41.7075232 -49.1010398 -21.8721852
41.6948982 -91.4660469 -84.4532028
41.6877940 -63.8332218 -77.3147196
41.6514091 15.8195347 -26.3665896
41.6508466 28.7475456 -43.3617607
41.4931998 56.9654144 -53.5473414
41.4289385 95.5025926 -85.6130570
41.3980186 -14.6878911 -24.1347756
41.2941352 20.0622175 -27.9650986
41.2917882 -76.3626471 -82.5227052
41.2739180 -68.5957894 -79.6394646
41.2273630 5.0315228 -16.2372962
41.1347374 63.4017140 -76.8593699
41.1119126 -84.0964243 -84.0117559
41.1109552 2.8704440 -16.2372962
41.1021523 31.3777775 -45.8325818
41.1014147 53.3161759 -61.8711859
41.0783850 -9.0191048 -16.7183615
41.0739705 -37.2968204 -53.2576665
41.0559587 -16.4798927 -25.2655558
41.0424657 8.9714648 -16.5025108
41.0044603 -14.3382372 -22.3293081
40.9565158 19.5646472 -27.3002423
40.9485772 -56.7891784 -28.1654075
40.9319066 16.2396152 -24.5301668
40.9088321 -95.6897736 -86.3125175
40.9085639 58.4534071 -53.1726927
40.9078151 24.7338098 -21.6754861
40.9012437 25.1909457 -20.8684262
40.8803411 24.4697649 -29.9350973
40.8574790 -23.6062966 -34.6091390
40.8456288 -57.8648299 -73.0655342
40.8363268 14.7776948 -22.2716983
40.7953151 56.5419719 -71.8485713
40.7837145 29.3897446 -42.5811820
40.7741927 54.5320138 -67.3159063
40.6555608 12.9426979 -19.2605127
40.6478159 24.6923007 -28.4188800
40.6464934 -63.1887019 -29.9004782
40.6363085 18.2287190 -26.0647647
40.6238027 55.2961119 -61.9323328
40.6155810 58.2688339 -49.4759940
40.5933037 95.3180864 -92.3395306
40.5787751 -21.7522234 -31.2153958
40.5648686 -14.4117670 -20.8475552
40.5640565 -10.6991753 -16.2372142
40.5639373 -12.6591120 -18.6107904
40.5486189 -7.1011758 -16.2372962
40.5329280 93.3534354 -84.4663009
40.5248143 -17.4225233 -24.8054620
40.5223705 56.8415932 -52.3170568
40.5183770 10.8743031 -16.2370242
40.5095592 -48.9694886 -23.4486181
40.5043364 24.5121662 -31.4449109
40.4868275 25.1202155 -26.0917675
40.4820219 -28.5713151 -40.8505425
40.4689945 48.1037162 -63.8729408
40.4395163 25.7340074 -23.9633825
40.3938890 -20.3942377 -28.7049729
40.3905362 88.8064057 -84.3571126
40.3518341 50.8161783 -63.6922345
40.3344184 62.9285127 -40.8630855
40.3275974 -78.6235929 -82.9808116
40.3247923 22.8074193 -23.9023548
40.2942821 -46.4473665 -21.4931089
40.2554423 -20.9753625 -29.1627925
40.2524546 67.6186681 -78.8744539
40.2400829 95.7175642 -89.9154544
40.2150005 77.9816881 -82.8120932
40.1952714 26.9273892 -37.8825814
40.1722901 -52.9567450 -26.9795246
40.1453301 12.3800728 -16.4975952
40.1301011 -2.8284935 -16.2372962
40.1054136 -51.5715890 -23.8199681
40.0421172 -50.6113730 -66.5348247
39.9828777 19.4119196 -24.9236543
39.9213582 -43.6540693 -59.3069606
39.8492329 59.9253327 -48.1171124
39.7656746 -7.5082248 -16.2372962
39.6480598 -94.6940929 -84.4755545
39.6244675 14.8473252 -17.8303309
39.5750813 36.3898277 -50.0534847
39.5632647 -48.7336479 -22.1621692
39.5568721 -95.7518518 -92.3394784
39.5263471 -62.9632100 -31.3544646
39.5235308 20.0950559 -23.9077583
39.5147987 62.7411231 -42.0875214
39.4935757 -19.6492318 -24.8053074
39.4675545 52.5745824 -60.5829433
39.4445658 56.3959181 -56.3235134
39.4401178 59.4750978 -45.5484279
39.4360088 65.4732585 -36.2745859
39.4210964 25.9967316 -19.5403099
39.3830650 -61.4236519 -74.8816654
39.3748581 25.8791558 -34.2863947
39.3744782 -46.2104194 -20.1720484
39.3439345 65.1547611 -37.9198566
39.3407717 54.3188415 -67.4154237
39.3254608 14.9149531 -16.7031474
39.3133350 47.1908785 -62.1939972
39.3114239 -58.9717627 -29.8953466
39.2822102 84.9653408 -84.0127021
39.2747372 8.7005021 -16.2372962
39.2700583 58.3767854 -72.6411119
39.2691381 -13.7899434 -16.2372962
39.2577201 54.0703200 -63.4385273
39.2550081 -54.6197854 -29.4991862
39.2423384 -56.3897602 -28.5099819
39.2271280 -47.6658307 -24.3084766
39.2201431 58.0001473 -51.6908541
39.0980914 50.3858365 -62.2624457
39.0868708 56.7749664 -54.6400361
39.0619859 64.2423406 -39.0643142
39.0328243 -65.2205050 -34.3997516
39.0069187 56.9537729 -49.7280434
39.0021428 -59.1416508 -32.2562233
38.9981195 -41.4952189 -55.7906814
38.9929339 17.4320992 -19.4490105
38.9508829 -55.1669039 -28.1486269
38.9157459 -65.5588657 -77.3142576
38.8621725 -64.9373680 -32.8966677
38.8230383 -58.7368272 -72.6842731
38.8200246 19.4053818 -21.7700303
38.7894101 27.7341157 -36.0108763
38.7707986 54.7892004 -59.8366410
38.7615934 53.2783829 -57.5126298
38.7492254 -73.8728270 -81.2607110
38.7433171 -48.9101484 -26.1866786
38.7320146 -87.2269869 -84.2092633
38.7017243 -69.7314292 -79.4707313
38.6884771 25.2905544 -29.9507957
38.6764891 60.4918227 -45.3450456
38.6572368 20.8333042 -21.7929911
38.6432298 -51.7455228 -28.5816677
38.6353396 61.1273386 -44.0415591
38.6298150 -21.8332782 -25.7241558
38.6183001 55.5787086 -69.7767809
38.6100374 44.8952653 -59.4004989
38.5897197 33.3705619 -44.2938469
38.5571681 -16.5300928 -16.2370708
38.5203585 -17.5380111 -17.8446788
38.4976007 -44.6472652 -19.9818239
38.4586863 41.8871641 -55.6610897
38.4222120 23.5167909 -20.1556925
38.3765735 -43.6387695 -21.7913724
38.3523442 96.6910645 -87.2102529
38.3391604 -89.2176777 -84.3321159
38.3280180 96.8390852 -84.4840035
38.2719114 58.9845292 -47.9477234
38.2458530 -48.8157235 -24.2019314
38.2125862 89.1077518 -84.3204185
38.1698050 30.1893782 -38.6251509
38.0837433 -64.5659119 -35.3887156
38.0821452 -43.3943346 -19.6100026
38.0120985 -63.0392283 -75.3969029
38.0041972 26.5993327 -32.2734490
37.8864817 -19.3908643 -18.8184772
37.8581621 -59.2352375 -32.2368778
37.8569625 -56.5875806 -30.7531096
37.8355533 -46.6144010 -22.7563251
37.8173478 19.3980485 -18.5818635
37.7908498 -58.4129281 -71.9050765
37.7831571 22.8443574 -19.6340941
37.7478004 66.2220716 -35.3764892
37.7025269 21.4088205 -19.6943376
37.6988836 -35.6060192 -46.1384356
37.6169160 93.9451382 -92.9483622
37.5733376 -90.6826854 -84.3846202
37.5526100 29.3579772 -35.9541029
37.5520140 -69.6681440 -79.1358128
37.5159718 33.3658494 -42.4251407
37.5123359 26.2420010 -30.1451236
37.5005975 -62.8264621 -34.3698226
37.4819115 -42.6497646 -55.5119962
37.4711379 -50.9839319 -30.0811306
37.4450944 13.2238660 -16.2372962
37.4093540 54.7191352 -51.7384559
37.4054238 51.0850661 -59.3756698
37.3979807 15.1696913 -16.2372962
37.3901464 -22.4482287 -22.9634177
37.3567715 25.6621353 -26.3498519
37.3405814 53.3192530 -63.8311580
37.3393185 43.5713194 -56.5178171
37.3227485 58.7835051 -43.8267551
37.3102911 56.2048852 -69.8047504
37.2786932 -83.8481188 -83.7303698
37.2779854 92.0919627 -84.4214559
37.2729599 60.1699650 -44.0982617
37.2479856 18.5530800 -16.2372962
37.2328833 -30.5477232 -37.2937806
37.2164398 -96.8724787 -84.4814479
37.2008011 -67.1742707 -37.6570560
37.2001603 53.2652661 -61.9821176
37.1811949 25.0546243 -19.2778427
37.1538699 61.7675371 -38.9152020
37.1423326 97.2459689 -85.7158005
37.1410437 -95.7056284 -84.4755545
37.1404923 25.7249065 -21.9384488
37.1180400 55.9394769 -53.3565655
37.1021032 -40.3933302 -52.1031134
37.0947644 -88.9236927 -84.2816904
37.0471068 53.2893948 -54.2454794
37.0434299 53.8286678 -66.1537200
37.0282494 57.1947843 -50.0743836
37.0278321 -53.2748736 -29.8525952
37.0075852 -77.8437853 -82.3176876
37.0036960 62.7980828 -37.2873582
36.9835012 -66.8892115 -36.2745859
36.9725227 -86.6622031 -84.0842128
36.9292982 -97.3270983 -85.7152417
36.9169265 -17.4967516 -16.2372962
36.9050428 -49.0430146 -26.5665054
36.8934013 56.1234429 -48.0030142
36.8800461 -18.5815357 -16.2372962
36.8700288 96.8418345 -84.4812542
36.8383825 -55.3560518 -34.1770686
36.8355587 -63.1993264 -37.2951925
36.8355066 -48.9034206 -29.6002235
36.8326716 96.8705565 -92.0350999
36.8189178 56.7503348 -46.6962084
36.8049182 -41.2861519 -22.0007822
36.8011221 76.5700042 -81.8862319
36.7885903 53.4035973 -60.0238293
36.7715657 -46.4100949 -24.2848936
36.7686264 -41.4991677 -19.6291786
36.7494635 54.4822365 -67.4620122
36.7377214 44.3889387 -56.9058731
36.7374197 -95.4224765 -92.9483622
36.7369317 78.6535367 -82.5276971
36.7306732 -64.5840913 -37.7422795
36.7298275 -56.9428205 -32.8209363
36.7282853 58.8898323 -45.8704717
36.7238335 -97.2623527 -88.1092548
36.7181264 -44.7020195 -25.9069502
36.6987325 47.3031662 -59.3328103
36.6883278 -59.3439676 -36.3880284
36.6728120 -54.0073663 -33.6853787
36.6705768 -28.8196579 -33.0298431
36.6323926 54.6766296 -55.8676906
36.6320834 64.8076758 -34.3102142
36.5600549 -51.2143672 -31.9783539
36.5563370 66.2371367 -32.7693410
36.5553945 60.6439784 -39.8121066
36.5488082 52.1696061 -55.8889396
36.5066454 -43.0166796 -24.5420262
36.5044363 73.6348927 -80.7204172
36.4883654 -21.6416679 -18.2529390
36.4832841 58.5071221 -71.3098794
36.4785157 46.0254662 -58.3297312
36.4709012 -97.0073491 -92.0350328
36.4559777 -80.8305442 -83.0582678
36.3977030 -74.0328953 -80.8522701
36.3865197 -56.8434186 -35.8467065
36.3274366 -20.9814589 -16.2372254
36.3228917 -45.4856381 -27.4587180
36.3016464 -60.5976805 -37.5843272
36.2754762 21.0771468 -16.2369199
36.2743661 26.0489061 -24.3802425
36.2076908 -39.3034555 -49.4151674
36.1687019 -43.4209220 -22.1436378
36.1653827 -30.6791086 -35.2811515
36.0660627 -46.4513898 -58.7774068
35.9943993 91.4827287 -84.3863264
35.9886028 -39.4667648 -21.0396647
35.9771736 -28.6429338 -31.0496427
35.8933061 -42.1551093 -53.0509129
35.7126817 -29.1224290 -31.3409828
35.6531143 -62.1806756 -73.8090128
35.6234424 -48.8505103 -31.9764987
35.5951376 -65.4284135 -76.0623664
35.5920456 -38.7379341 -19.7330285
35.5861075 -97.8096724 -86.0138759
35.5843753 62.7986640 -37.5113450
35.5807096 -63.5010749 -37.8409550
35.5593748 -95.8174244 -92.9483622
35.5573297 -42.4412526 -22.0962800
35.5497524 43.4937961 -54.4898547
35.5495214 64.4596517 -35.1213142
35.5378091 66.7062625 -32.3155113
35.5375260 -57.8797795 -35.4546905
35.5263799 35.4767777 -42.4253307
35.5108008 52.7095869 -59.6186481
35.4811475 26.9940142 -26.2604132
35.4771949 -53.1209931 -32.4484482
35.4695432 -59.4760403 -36.4135429
35.4278013 -63.1622821 -39.9962142
35.4036987 -26.7981067 -25.8252490
35.3891701 -65.6612441 -38.7594514
35.3705026 -23.2066941 -17.7506693
35.2936424 18.6682008 -16.2372962
35.2822356 42.1979353 -52.4016991
35.1738706 54.8161902 -67.1670809
35.1433642 50.8811586 -55.8174551
35.1329222 -88.9015347 -84.2221975
35.1315849 -50.7577248 -34.5643125
35.1211019 52.4638779 -52.3910671
35.1063274 -38.5820307 -21.9895057
35.1000056 -68.4283376 -77.7578652
35.0913368 60.5478287 -40.4729843
35.0842699 64.6902993 -32.8042321
35.0821875 -70.1912194 -78.7396133
35.0801647 67.9388270 -77.4679109
35.0203887 -43.4759110 -24.2484752
35.0202024 -42.9715514 -27.5001042
35.0176729 -52.5134094 -64.7914186
35.0054801 60.3588037 -38.1907374
35.0007191 -39.5337120 -48.1294841
34.9800661 -69.5195869 -41.1699712
34.9532738 -33.8556804 -38.6248268
34.8835178 -47.3443009 -58.7772913
34.8365903 -59.3498461 -40.1344448
34.8216891 -64.4938424 -39.5147987
34.8216109 37.0935947 -43.9838022
34.8165333 26.5304130 -22.4050861
34.8111466 57.5181171 -45.7253717
34.7968452 52.5711440 -62.3240508
34.7633027 -48.9529110 -30.3000174
34.7347856 -51.3063073 -32.4012190
34.6945636 -67.1285763 -40.2889922
34.6902572 61.2685755 -72.6877451
34.6899368 45.0591370 -55.4937273
34.6596651 -48.9389487 -34.1271386
34.6514769 56.3102737 -48.0503328
34.6509144 -55.3103983 -35.5417170
34.6403196 48.4832190 -56.6985458
34.6174911 58.4149584 -40.5223072
34.6131548 96.6249630 -84.4173208
34.5727690 98.2052386 -85.3110626
34.5694423 -59.3375415 -38.0288064
34.5504247 -41.1522426 -22.3961249
34.5244780 54.8930466 -46.3589653
34.5199183 31.1396532 -32.5771458
34.5009342 27.3059998 -24.2739506
34.4972089 66.7258948 -29.8266374
34.4934762 -63.2694885 -41.9762805
34.4868265 51.1985980 -53.9562553
34.4838426 -98.2559100 -84.4833478
34.4798230 21.6723029 -16.2372962
34.4674997 -64.2908663 -74.8668462
34.4383977 -45.4080179 -31.3434564
34.4281942 55.1695228 -50.2982773
34.4244875 -43.8195616 -29.7192074
34.4203338 53.4553938 -54.7240265
34.4086923 -45.1851897 -27.2469223
34.3981199 24.0590125 -16.2355583
34.3980268 -37.0929055 -19.5802674
34.3391262 80.4055557 -82.7190205
34.3189165 98.3530134 -83.8339850
34.3135521 27.9969499 -25.4196301
34.3114249 52.9227369 -55.9951328
34.3020670 -36.8995704 -42.8325050
34.2846438 -22.0434982 -16.2372962
34.2779383 -46.9570123 -29.3207914
34.2670418 -27.4911877 -24.1557974
34.2543609 61.6875105 -35.4330093
34.2375860 -51.7013855 -37.2624435
34.1783464 -41.0827138 -27.1688104
34.1663994 -65.5958503 -42.9759920
34.1431908 29.1866623 -27.5984611
34.1308229 -56.9032058 -40.6585969
34.1285467 98.1599167 -88.7104794
34.1030918 59.6067831 -38.0288064
34.0807177 -24.7686971 -17.0438588
34.0688787 -69.8534623 -42.9883189
34.0303257 53.6105447 -64.9230704
33.9928158 -55.5981658 -40.3058641
33.9799076 -35.0997634 -39.1034633
33.8763967 25.8721020 -18.4742808
33.8605866 -26.0564126 -19.5037965
33.8599868 -58.4078915 -69.8541328
33.8215008 -39.8943350 -47.0915064
33.8057876 -98.0635881 -91.1245644
33.8031650 -77.6081458 -81.7613378
33.7868445 -48.8881543 -32.1407579
33.7738059 58.0846220 -42.9601409
33.7578282 34.3481041 -37.2941159
33.7540023 -86.3207132 -83.8790163
33.7337740 -56.8546355 -68.3433563
33.7160937 45.0458862 -54.2881638
33.6528905 -56.1982207 -38.0815081
33.6422250 -39.4519307 -26.3756029
33.5944556 95.7957804 -92.9483622
33.5859768 71.6640055 -79.1377723
33.5431732 -73.6952946 -80.1148787
33.4332399 -36.8845537 -41.4085835
33.3987996 -36.7025882 -23.3231727
33.3948545 -91.9841006 -84.3692124
33.3716311 98.1166884 -92.0350999
33.3714299 -41.1225073 -24.6449653
33.3398581 -55.1162474 -38.0227715
33.3084539 -39.1480140 -45.1464020
33.2508571 -27.8449859 -22.0627729
33.2424529 52.7896993 -48.0666608
33.2369879 28.2469243 -23.0007768
33.2345590 -32.4564949 -32.4669629
33.2262479 -43.7398627 -32.4283019
33.1775136 -45.8730049 -55.2327149
33.1688188 -33.3488546 -34.1789201
33.1587829 55.0739057 -43.6748043
33.1569314 56.5092228 -41.2787311
33.1449099 -36.8303545 -20.0360678
33.1406444 -29.4359047 -25.5618356
33.0875777 -62.1497184 -72.6833120
33.0791585 -67.5046071 -45.4328768
33.0774412 -41.2074961 -29.8826434
33.0736600 -44.5446633 -53.2559827
33.0373608 31.7513682 -30.5315368
33.0296531 -59.0645261 -44.2061685
33.0285765 74.5898709 -80.4254636
33.0243818 -51.7428257 -40.2132310
33.0199450 25.4668500 -16.2372962
33.0068171 -46.4032143 -55.7901002
32.9974145 -50.9176739 -61.5263730
32.9811983 50.7083125 -51.9009456
32.9780616 -49.0005165 -38.1722301
32.9396091 -69.5711300 -45.5258712
32.9178236 47.0101498 -54.2885438
32.9129435 -31.5870568 -29.8907887
32.9092331 -46.3461280 -35.9149277
32.9018719 52.7442321 -53.3878542
32.8689963 -70.8427057 -43.9760946
32.8605101 -48.8315448 -33.9934416
32.8526609 55.0699346 -66.0460889
32.8314155 -34.7684845 -19.6146183
32.8166261 60.2576584 -37.8506593
32.8012258 55.4501899 -46.6362685
32.7883102 28.5449084 -22.4441867
32.7655897 -56.9999516 -40.4158607
32.7499919 -36.7991440 -40.1398838
32.7389166 -48.1026135 -33.5619859
32.7296406 76.5774697 -92.9483622
32.6997004 -54.7928624 -65.6569302
32.6679461 53.1126261 -51.9087464
32.6483585 -41.0867780 -26.0542706
32.6357707 -55.6122102 -39.8356728
32.6201133 -66.9689551 -44.3650410
32.6141939 -49.3630990 -59.3207106
32.5983986 90.8562839 -84.2863768
32.5867161 -34.9037461 -36.1842960
32.5820893 -41.6270271 -48.2539721
32.5795263 -50.3875613 -35.9909423
32.5680375 51.6657084 -55.9128597
32.5281061 -95.1131359 -84.4487771
32.5094797 -35.7044749 -37.6336873
32.4969068 -46.6935337 -37.3073369
32.4484482 -98.4883234 -91.4280564
32.4408300 51.7269410 -59.9379763
32.4395187 -30.6364875 -26.0436293
32.4199498 -27.5562145 -18.7707357
32.4123278 -35.1066701 -23.4265849
32.3964134 -63.8795570 -73.7642422
32.2864354 96.8052074 -92.9483622
32.2834291 -98.7376273 -89.3118531
32.2807468 -38.2934548 -42.1326980
32.2733410 36.0835381 -37.9600413
32.2699882 -43.7813736 -30.0379787
32.2013833 -49.0860082 -40.2627438
32.1418792 -28.7304390 -20.5123611
32.1164764 -56.5073043 -45.4629213
32.1025848 -43.9519137 -35.5203822
32.0721790 -51.4780991 -38.0243100
32.0687592 37.2657180 -39.8994051
32.0439413 -65.5346513 -47.9891784
32.0108309 49.4633019 -51.9101024
31.9919400 99.0761667 -85.3110477
31.9811255 -67.3535764 -48.1115282
31.9785438 -33.1910737 -22.1592858
31.9745205 -44.6319431 -52.2067659
31.9701545 -63.2312372 -47.9804575
31.9615602 53.5523556 -44.2239195
31.9162160 -30.1493220 -21.8566302
31.9097638 -31.0306083 -23.3981851
31.9073051 -55.3957149 -45.4605557
31.9045037 -78.7526816 -81.8795562
31.8590999 -33.3973318 -23.4762542
31.8478569 55.9363142 -43.9086892
31.8225175 -67.5886273 -46.1356118
31.8165123 -44.9114814 -32.2864130
31.8019688 -73.8909170 -79.8388049
31.7722335 25.1376480 -16.2372962
31.7656472 -33.4568657 -30.3038564
31.7478590 -36.4555493 -21.8144376
31.7432731 83.1256881 -83.1392258
31.7117013 -63.3548945 -45.5623530
31.6870101 -93.2205692 -84.3953341
31.6662267 52.5029376 -45.5875210
31.6626653 -38.4829491 -24.8091687
31.6586532 43.1461520 -49.5639071
31.6517167 -59.1452830 -44.0368354
31.6467024 -58.9375980 -69.2022145
31.6413641 -32.9816639 -27.4467245
31.6341631 -34.8525085 -33.3304182
31.6316448 -59.1925904 -47.8978753
31.6245109 -61.5032017 -71.5060085
31.6147134 -51.7485216 -43.9681821
31.5902457 -71.0057393 -46.6504060
31.5426998 -73.1107518 -45.8978191
31.5395221 -43.2655700 -49.5500602
31.5257162 -96.9499946 -84.4716355
31.5245986 -29.8938379 -19.9641045
31.4822122 -66.7832643 -75.5662546
31.4665399 -38.1938741 -40.2098186
31.4509720 -52.8635271 -40.5372232
31.4418785 -34.4234779 -27.3108352
31.4034596 59.1211207 -37.5952274
31.3917398 31.0845897 -25.0347946
31.3894749 -40.8111438 -33.7573737
31.3839763 -37.4710113 -29.8381709
31.3805789 -34.4734490 -29.7984593
31.3730948 -65.6287074 -74.6996403
31.3652456 57.9777919 -39.3801369
31.3599259 47.4879891 -51.9563630
31.3459858 97.0132127 -83.7978497
31.3435271 -41.0627946 -45.4661995
31.3395038 -64.6849200 -46.7568412
31.3356668 -56.8755567 -47.7985144
31.3046239 -46.4088358 -40.2841158
31.2978476 -48.8986149 -42.6104404
31.2466249 92.5398842 -84.3543559
31.2431920 51.2465797 -58.3929569
31.2429089 50.1442328 -49.4054444
31.2412418 67.8549334 -76.2258619
31.2226489 65.8546165 -29.0033258
31.2160049 -99.3428007 -84.4833478
31.1703645 -56.9672659 -43.9791791
31.1634652 -63.0098432 -50.1382872
31.1405789 -64.9167001 -50.3736362
31.1383586 -51.0307737 -60.2380186
31.1319325 -99.3334725 -85.7152417
31.1160237 -26.0430817 -16.2372962
31.0844742 -54.6011180 -42.6656641
31.0830176 -38.9657617 -32.7577293
31.0698152 53.3820689 -47.9032733
31.0669970 -51.7279804 -61.0490106
31.0527589 44.7619744 -50.6500080
31.0341157 -49.0256548 -38.2474437
31.0179908 98.9477262 -91.4281681
30.9781041 62.5409558 -32.3316902
30.9736878 -55.4024838 -48.1166244
30.9735779 66.4245710 -28.2074567
30.9452284 -46.4753360 -35.9432250
30.9211351 61.2108409 -33.9342132
30.8912955 -59.1686703 -45.8226278
30.8820643 -53.4755513 -63.0127266
30.8766291 -40.9930237 -29.7984127
30.8684800 57.6582886 -35.9988660
30.8681075 -43.2335064 -38.1468087
30.8624785 -33.2183950 -19.3707235
30.8589693 29.0500242 -18.1224979
30.8437012 -70.8003268 -48.3297482
30.7695996 -50.7896766 -45.7204171
30.7668876 -69.4961250 -51.0079674
30.7662375 -38.5832340 -37.6845635
30.7649001 56.4239211 -37.5531912
30.7607986 -42.5669812 -46.8459837
30.7441708 -69.2842603 -77.0109966
30.7330005 60.3020936 -32.5003602
30.7269767 54.8571981 -39.8377068
30.7243597 99.2069617 -89.6137804
30.7081062 -41.1986113 -43.9077355
30.7003707 -83.1987187 -83.0582827
30.6847617 -38.7208834 -36.0694379
30.6708757 -38.7745276 -27.2766128
30.6372587 53.3867702 -62.7430975
30.6126941 -67.1473742 -51.7987050
30.6073111 -73.6644492 -48.3689904
30.5923745 99.6322632 -81.7820281
30.5869337 34.8063819 -32.1239904
30.5762701 50.8804880 -46.5088636
30.5733550 -56.1031587 -65.7569245
30.5685569 -41.5871590 -37.6313664
30.5652581 50.8863367 -53.4828454
30.5644237 -44.7031073 -40.6868905
30.5418745 58.9652359 -33.8273682
30.5394754 99.6414796 -79.2845264
30.5298101 -26.9987360 -16.2372962
30.5162296 -46.6959104 -53.3441156
30.4962080 30.6653511 -21.6049962
30.4837041 -73.4902248 -50.4326671
30.4750446 64.5214021 -29.5325629
30.4593630 68.1512803 -26.2266491
30.4204300 42.1155840 -46.3584512
30.4187462 -75.2000883 -49.0818098
30.3822719 -80.7230249 -82.3341310
30.3654782 -49.0267240 -56.6435680
30.3613227 -49.3336469 -45.7914323
30.3412564 99.6299088 -84.5016092
30.3216744 81.0128301 -82.4252442
30.3205363 -59.6156381 -51.8555716
30.3139165 65.6595305 -74.3551031
30.2833132 40.8824757 -43.9844467
30.2806739 64.2619506 -27.8706048
30.2767567 -51.1744432 -47.5249439
30.2619450 -41.5378734 -40.2376056
30.2570183 86.9570822 -83.7819651
30.2491058 29.2981174 -16.9588719
30.2418675 -45.3448147 -50.4223257
30.1684160 67.6233843 -75.7350177
30.1619582 -39.9323180 -29.9612153
30.1433653 -46.5342924 -52.2631258
30.1365685 -53.2801971 -44.0204963
30.1147513 -56.8975210 -46.5041399
29.8852772 -57.8695647 -67.1670884
29.8781712 75.5789503 -80.2725852
29.8761968 -44.8677912 -43.8532792
29.8732594 99.5610878 -88.4096399
29.8612174 -48.2175723 -40.3356776
29.7905132 -44.6900055 -46.3889092
29.7866557 -47.6386510 -46.2002493
29.7742691 -79.3652236 -81.8040073
29.7626313 -99.7360945 -86.0138759
29.7520794 -51.8155955 -59.6635565
29.7421627 57.2742969 -66.5382296
29.7221653 -40.8061072 -32.0342667
29.7117438 -59.1584966 -53.6343046
29.7058206 -45.6598587 -38.0954929
29.6899527 -54.4615798 -46.0148156
29.6884738 52.3137674 -47.4560447
29.6672154 -58.5945956 -67.7843839
29.6522509 -61.1755811 -49.7624427
29.6472702 -49.3488126 -48.0903499
29.5542534 -68.1224465 -75.8908689
29.5360684 58.7418862 -35.3746861
29.5307711 66.7899251 -26.4290515
29.5126196 -56.7132235 -47.9336306
29.4817369 37.1471755 -35.2820419
29.4755790 28.1557702 -16.2372962
29.4596888 53.2297380 -40.1523411
29.4575151 -51.5125282 -44.3546735
29.4532087 50.9887151 -43.9912230
29.4322204 -59.4024956 -49.5769940
29.4309892 42.4016640 -45.6230827
29.4259284 -57.7428974 -54.0711023
29.3997731 -47.1677892 -48.5944711
29.3535292 -75.6544024 -80.2036300
29.3533858 -36.7876813 -25.9492826
29.3441042 -72.9580447 -78.8390785
29.3359701 -55.2009158 -63.5301620
29.3293763 -63.0578101 -55.7017662
29.3241814 -99.3656963 -92.3394784
29.3123368 -55.4854162 -47.6895235
29.3045752 -67.3149079 -52.0805009
29.2882565 53.9450571 -43.1199558
29.2855445 45.0101569 -48.2661873
29.2851161 56.4010218 -35.1916626
29.2836670 -71.2889582 -51.9972891
29.2633343 -49.0221828 -53.6120571
29.2505920 -48.5142805 -52.1505736
29.2411763 -35.9467566 -24.4485084
29.2378627 38.9031507 -38.6250615
29.2374529 93.0742919 -84.3643174
29.2354990 -76.5542164 -50.5737886
29.2240661 -73.4001696 -51.7236963
29.2195659 -27.9606879 -16.2372962
29.2161107 -33.2614370 -19.6551103
29.2128660 -67.4831197 -55.9750423
29.2094108 -65.8142492 -56.1538152
29.2040091 52.5825396 -45.8147414
29.2034037 -77.4824917 -52.0588830
29.1849505 61.3804385 -31.4257108
29.1820429 99.8922810 -86.3129869
29.1750152 50.4618436 -55.8298379
29.1692782 -66.0326779 -74.2407441
29.1649196 48.1113009 -47.9609333
29.1483998 99.8033881 -76.2625262
29.1427653 50.3245778 -51.7693497
29.1311592 -37.3016447 -27.0881224
29.1306339 -34.3988650 -21.5186439
29.1295629 -61.5250841 -70.3344569
29.1078202 -55.3710721 -54.0692732
29.1070938 62.5655502 -29.9811047
29.0914830 -63.2158145 -51.9014001
29.0877577 -73.4901577 -54.4050150
29.0665198 98.0476066 -81.8859637
29.0641002 -51.5316203 -51.9168936
29.0622637 -60.4557768 -56.1580807
29.0580001 96.9144553 -83.1404179
29.0553663 51.0797128 -48.9955954
29.0492345 100.1002118 -81.5334916
29.0461611 100.1079753 -75.4244775
29.0220231 -41.4377451 -34.0887755
29.0149990 -57.6089360 -66.0379976
28.9967749 53.5581633 -38.7817174
28.9889239 55.2634932 -40.0614068
28.9835576 68.1397915 -75.7348612
28.9765541 100.1180336 -78.2352313
28.9697237 49.1161756 -46.4397408
28.9655384 -99.7351110 -89.6135271
28.9604049 99.3282795 -77.6997209
28.9440360 52.6255630 -60.6472380
28.9321393 -42.6841266 -36.0785611
28.9247613 -64.4280761 -72.8168711
28.9177485 -93.2957977 -84.3581185
28.9158374 67.2773421 -23.9766631
28.9117023 -50.8547537 -45.2423804
28.9038736 50.1226932 -53.6041483
28.8906712 99.4924679 -92.3395231
28.8791507 -56.8664521 -55.5872284
28.8744550 68.4167296 -23.1742207
28.8581122 -30.5095967 -16.2238628
28.8539454 -70.8122626 -56.2817045
28.8240016 -65.8467412 -53.1702526
28.8191587 -61.7746748 -92.9483622
28.7985485 -74.8429000 -54.5329787
28.7869778 -67.1794191 -53.4115918
28.7832376 63.0145371 -27.1978136
28.7491437 100.1116782 -84.1527134
28.7468918 -51.4242612 -54.6578318
28.7250932 -48.7215668 -43.7896587
28.7205186 -54.7608323 -61.6638996
28.7192017 56.3427843 -37.7408490
28.7015587 59.5649146 -30.4881893
28.6793746 -73.4108463 -55.7062700
28.6721103 -45.3194454 -40.1192829
28.6639836 -70.8562806 -53.6435321
28.6586192 -43.7168032 -38.0007103
28.6272671 -78.5593539 -53.3017293
28.6170635 -52.2655323 -56.2463738
28.6017898 -96.9727561 -84.4555050
28.5691284 -63.6007637 -71.8485713
28.5642464 -38.2658988 -29.3521378
28.5268929 -53.8054816 -59.3109429
28.5154860 -55.2308224 -56.1063811
28.4988675 -59.4588444 -52.1097817
28.4923539 60.7945062 -28.9172214
28.4714121 32.7928215 -22.2718958
28.4097604 -47.4900641 -43.2715714
28.3593927 100.0789031 -87.2102082
28.3415336 -62.9336387 -53.8459830
28.2496847 -97.7921113 -92.9483622
28.2392558 31.9833271 -19.2605574
28.2062553 -63.2180721 -59.5915802
28.2053836 -71.2346137 -77.5669143
28.2009635 -61.0878207 -68.9107850
28.1937812 -49.0423664 -45.5119647
28.1630810 80.8072314 -82.1073204
28.1603057 -44.1301204 -39.4043662
28.1601083 90.6979665 -84.1574967
28.1205345 -64.7342950 -59.9322096
28.1016100 -68.1391209 -59.5685206
28.0949585 57.2883338 -32.1737342
28.0842222 -58.8367060 -59.2281483
28.0670002 44.7615460 -46.2765619
28.0451979 -56.5383285 -51.8300980
28.0228686 -76.2372091 -56.0265891
27.9817693 -57.0735633 -59.1620803
27.9711988 -51.3460822 -48.2803397
27.9604364 47.2617745 -46.2617688
27.9248357 31.3066579 -16.2370075
27.9197358 -56.7299463 -61.8264824
27.9170349 68.1250095 -22.4243533
27.8897956 -84.6196115 -83.1629708
27.8779790 -99.7630358 -84.4804049
27.7388133 46.5001799 -92.9483622
27.7366284 -59.0904318 -65.3453246
27.7189650 43.1340933 -44.3510637
27.7019497 -71.1052343 -60.0240268
27.6715141 -55.0379306 -51.9557036
27.5908113 -32.1192183 -17.2772594
27.5587048 57.2871231 -65.3629974
27.5237467 95.8459377 -83.3010226
27.4573285 100.1972854 -89.1615897
27.4556149 100.5991027 -70.3920275
27.4490602 -59.4199859 -62.1692277
27.4402890 33.1592523 -20.7678154
27.4347756 45.0713150 -45.3791767
27.4295956 -73.4855458 -59.8040074
27.4034049 -59.3956076 -63.8224259
27.3864008 -79.1118741 -55.6738935
27.3775924 -61.1411519 -56.0146980
27.3761414 34.7524807 -25.2649933
27.3721963 -33.2672447 -19.2687809
27.3553245 -53.3707254 -51.6155362
27.2828247 60.6306121 -29.7116544
27.2587724 67.4480423 -74.7089684
27.2525307 -57.6702245 -54.8058040
27.2197295 50.4972860 -40.2609818
27.2185113 -75.5273700 -59.2208616
27.1855574 -87.5698254 -83.7137476
27.1570124 -55.1728904 -53.5805151
27.1455962 -71.3385344 -57.7100776
27.1109026 62.8571436 -27.1874014
27.1093976 -76.5947104 -56.0521819
27.0855986 58.3580770 -32.1609601
27.0614997 38.2345840 -33.6244479
27.0570666 -59.8736070 -56.4673282
27.0543210 -79.5042142 -53.7768491
27.0247571 -72.9574412 -78.2320350
26.9881636 54.6777360 -37.4068134
26.9816853 -71.1054206 -62.6469105
26.9791745 53.2230400 -39.9394073
26.9715786 79.2614818 -81.3934729
26.9671753 -63.7595430 -69.8444545
26.9314814 -73.7955868 -57.7016398
26.8981569 32.6512791 -17.7503657
26.8810354 61.2746589 -69.2222342
26.8765036 -39.1616710 -32.0578143
26.8756058 66.6896105 -22.2290196
26.8660355 32.2172903 -16.2372962
26.8390253 100.2346426 -82.0417032
26.8344115 66.9165850 -23.5622339
26.8068891 -72.8597119 -62.4106713
26.8013291 -96.8817249 -84.4464600
26.7808121 -100.1166329 -92.0350328
26.7797261 -49.3788719 -48.4387316
26.7714188 49.9564186 -46.2893844
26.7561451 -95.0607285 -84.4030306
26.7407726 -62.8999323 -65.6354129
26.7252941 -100.6283984 -85.2531195
26.7250519 2.2994655 -16.2372962
26.7035887 -39.8761630 -33.4738791
26.6959090 59.1828115 -66.9971704
26.6950242 41.5392108 -40.4263251
26.6896579 -99.4459763 -84.4771340
26.6729724 -57.4637391 -56.4689972
26.6682096 -71.0495934 -63.8732761
26.6665183 29.2772818 -16.2372962
26.6499575 -31.0531165 -16.2372962
26.6492106 -2.9818735 -16.2372962
26.6188029 -34.8007269 -22.3442353
26.6186595 50.8566462 -38.4450555
26.6166087 -63.3417889 -67.4196258
26.5980810 -78.2608613 -80.9193105
26.5890900 -80.2218243 -54.5174405
26.5882090 55.0217107 -36.1137316
26.5733767 98.0854332 -77.8926611
26.5644640 -65.3691143 -65.9538060
26.5594665 -81.4048797 -55.9778586
26.5543293 46.9257422 -43.7779203
26.5287235 -65.8476055 -59.7167462
26.5247226 100.5839333 -72.6946294
26.5224911 52.5919460 -58.9214265
26.5215132 61.3109432 -25.7744100
26.5208334 -36.5821458 -26.5485030
26.4979377 45.1026820 -43.8555032
26.4950320 98.7678990 -75.2364919
26.4873002 -68.2513937 -65.6629801
26.4857877 55.0620109 -32.2589576
26.4834482 -67.2594309 -59.9584766
26.4750607 -47.9491577 -46.9684415
26.4473911 100.9000167 -67.5259233
26.4440067 -34.1569111 -20.5433294
26.4420025 -69.7355345 -59.9976666
26.4388695 -64.4209906 -68.7506795
26.4383405 -71.5150759 -76.8592209
26.4378022 -78.4990713 -59.4779104
26.4346190 93.4618562 -84.0179473
26.4263228 50.4320338 -55.4340482
26.4231507 -73.4046102 -63.5433570
26.4212545 -6.0248212 -92.9483622
26.4144056 -43.3923341 -40.0202684
26.4068320 -75.5980536 -79.5579627
26.4066812 -75.0169531 -62.5183135
26.4051370 69.3464130 -21.7435993
26.3982397 -62.7211705 -59.5126860
26.3778660 -81.6590488 -82.1853280
26.3703838 -46.0105799 -44.2215651
26.3626352 88.5360464 -83.8256180
26.3423230 43.1534089 -42.3438624
26.3320450 91.2304297 -84.1709822
26.3212454 -69.4769919 -75.0250518
26.2917504 49.2696278 -51.5654869
26.2894891 -65.5326992 -70.2404380
26.2678731 58.8330068 -30.3230956
26.2674801 -38.0155370 -29.6862256
26.2641497 49.1598919 -48.0289198
26.2588728 -88.8015032 -83.8653520
26.2514371 56.4391389 -63.6687353
26.2084641 -0.0964691 -16.2372962
26.2025725 63.2190555 -23.8145813
26.1918176 -51.7278165 -52.1056950
26.1792447 100.2756134 -92.0350924
26.1730384 5.4248213 -92.9483622
26.1522420 -33.1527255 -17.4186546
26.1421427 -67.2900155 -67.3810840
26.1416472 -59.9404611 -59.3627766
26.0949992 99.4223356 -72.0838383
26.0127280 -75.1911700 -63.8950691
25.9858053 7.3503386 -16.2372962
25.9164497 99.7646749 -70.5176666
25.8511379 62.5913441 -70.0724721
25.8252714 -67.5077215 -71.5909824
25.7839784 56.0394488 -62.9234985
25.7784072 69.6476102 -75.8995637
25.7353336 51.2230508 -36.1089669
25.7083960 -71.1739138 -67.7084625
25.6337225 -4.7825519 -16.2372962
25.6197285 -56.9197163 -58.3675019
25.6013628 -75.5294338 -79.1021883
25.5944990 -67.9031834 -70.4247653
25.5773738 -67.3897117 -62.8024489
25.4983231 50.0092842 -54.0835671
25.4934616 96.7688411 -80.4725140
25.4901331 -64.8671463 -62.8865436
25.4806168 59.3818538 -26.0375179
25.4514702 -41.6684411 -37.1777043
25.4460890 48.8460772 -49.6670939
25.4396256 39.1856395 -33.2580581
25.4307706 -63.1184280 -62.7528280
25.4268032 -82.4681967 -82.3474601
25.4234578 -34.3216881 -19.4491930
25.4133884 98.8726467 -92.9483622
25.4041795 -73.3112842 -67.7095205
25.3940579 49.8933606 -43.1418978
25.3928881 -41.2052087 -36.2779871
25.3849830 -75.2622932 -66.3439855
25.3574308 52.0568304 -57.3610552
25.3442936 -70.5323741 -69.6175620
25.3222026 54.1138649 -35.2041610
25.3217369 52.5947809 -37.7234817
25.3043398 41.1260910 -37.6344658
25.2748746 47.2214520 -41.1169268
25.2742674 44.8674299 -41.6974910
25.2732225 64.2249584 -21.9668020
25.2256729 35.8034000 -23.6549731
25.2208188 -54.6609387 -56.6533767
25.2023023 48.8705970 -45.5671474
25.1847114 -69.8700175 -72.7369934
25.1554418 -8.5356487 -16.2372962
25.1448955 -78.8735524 -63.9556497
25.1442138 -36.2393931 -24.6480927
25.1354091 101.0770053 -84.2485726
25.1237322 -47.2872928 -47.0347963
25.1215771 32.9880081 -16.2372962
25.1139160 100.9916514 -86.3129720
25.1029246 98.5571370 -80.1162794
25.0840019 -44.9047796 -43.1954712
25.0749812 99.4372666 -82.2059959
25.0730813 73.4091848 -78.1894103
25.0407383 -10.9860934 -92.9483622
25.0389893 10.2129029 -92.9483622
25.0300243 -100.9064093 -88.1092548
25.0112228 -81.7941427 -58.5076697
25.0000004 0.0000000 -62.3022951
24.9998774 -0.0020891 -19.4892641
24.9948241 52.8077520 -32.4731842
24.9907617 0.1551157 -80.5615857
24.9849390 0.2528314 -44.4305167
24.9835402 0.2763315 -72.3567158
24.9752253 -0.4159223 -49.5591201
24.9630511 0.6203220 -65.8916533
24.9627121 -0.6822840 -53.0932136
24.9605849 -0.6616981 -38.2736363
24.9530636 -1.0461224 -22.2788639
24.9521621 -82.9934403 -59.6872345
24.9502156 1.0071663 -29.2512309
24.9465816 0.8968126 -38.7523621
24.9446724 -0.9288482 -70.0104833
24.9399543 66.8761954 -19.9863035
24.9379463 -1.2996326 -56.0719557
24.9365699 -1.0475770 -91.6337594
24.9363016 1.7834797 -68.0613816
24.9354634 1.4089717 -60.8110130
24.9295309 -1.2715359 -51.9486926
24.9261782 1.2393295 -81.7209035
24.9179993 56.9356792 -27.5496282
24.9097645 1.5148892 -47.5201420
24.9041077 -1.6586717 -32.4022695
24.9029808 -72.0378906 -75.1468763
24.9001496 2.1575154 -92.2292173
24.8939451 -1.7804501 -24.5483033
24.8905234 54.5795150 -30.0898105
24.8845164 -2.2122085 -29.8382156
24.8759948 -2.1799866 -41.7157300
24.8702448 -2.0643082 -85.2615759
24.8693451 2.2638603 -17.7705027
24.8660725 -81.2362954 -62.3289347
24.8610284 2.1746799 -70.1053590
24.8578899 -2.3214901 -60.9994195
24.8553883 -51.4599234 -53.1711616
24.8482302 2.5120054 -21.6986556
24.8472877 2.4131718 -41.9515520
24.8322617 -83.4219158 -57.5597584
24.8237178 -71.0223615 -72.7972314
24.8222724 2.6693607 -38.6397764
24.8207711 2.6928876 -46.2715663
24.8167403 2.8647843 -89.8736045
24.8150267 -2.7753019 -24.6887300
24.8136092 -2.7885076 -90.5297548
24.8091258 -2.9664070 -25.8281007
24.7948058 -3.0432234 -46.0027158
24.7855838 3.1153467 -62.8338307
24.7788988 -3.2427814 -32.5482078
24.7455370 3.5578676 -58.4629066
24.7455370 3.5578676 -66.1416873
24.7400068 -3.5270338 -53.7319183
24.7376431 -3.5233644 -76.5093565
24.7149952 -3.6752028 -87.9308954
24.7024242 -3.7820183 -82.4731812
24.6970858 3.9016651 -16.2372962
24.6926732 3.8462747 -32.4349515
24.6915668 3.8293109 -49.4468659
24.6751364 3.9356244 -38.2922851
24.6540066 -67.4209371 -65.8633485
24.6456694 60.5137460 -23.8742232
24.6388335 98.5340402 -77.7038932
24.6327762 4.1096224 -24.1582803
24.6058684 4.3340256 -17.9683808
24.5607663 4.4716210 -61.6560243
24.5588440 4.5177471 -88.0445465
24.5480016 -81.5949738 -60.0870401
24.5385580 -4.5848917 -69.1726431
24.5283898 100.0846401 -70.1078326
24.5207958 -72.6129338 -72.0941052
24.5204940 4.8124264 -91.8728113
24.5139860 4.7146259 -40.3626338
24.5130621 -76.7739192 -63.6710227
24.5015845 45.0424142 -40.3343663
24.5004371 4.8783561 -64.0184507
24.4999602 4.7552162 -73.5429451
24.4723093 -4.9365791 -26.5546106
24.4679451 -79.1701749 -80.5910230
24.4653411 4.9961433 -80.1939219
24.4548954 -73.7376809 -76.1304945
24.4512372 5.0548180 -55.8244251
24.4499147 -5.1157963 -56.1117083
24.4395882 -5.0495677 -58.5747398
24.3913420 5.3808521 -53.2969981
24.3871789 5.3051044 -46.3048406
24.3798252 -79.0528655 -62.6417696
24.3390352 -5.5159731 -32.1923420
24.3359506 -63.2325858 -65.2707294
24.3350603 -43.7570959 -41.1748998
24.3309699 -81.7276165 -63.8171509
24.3125819 95.5430865 -81.5594569
24.2847577 5.7394276 -85.5894908
24.2543966 49.0971617 -42.1148725
24.2315847 63.0344450 -23.4137066
24.2314693 -100.9407341 -90.2168825
24.2300648 -6.0538291 -18.4355751
24.2265128 40.3345749 -34.2300870
24.2261160 -6.0419030 -52.1439612
24.2254287 58.9899011 -24.5479327
24.2105108 12.9762245 -16.2372962
24.2052600 -78.8178816 -67.8785816
24.1947249 54.8315346 -32.0541337
24.1752286 6.2456755 -74.6335089
24.1647735 51.8233478 -56.1839603
24.1442900 -6.3861618 -78.5832554
24.1344403 6.4669200 -56.5432124
24.1222661 -6.3949414 -89.5676240
24.1190214 6.5098251 -86.5709782
24.1187103 -86.4785686 -83.3270475
24.1066329 6.5246671 -50.6923795
24.0968950 12.3770516 -92.9483622
24.0847897 -100.7634401 -92.3394784
24.0764767 -69.4734529 -67.6895455
24.0753386 73.9784092 -78.3309117
24.0640119 6.6860383 -92.4221501
24.0633916 34.3649350 -16.2372366
24.0443740 -6.7862668 -71.5795904
24.0143333 -6.9051594 -76.4838532
24.0061246 6.9438326 -69.0780133
24.0052603 -49.6441685 -51.0797873
24.0023192 -58.7068014 -62.0328560
23.9977762 -6.9584674 -86.4605382
23.9935815 6.9899852 -30.7715572
23.9882898 -6.9574849 -17.6168662
23.9803568 6.9444776 -17.0217697
23.9794347 6.9977837 -25.9036049
23.9662286 -7.0580519 -49.3294559
23.9658840 -6.9822306 -92.3124254
23.9344947 -7.1821772 -84.2926502
23.9260010 48.2235327 -36.9439684
23.8755308 7.3290761 -21.6122773
23.8696150 -84.1471851 -62.2099601
23.8592215 -84.9624798 -58.7753952
23.8284562 100.8600742 -92.0350924
23.8194354 -7.5471345 -29.8964810
23.8082930 7.5503783 -61.7410652
23.7994641 -7.6077441 -56.5432124
23.7889718 -77.1017745 -78.4491673
23.7872787 -81.6487744 -62.4091029
23.7820502 -7.6456359 -91.2207291
23.7638205 -36.3858193 -22.3866478
23.7525795 -7.7096899 -34.6282199
23.7481836 -7.7252211 -80.5601627
23.7462856 -7.7691735 -88.8062268
23.7283371 -78.9085850 -64.8301691
23.7219837 -76.1139169 -72.8696361
23.7150565 38.5878570 -28.8487580
23.7148255 35.0317694 -17.7504085
23.7011295 -40.9636982 -34.9450558
23.7000734 51.9563109 -35.4756340
23.6830469 -57.0125580 -60.6044233
23.6743409 -78.8836628 -70.1160058
23.6544944 42.6343977 -37.4339484
23.6406624 100.1225412 -67.6310807
23.6300528 -8.0483025 -40.1025452
23.6254483 -8.0476664 -85.3528678
23.6069355 65.3659701 -21.0461579
23.5988833 50.3067672 -38.1627828
23.5974174 58.9635111 -26.1530392
23.5958174 98.3244032 -75.8826286
23.5937815 -8.1380662 -58.5402139
23.5404447 23.2295692 -16.2372962
23.5205684 52.7103469 -29.8506469
23.5171430 96.9399661 -75.6754205
23.5118326 -73.4965652 -68.5698614
23.5079695 90.7411873 -83.8660002
23.5043894 -8.3867414 -77.8282359
23.4912336 60.6607907 -22.1514087
23.4842300 -8.4428200 -62.3004623
23.4753899 -88.2184058 -83.6409703
23.4636888 -77.5968656 -72.5226924
23.4449375 -66.6068941 -68.5621649
23.4410390 -75.7924169 -75.3926858
23.4274007 8.6009083 -58.5090704
23.4094746 -42.7420884 -38.6433899
23.3899802 -37.4978594 -25.0922572
23.3839545 8.7217642 -42.4654521
23.3839545 8.7217642 -66.7815804
23.3839545 -8.7217642 -27.1078944
23.3449992 -71.2554753 -69.8995665
23.3217180 8.9640496 -91.6338861
23.3017467 -35.8120203 -19.5036214
23.2959799 48.4424680 -35.2150202
23.2771914 -75.5089447 -68.4551299
23.2648887 -67.3571751 -69.2024454
23.2618432 -9.0857577 -53.1851724
23.2568607 59.5766008 -65.8367649
23.2535154 -46.7706695 -46.4468487
23.2374594 -101.4709696 -85.7152417
23.2307650 9.1549577 -44.4764160
23.2293122 47.9813330 -43.1601144
23.2163966 9.2735607 -87.2410685
23.1939666 -64.8596063 -67.8783134
23.1930353 9.2156054 -46.8981974
23.1921636 48.3002178 -41.4196700
23.1840294 -9.2492178 -69.0951645
23.1770091 57.0415072 -27.5310129
23.1602006 -34.9803865 -16.2373595
23.1496785 44.3536341 -37.7359428
23.1249500 15.0160259 -92.9483622
23.1201667 49.2081493 -51.0049015
23.1113713 -90.7026082 -84.0047821
23.0960753 9.4823372 -47.9853563
23.0945088 53.6085293 -28.0251168
23.0884701 98.6890122 -92.9483622
23.0851285 66.5154904 -72.6862773
23.0804775 -37.0400734 -23.0787396
23.0773073 9.5295506 -36.3910943
23.0723005 9.5156431 -18.3770712
23.0680462 99.1639048 -83.0920637
23.0589826 63.2216334 -21.8513925
23.0557565 50.9047471 -31.2274620
23.0390523 65.1454031 -20.1837849
23.0385009 -9.5071383 -16.2372962
23.0257418 55.1996976 -29.4682458
23.0255984 99.1906151 -70.2689216
22.9939800 -83.1200480 -67.4404502
22.9918882 93.6436802 -82.6153606
22.9849666 -11.3163004 -16.2372962
22.9799189 97.9225114 -81.7039981
22.9684487 9.8357843 -68.0613816
22.9684487 -9.8357853 -68.0613816
22.9684487 -9.8357853 -75.7401586
22.9479298 -78.3237666 -78.0792013
22.9378436 -9.8995082 -84.1153860
22.9327045 -57.4339777 -61.5201704
22.9312629 72.7095529 -77.3157179
22.9227319 98.3676016 -73.8153607
22.9145717 -81.2377110 -70.5179423
22.9102354 -82.6746672 -64.2633140
22.9067374 9.9708298 -61.5041181
22.9059830 -73.8235787 -70.5612674
22.9053050 88.6196196 -83.6807266
22.8958949 9.9948505 -80.8856338
22.8694063 -78.5719156 -74.1839185
22.8660200 55.3230792 -60.3591837
22.8498429 -85.5248868 -64.1733930
22.8468943 84.8088041 -82.8250945
22.8235945 -74.9735534 -70.3123659
22.7942728 -51.6750403 -54.2874001
22.7823909 -40.3495729 -32.1159884
22.7777045 59.1288209 -22.2972203
22.7725171 -53.6519215 -56.9862984
22.7635782 47.8940979 -46.3788919
22.7622520 -33.4236287 -16.2372962
22.7492489 10.3195803 -29.5242220
22.7438714 52.6074432 -32.5008295
22.7407999 -10.3853755 -31.5871835
22.7407999 -10.3853755 -85.3386298
22.7355380 40.4156409 -32.2240777
22.7324292 -81.3956112 -80.5545449
22.7195453 10.3945006 -72.4152401
22.7119569 -94.5678204 -84.3337774
22.7113366 -10.4422150 -77.3714632
