6.089954 10.26808 4.800867
6.064188 10.50262 4.823993
6.037279 10.738 4.847541
6.009004 10.97435 4.87178
5.978806 11.21194 4.89686
5.944239 11.45267 4.924087
5.899671 11.69994 4.955837
4.840493 2.488218 4.829961
5.151495 3.154823 4.732049
5.342922 3.681271 4.677753
5.462988 4.037004 4.644983
5.515536 4.219545 4.632057
5.567399 4.402671 4.619429
5.618555 4.586185 4.607097
5.665892 4.772171 4.596543
5.713421 4.958134 4.585939
5.775956 5.242611 4.574001
5.838312 5.52721 4.562113
5.888338 5.819835 4.555908
5.934088 6.115188 4.551606
5.974138 6.414348 4.550021
5.997776 6.615867 4.550365
6.017559 6.819762 4.552391
6.03625 7.024493 4.555032
6.06547 7.330995 4.558414
6.098423 7.635135 4.560043
6.150381 7.927427 4.553022
6.19989 8.112851 4.54148
6.257935 8.292919 4.526034
6.296327 8.485517 4.519633
6.33161 8.680201 4.514712
6.222914 9.510556 4.60369
6.093477 9.919986 4.679871
6.069679 10.15308 4.702033
6.04073 10.38951 4.726447
6.020198 10.6208 4.7472
5.991453 10.85731 4.771564
5.960223 11.09562 4.797138
5.931454 11.33254 4.821623
5.897019 11.57315 4.848607
5.850337 11.82168 4.881249
4.885674 2.656837 4.718413
4.961896 2.824452 4.694615
5.039956 2.990941 4.670001
5.175426 3.336869 4.630188
5.244073 3.50932 4.609826
5.365964 3.863826 4.57624
5.503474 4.316471 4.541047
5.555493 4.499478 4.528271
5.603275 4.685109 4.517593
5.654357 4.868833 4.505286
5.720015 5.151324 4.491866
5.780377 5.437169 4.48094
5.832287 5.72846 4.473797
5.881196 6.021924 4.468111
5.921053 6.321107 4.466576
5.950069 6.51916 4.464401
5.969781 6.723064 4.466548
5.990273 6.926572 4.468277
6.020776 7.232214 4.470993
6.045205 7.541809 4.476526
6.0908 7.838087 4.472396
6.201594 8.418523 4.455119
6.256826 8.926258 4.45771
6.250268 9.147817 4.471893
6.187381 9.405541 4.511971
6.101261 9.678238 4.562602
6.049224 10.0382 4.60325
6.024273 10.27203 4.625834
5.996224 10.50805 4.649901
5.974095 10.74024 4.671298
5.943453 10.97818 4.696504
5.919186 11.21204 4.718913
5.885351 11.45218 4.745626
5.841814 11.69872 4.776881
5.789754 11.95091 4.811946
5.692261 12.34191 4.873474
5.06474 3.17238 4.567697
5.26433 3.693619 4.509596
5.384828 4.049099 4.476605
5.43842 4.231011 4.463186
5.490896 4.413762 4.450285
5.544044 4.596029 4.43699
5.592173 4.781517 4.426114
5.660268 5.062407 4.411607
5.719658 5.348872 4.401053
5.776802 5.636917 4.391537
5.825326 5.930427 4.385951
5.867884 6.227976 4.383157
5.896972 6.42582 4.380956
5.922602 6.626093 4.380336
5.941246 6.830628 4.382881
5.975411 7.133918 4.383966
6.001916 7.442155 4.388511
6.03619 7.745532 4.389571
6.079082 8.043646 4.386603
6.119455 8.234899 4.379239
6.143151 8.545487 4.385094
6.158576 8.752826 4.38917
6.133826 9.312054 4.428432
6.076484 9.566292 4.465844
6.029514 9.81405 4.498536
6.003398 10.15751 4.527273
5.975481 10.39321 4.551193
5.953267 10.62551 4.572615
5.924258 10.86225 4.597054
5.896089 11.09868 4.621267
5.8678 11.33514 4.64541
5.830579 11.57749 4.673677
5.788159 11.8234 4.704319
5.62846 12.47334 4.805581
4.875225 2.841898 4.530238
4.950836 3.00989 4.506711
5.092068 3.352306 4.464279
5.157486 3.526656 4.445424
5.255318 3.788569 4.417227
5.319871 3.963627 4.398718
5.600352 4.973711 4.331397
5.662155 5.258578 4.319659
5.718519 5.547018 4.310562
5.767572 5.840263 4.304729
5.815928 6.133995 4.299193
5.840406 6.334809 4.299092
5.870022 6.532388 4.296644
5.89085 6.735654 4.298176
5.92804 7.03697 4.297805
5.952445 7.346365 4.303337
5.979059 7.65469 4.307858
6.016717 7.956049 4.307263
6.051003 8.151155 4.302716
6.085395 8.454921 4.303653
6.092536 8.667483 4.311462
6.093457 8.992789 4.327745
6.07212 9.223875 4.348698
6.042511 9.460284 4.373384
6.009192 9.699253 4.399823
5.988286 9.930287 4.420458
5.953837 10.27917 4.45305
5.927158 10.51422 4.476425
5.90223 10.74826 4.499011
5.871912 10.98586 4.524019
5.845279 11.22131 4.547394
5.816905 11.45787 4.571562
5.772216 11.70515 4.603241
5.726075 11.95352 4.635635
5.693632 12.08371 4.656023
5.627945 12.34489 4.697339
5.55653 12.60988 4.741274
4.977984 3.189938 4.403345
5.145147 3.623716 4.354488
5.331075 4.153645 4.302641
5.600306 5.171021 4.24029
5.657715 5.458832 4.2307
5.709973 5.749981 4.22336
5.757885 6.043866 4.218045
5.786373 6.242185 4.216117
5.814488 6.440649 4.214288
5.838893 6.641673 4.214213
5.872062 6.945384 4.215669
5.904823 7.249548 4.217348
5.926441 7.560889 4.224069
5.958265 7.86597 4.22612
5.98836 8.063693 4.223449
6.021516 8.368111 4.224931
6.036941 8.57545 4.229007
6.037946 8.900644 4.245265
6.028062 9.124313 4.260884
6.010194 9.353271 4.280158
5.983551 9.587814 4.303509
5.96249 9.818967 4.324291
5.935329 10.05408 4.347792
5.900435 10.40332 4.380508
5.878185 10.63552 4.401833
5.85178 10.87064 4.425038
5.819997 11.10922 4.450762
5.793365 11.34467 4.474138
5.764823 11.58145 4.498355
5.719593 11.8291 4.530183
5.626854 12.21691 4.589465
5.557335 12.48066 4.632463
5.481478 12.74861 4.678352
4.77931 2.865087 4.370062
4.857537 3.031555 4.345302
4.968179 3.285385 4.311297
5.038039 3.456986 4.290391
5.167769 3.806624 4.253198
5.232322 3.981682 4.234688
5.537353 5.0842 4.161537
5.599961 5.368669 4.149477
5.651078 5.660458 4.142656
5.699086 5.954332 4.137317
5.730227 6.150821 4.134032
5.754368 6.351877 4.134128
5.786169 6.548187 4.130667
5.814439 6.854903 4.1343
5.85205 7.155866 4.133706
5.880007 7.463224 4.137439
5.902707 7.774033 4.143762
5.928864 7.974242 4.1428
5.958815 8.280757 4.145788
5.977013 8.486252 4.148579
5.987455 8.696706 4.154856
5.986454 9.02325 4.171981
5.975693 9.247527 4.187945
5.952783 9.479709 4.209542
5.930653 9.711494 4.230721
5.907947 9.943751 4.252268
5.886801 10.17501 4.273074
5.849818 10.52572 4.306682
5.825839 10.75913 4.328799
5.796649 10.996 4.353287
5.772861 11.22959 4.375257
5.740489 11.46875 4.401252
5.703687 11.71096 4.429202
5.654639 11.96108 4.46281
5.622041 12.09139 4.483344
5.550254 12.35652 4.52738
5.482909 12.61891 4.569365
5.406606 12.88721 4.615379
5.359516 13.02721 4.642514
4.848608 3.126393 4.252906
5.057071 3.642037 4.190706
5.240465 4.173578 4.139971
5.5375 5.281487 4.07038
5.589037 5.572923 4.063338
5.640263 5.8648 4.056491
5.670384 6.061916 4.053797
5.702424 6.257995 4.050165
5.725065 6.459936 4.05088
5.759145 6.762934 4.051771
5.795292 7.064878 4.051893
5.826898 7.369784 4.053994
5.852011 7.678994 4.059133
5.868696 7.885274 4.062543
5.901731 8.189707 4.063953
5.914274 8.398802 4.069339
5.92438 8.609498 4.075813
5.931195 8.930974 4.089329
5.933292 9.146962 4.099364
5.918629 9.373822 4.117132
5.897557 9.604877 4.137914
5.87491 9.837026 4.159339
5.853152 10.06867 4.180417
5.833399 10.29916 4.200534
5.798227 10.64874 4.233228
5.773828 10.88251 4.255566
5.742453 11.12084 4.280972
5.712074 11.35875 4.306004
5.68005 11.59776 4.331803
5.640618 11.8416 4.36089
5.549175 12.22864 4.419506
5.47675 12.49416 4.463717
5.401325 12.76185 4.509384
5.222859 13.31544 4.613323
4.872779 3.308209 4.150874
4.945868 3.477912 4.128461
5.078108 3.82594 4.090058
5.136658 4.004739 4.074341
5.379321 4.822761 4.012981
5.427991 5.008083 4.001858
5.474175 5.194812 3.991727
5.526757 5.48562 3.984191
5.579807 5.77627 3.976529
5.610239 5.973147 3.97354
5.641139 6.169867 3.970427
5.668162 6.369167 3.969214
5.706421 6.669448 3.968226
5.737644 6.9744 3.970427
5.772732 7.277075 3.970945
5.796956 7.586794 3.976431
5.821036 7.788361 3.976456
5.842776 8.099889 3.983153
5.85443 8.309493 3.988885
5.866612 8.518832 3.994371
5.875049 8.730635 4.001515
5.88178 9.052222 4.015056
5.875893 9.273498 4.028748
5.85949 9.501474 4.047307
5.842485 9.729926 4.066138
5.819083 9.962669 4.087982
5.798609 10.19345 4.108395
5.776611 10.42552 4.129549
5.743336 10.77386 4.161306
5.715442 11.00997 4.18513
5.691306 11.2437 4.207296
5.655285 11.48531 4.234923
5.615937 11.72903 4.263986
5.571667 11.97617 4.295346
5.540185 12.10584 4.315264
5.468445 12.37077 4.359178
5.396921 12.63587 4.403042
4.75034 3.151073 4.093794
4.963856 3.663591 4.029271
5.409721 5.108876 3.913593
5.466649 5.396947 3.904031
5.51707 5.689223 3.897507
5.548571 5.885467 3.894121
5.581909 6.080586 3.88992
5.61054 6.278686 3.887844
5.651163 6.577575 3.885794
5.68229 6.882538 3.888019
5.715013 7.186605 3.889601
5.747245 7.491235 3.89143
5.766859 7.695553 3.893408
5.78963 8.006353 3.899611
5.800131 8.2167 3.905765
5.809432 8.427794 3.912563
5.818049 8.639474 3.919655
5.831299 8.956957 3.930158
5.825845 9.177778 3.943725
5.817593 9.400445 3.95848
5.80407 9.626666 3.975729
5.782648 9.858064 3.996611
5.764696 10.08733 4.015814
5.744234 10.31821 4.036226
5.721875 10.55053 4.05748
5.689765 10.89823 4.088815
5.658821 11.13631 4.113998
5.628166 11.37435 4.139105
5.593068 11.61535 4.166168
5.549301 11.86202 4.197281
5.464425 12.24475 4.252736
5.385133 12.51472 4.300085
5.305589 12.78501 4.347509
4.655332 3.084413 4.029671
4.774762 3.332757 3.99159
4.845246 3.504082 3.970411
4.947965 3.76289 3.94004
5.400274 5.312249 3.826737
5.453985 5.602317 3.818682
5.484357 5.799302 3.815815
5.518823 5.99368 3.811095
5.549724 6.1904 3.807982
5.591439 6.488454 3.805315
5.627813 6.790068 3.805265
5.658004 7.095749 3.80796
5.691326 7.399542 3.809173
5.709128 7.604984 3.812065
5.732919 7.915158 3.817676
5.746399 8.123536 3.822593
5.755952 8.3345 3.829217
5.762119 8.547682 3.837397
5.777001 8.863961 3.847135
5.777177 9.081186 3.858011
5.771122 9.302482 3.871849
5.762186 9.525736 3.886901
5.743789 9.75516 3.906326
5.726184 9.984086 3.925429
5.706155 10.21471 3.945619
5.687517 10.44457 3.96512
5.668027 10.67503 3.985064
5.631811 11.02544 4.018155
5.600447 11.26387 4.04356
5.56769 11.50327 4.069559
5.523311 11.75032 4.100944
5.474587 12.0003 4.134258
5.445181 12.12862 4.153189
5.375098 12.39254 4.196337
5.297295 12.66172 4.242971
4.644915 3.180236 3.937895
4.827325 3.604531 3.882045
5.308906 5.135272 3.755497
5.366517 5.422958 3.74554
5.453817 5.908013 3.733111
5.484994 6.104599 3.729923
5.52887 6.401184 3.726244
5.568185 6.700936 3.724762
5.599587 7.005765 3.726912
5.633955 7.30893 3.727632
5.651481 7.514506 3.730599
5.677612 7.82309 3.735147
5.691764 8.030984 3.73967
5.703418 8.240588 3.745404
5.709741 8.453651 3.753437
5.722174 8.771433 3.764263
5.72959 8.984062 3.771899
5.723319 9.205385 3.785691
5.715871 9.427654 3.800124
5.702865 9.65351 3.817126
5.684372 9.882946 3.836576
5.663621 10.11406 3.856967
5.647157 10.34235 3.875551
5.627919 10.57268 3.895324
5.607745 10.80372 3.915565
5.570928 11.15461 3.948928
5.536514 11.39502 3.975693
5.49845 11.63788 4.00409
5.453291 11.88552 4.035796
5.362902 12.27183 4.093602
4.813426 3.702585 3.791852
5.277322 5.244611 3.673286
5.350732 5.630314 3.661673
5.389087 5.822211 3.655053
5.46456 6.31503 3.647963
5.505088 6.613931 3.645938
5.538387 6.917526 3.64715
5.573631 7.220082 3.647522
5.592285 7.424918 3.64997
5.619521 7.732765 3.653903
5.633768 7.940648 3.6584
5.652266 8.145805 3.660899
5.655371 8.360866 3.670439
5.667011 8.679145 3.681587
5.671114 8.893784 3.690756
5.674075 9.109265 3.700346
5.664599 9.332684 3.715645
5.654281 9.556808 3.731387
5.638729 9.78438 3.749406
5.623369 10.01193 3.767374
5.601406 10.24369 3.788405
5.587726 10.47044 3.805608
5.573555 10.69754 3.823154
5.552492 10.9291 3.843743
5.503668 11.28787 3.882495
5.464128 11.53161 3.911608
5.424336 11.77569 3.940795
5.371587 12.02827 3.97584
5.259854 5.452975 3.590088
5.36528 6.034759 3.574746
5.398174 6.230233 3.57067
5.440501 6.527911 3.567732
5.474665 6.830999 3.568501
5.513655 7.131091 3.567216
5.529956 7.337418 3.570727
5.556915 7.6454 3.574735
5.575857 7.850202 3.577106
5.594438 8.055248 3.579579
5.601698 8.267595 3.587145
5.607503 8.589595 3.600937
5.615063 8.802007 3.608427
5.618985 9.016768 3.617645
5.609844 9.239945 3.632746
5.603596 9.461466 3.646539
5.595188 9.684454 3.661343
5.580332 9.91154 3.679065
5.559941 10.14241 3.699356
5.541376 10.37206 3.718831
5.533111 10.59543 3.733611
5.51027 10.82801 3.754893
5.482964 11.06374 3.778347
5.431883 11.42399 3.818138
5.394011 11.66682 3.846484
5.346113 11.9162 3.879257
5.286944 12.17288 3.917317
5.23935 5.663415 3.50825
5.279195 5.854328 3.50101
5.357008 6.345758 3.492761
5.408266 6.746103 3.491208
5.43333 6.946746 3.490643
5.467531 7.24993 3.491507
5.49353 7.55843 3.495984
5.512196 7.763365 3.498433
5.529023 7.969629 3.501599
5.538468 8.180506 3.508248
5.542522 8.394949 3.51732
5.562862 8.924999 3.535438
5.55779 9.145573 3.548589
5.551892 9.36675 3.562281
5.54311 9.589884 3.577187
5.534101 9.813347 3.592262
5.523256 10.03794 3.608156
5.497186 10.27241 3.630944
5.484899 10.49818 3.647553
5.465035 10.72899 3.667499
5.438509 10.96412 3.690632
5.405007 11.20382 3.716831
5.355595 11.56316 3.755856
5.310735 11.81046 3.787269
5.258324 12.0628 3.822119
5.143238 5.489322 3.439037
5.236347 5.97086 3.423771
5.264366 6.169336 3.421967
5.313645 6.462655 3.415769
5.343163 6.660447 3.413248
5.367964 6.861121 3.412854
5.40196 7.164431 3.413675
5.428667 7.472544 3.417854
5.449649 7.675892 3.419141
5.487383 9.497765 3.49466
5.483584 9.717783 3.507364
5.471094 9.943477 3.524023
5.454496 10.17188 3.542438
5.43994 10.39903 3.560085
5.424159 10.62713 3.578178
5.394031 10.86451 3.602821
5.363855 11.1021 3.627585
5.331733 11.34092 3.653093
5.272559 11.70657 3.69647
5.230005 11.95259 3.726942
5.046707 5.315582 3.370047
5.099095 5.606614 3.362464
5.13876 5.79765 3.355275
5.40434 10.07607 3.45744
5.390611 10.30262 3.474545
5.376571 10.52961 3.491848
5.349241 10.76514 3.515302
5.322426 11.00051 3.538414
5.290736 11.23908 3.563699
5.254833 11.48047 3.591084
5.336013 10.20976 3.391501
5.323941 10.4353 3.40784
5.304774 10.66563 3.427491
5.272905 10.90412 3.452924
5.238886 11.14418 3.47937
5.20668 11.38311 3.504903
4.91902 5.358897 3.224014
5.245109 10.57579 3.346768
5.226962 10.80549 3.365828
5.193002 11.04544 3.392152
5.164543 11.28191 3.416028
5.12859 11.52331 3.443219
5.115442 11.18517 3.330318
5.075336 11.42929 3.359484
5.037558 11.67191 3.38749
6.270369 6.649139 11.21317
6.281907 6.856944 11.25885
6.335133 6.823063 11.0697
6.296068 7.064333 11.30281
6.380965 6.790372 10.88517
6.349365 7.030444 11.11354
6.322524 7.191387 11.26957
6.397307 6.997299 10.92773
6.377918 7.157146 11.07892
6.797844 9.756132 13.1807
6.583474 10.10756 13.59676
6.437114 6.965632 10.74716
6.427981 7.123645 10.89183
6.401295 7.284669 11.04762
6.918855 9.70989 12.94754
6.472812 6.93456 10.5693
6.461533 7.09293 10.71516
6.446002 7.252113 10.8639
6.951166 9.285723 12.42227
6.982739 9.437544 12.54154
6.980127 9.595177 12.68268
6.830398 10.09265 13.19665
6.775199 10.18085 13.30163
6.466563 7.380075 10.83436
6.44268 7.540561 10.98838
6.959529 9.258633 12.26106
7.015496 9.40632 12.36486
7.026987 9.561556 12.49693
7.018146 9.72034 12.64197
6.99344 9.881831 12.79716
6.517113 7.033488 10.36939
6.507847 7.191415 10.51399
6.500726 7.349186 10.65732
6.460605 7.669041 10.96047
7.018251 9.380307 12.20718
7.050698 9.531922 12.32591
7.048949 9.689451 12.46641
6.986838 10.09322 12.85462
6.947827 10.17858 12.94917
6.536344 7.161509 10.34071
6.534027 7.318401 10.48092
6.520137 7.477286 10.6285
6.500029 7.63722 10.78008
6.466762 7.877794 11.00941
7.054232 9.505714 12.16772
7.074229 9.659527 12.29437
7.056509 9.898338 12.51469
7.034979 10.05935 12.66791
6.93981 10.31168 12.93776
6.896065 10.3979 13.0353
6.853052 10.48394 13.13254
6.554449 7.289866 10.31275
6.503525 7.846291 10.83065
6.467048 8.087452 11.06217
7.023235 9.406802 11.96193
7.079609 9.632897 12.13507
7.080136 9.868612 12.3438
6.99968 10.27569 12.74354
6.562858 7.497945 10.36027
6.554574 7.655956 10.50422
6.535328 7.815787 10.65516
6.508112 8.055333 10.88064
7.059671 9.532155 11.92225
7.097881 9.839894 12.17662
7.087014 10.07768 12.39258
7.052375 10.24087 12.55398
6.976543 10.41121 12.74166
6.907159 10.58058 12.92539
6.637319 11.3366 13.72602
6.590661 7.468122 10.18748
6.580507 7.626357 10.33253
6.536728 8.02521 10.70711
6.494546 8.345715 11.01162
6.466158 8.507347 11.16859
7.087589 9.658831 11.888
7.111779 9.81194 12.0119
7.097365 10.05015 12.23001
7.080615 10.21029 12.38002
7.028986 10.37652 12.55228
6.962021 10.5454 12.73434
6.893067 10.71471 12.91775
6.594033 7.833722 10.37686
6.567561 7.994721 10.53228
6.52974 8.314501 10.8339
6.536331 9.097993 11.52489
7.067041 9.636721 11.74531
7.109732 9.786604 11.85744
7.109946 10.02236 12.06615
7.072394 10.34331 12.36866
7.011468 10.51106 12.54687
6.945138 10.67996 12.72856
6.737429 11.18852 13.27964
6.673042 11.35739 13.46042
6.615677 7.804839 10.20795
6.561063 8.283853 10.65863
6.509486 8.606089 10.96902
6.482513 8.767551 11.12509
6.476892 8.925444 11.26773
6.494371 9.079559 11.39576
7.123857 9.994299 11.90152
7.099342 10.31289 12.19566
7.061814 10.47672 12.35885
6.994921 10.64559 12.54079
6.92254 10.81552 12.72634
6.878987 10.90172 12.82383
6.836141 10.98794 12.92083
6.75759 11.15911 13.11048
6.685199 11.32935 13.29624
6.632758 11.49628 13.46945
6.619689 8.013749 10.25818
6.586265 8.25424 10.48734
6.550814 8.573736 10.78741
6.495569 9.053732 11.23921
6.580376 9.275108 11.39427
7.090166 9.817151 11.62791
7.126015 9.968157 11.74441
7.119987 10.28362 12.02668
7.093146 10.44557 12.18305
7.038509 10.61226 12.35713
6.977055 10.78028 12.53558
6.794527 11.12688 12.93072
6.664817 11.46474 13.29263
6.635964 7.98571 10.09263
6.609285 8.225092 10.31744
6.580473 8.543388 10.61319
6.5291 8.865701 10.92353
6.511843 9.025493 11.07335
6.524637 9.258931 11.2739
7.124708 10.09985 11.72865
7.118525 10.25811 11.87176
7.112281 10.41648 12.01498
7.085178 10.57846 12.17152
7.02431 10.74631 12.34951
6.939217 10.91847 12.54314
6.890738 11.00556 12.64367
6.848478 11.09161 12.74021
6.783767 11.26042 12.92096
6.633913 8.195548 10.14671
6.600762 8.514566 10.44505
6.562868 8.834558 10.74669
6.51655 9.234722 11.1233
6.601056 9.456033 11.27844
7.110822 10.07654 11.58173
7.110915 10.54828 11.99935
7.073447 10.71201 12.16243
6.991995 10.88353 12.35355
6.850994 11.22294 12.72212
6.827835 11.38455 12.8764
6.615612 8.486599 10.28039
6.593389 8.803904 10.57194
6.563405 9.044286 10.79918
6.53703 9.205676 10.95479
6.539003 9.440915 11.1621
7.116512 10.28565 11.63112
7.123928 10.52023 11.83527
7.103737 10.68108 11.98731
7.040581 10.8493 12.16672
6.948333 11.02262 12.3647
6.903473 11.18794 12.53261
6.915216 11.34345 12.66473
6.917446 11.57956 12.87263
6.63855 8.457359 10.11062
6.606813 8.776208 10.40806
6.588918 9.014435 10.62759
6.56271 9.175805 10.78306
6.524531 9.417774 11.01565
7.112558 10.49642 11.68665
7.11403 10.65346 11.82497
7.082433 10.81628 11.98424
6.994558 10.98878 12.17942
6.935284 11.15653 12.35637
6.963932 11.3091 12.47765
7.012315 11.4584 12.58634
6.99764 11.69745 12.80507
6.947089 11.7851 12.90698
6.62703 8.747395 10.24004
6.607601 8.985806 10.46038
6.588415 9.145931 10.61142
6.531052 9.391108 10.85596
6.542935 9.624655 11.05696
6.610258 9.770374 11.15334
7.102923 10.78693 11.8155
7.042197 10.95476 11.99324
6.962481 11.12597 12.18319
6.981294 11.28023 12.31067
7.041335 11.42743 12.41196
7.069288 11.65895 12.6033
7.027209 11.82393 12.76966
6.970549 11.91271 12.87556
6.660806 8.559536 9.924823
6.642756 8.719222 10.07484
6.619731 8.958265 10.29746
6.563825 9.359983 10.67968
6.52513 9.602115 10.91262
7.088281 10.92093 11.8082
6.999745 11.09361 12.00356
7.043226 11.40111 12.25471
7.096761 11.5494 12.36008
7.02927 11.95532 12.7518
6.961633 12.04602 12.86459
6.496653 12.60135 13.57991
6.651566 8.692382 9.914034
6.633346 8.930547 10.13354
6.620507 9.167966 10.34968
6.595317 9.329113 10.50436
6.536024 9.574622 10.75012
6.582412 9.959536 11.06829
6.997612 11.30436 12.0581
7.092735 11.52419 12.20675
7.108491 11.75778 12.40583
7.079628 11.92048 12.56367
7.020907 12.08857 12.74059
6.506802 12.73147 13.55694
6.671798 8.663466 9.746104
6.645381 8.903017 9.970648
6.633416 9.140231 10.18625
6.617188 9.2999 10.33528
6.562508 9.544554 10.57797
6.532488 9.785242 10.80533
7.123719 11.72916 12.24012
7.076236 12.05282 12.54919
7.007341 12.22264 12.7326
6.507459 12.86333 13.53986
6.478071 13.02669 13.69858
6.417495 13.19571 13.87714
6.662544 8.874672 9.80466
6.643353 9.113054 10.02473
6.629186 9.272275 10.17229
6.596469 9.513186 10.40118
6.54331 9.757757 10.64296
7.122628 11.86103 12.22432
7.108909 12.0211 12.37241
7.064984 12.18651 12.53988
6.498037 12.83878 13.38948
6.491929 12.99804 13.53322
6.460755 13.16172 13.69292
6.404326 13.33003 13.86896
6.658203 9.085086 9.860071
6.639998 9.244892 10.01023
6.61919 9.48377 10.23146
6.567494 9.727965 10.47224
6.562132 9.964487 10.68395
6.610489 10.11339 10.79232
7.122652 11.99267 12.20771
7.102547 12.15381 12.35995
7.048965 12.32098 12.53346
6.996664 12.40904 12.63645
6.469313 12.81765 13.2513
6.512449 12.96818 13.36364
6.485063 13.1312 13.52101
6.440074 13.29745 13.6896
6.379427 13.46647 13.86829
6.675188 9.056661 9.694229
6.656082 9.216675 9.844834
6.626743 9.45698 10.07139
6.596002 9.697553 10.29883
6.563765 9.938608 10.5275
6.595154 10.09035 10.64651
7.128845 11.96553 12.04777
7.119524 12.12478 12.19316
7.076629 12.29006 12.35984
6.490843 12.9458 13.221
6.50182 13.102 13.35386
6.477154 13.2646 13.50948
6.425407 13.43205 13.68232
6.66964 9.188863 9.68113
6.639544 9.429157 9.907984
6.612924 9.669035 10.1328
6.572682 9.911453 10.36645
6.593084 10.06502 10.49236
6.671648 10.20878 10.58167
7.118793 12.09888 12.03762
7.099812 12.25989 12.18905
7.040875 12.428 12.36593
6.997177 12.51463 12.46347
6.463282 12.92443 13.0822
6.506059 13.075 13.19474
6.49408 13.23537 13.34218
6.45749 13.4001 13.50537
6.397705 13.56903 13.68342
6.680489 9.161576 9.51917
6.659345 9.400294 9.740373
6.632271 9.561767 9.896063
6.595129 9.88197 10.1969
6.594609 10.03905 10.33593
7.171001 10.88321 10.80533
7.169726 11.11934 11.01453
7.0582 12.39883 12.19894
6.472817 12.89659 12.91983
6.483853 13.05269 13.05257
6.507423 13.20668 13.17727
6.484853 13.36892 13.33151
6.431872 13.53662 13.5051
6.675744 9.293581 9.505653
6.653448 9.532638 9.727471
6.629275 9.693562 9.881367
6.611165 9.853558 10.03141
6.648206 10.16134 10.28566
7.181041 11.0915 10.85182
7.007024 12.53953 12.21486
6.958066 12.62708 12.31574
6.579224 12.8516 12.69594
6.472084 13.02862 12.90374
6.506342 13.18072 13.02161
6.49635 13.34065 13.16771
6.460444 13.5052 13.3304
6.401713 13.67399 13.50777
6.685276 9.266453 9.344552
6.666506 9.426427 9.494863
6.642724 9.665662 9.717688
6.625668 9.825531 9.86704
6.61047 9.985077 10.01529
6.634826 10.13796 10.13872
7.149409 10.67822 10.36921
7.181865 10.82974 10.48763
7.189048 11.06425 10.69131
7.160787 11.38369 10.98706
6.477138 13.00152 12.7442
6.496058 13.15627 12.87187
6.513746 13.31127 13.00028
6.490288 13.47362 13.15507
5.111474 14.51243 14.73399
6.692351 9.23972 9.185023
6.675606 9.39935 9.334081
6.662165 9.636842 9.550274
6.639836 9.797545 9.702967
6.618035 9.958184 9.855316
6.630396 10.11301 9.98612
6.706395 10.25709 10.07702
7.17952 10.80434 10.33366
7.200134 11.03653 10.52886
7.178081 11.35483 10.82061
7.142216 11.51836 10.98234
6.940391 12.6568 12.08466
6.857369 12.75035 12.20697
6.525016 12.96688 12.55764
6.519865 13.28395 12.84016
6.507753 13.44423 12.98753
6.429983 13.69548 13.24678
6.694886 9.213834 9.028441
6.682155 9.372681 9.174897
6.671781 9.609602 9.389149
6.653633 9.769502 9.539091
6.631639 9.930165 9.691491
6.672214 10.23722 9.943269
7.142358 10.70646 10.13247
7.204488 11.01003 10.37076
7.191925 11.24792 10.58695
7.165823 11.48844 10.81186
7.120719 11.65358 10.97931
6.929583 12.63261 11.93559
6.524657 13.41501 12.82055
6.487395 13.57982 12.98391
6.700153 9.187418 8.870212
6.673391 9.583726 9.233011
6.663776 9.742199 9.377622
6.642537 9.902671 9.529409
6.62451 10.06276 9.679326
6.643233 10.21652 9.806295
6.731502 10.35852 9.88934
7.090694 10.6896 10.0097
7.17254 10.83257 10.0968
7.195038 10.98578 10.22134
7.194242 11.22165 10.4301
7.182446 11.38099 10.57633
7.090727 11.79033 10.98171
6.59549 12.98109 12.27032
6.521563 13.31023 12.59636
6.705625 9.161079 8.711934
6.687629 9.399117 8.930759
6.674513 9.55801 9.077314
6.667316 9.715991 9.220256
6.647587 9.876282 9.371133
6.625162 10.037 9.523851
7.143188 10.81182 9.960021
7.196821 11.19536 10.27308
7.184859 11.35472 10.41946
7.169134 11.51473 10.56827
7.146389 11.67599 10.7215
7.05599 11.92784 10.98711
7.011308 12.01438 11.0849
6.502128 13.60373 12.73174
5.100454 14.72626 14.39368
6.690511 9.373088 8.77398
6.678019 9.531907 8.920166
6.671085 9.689856 9.062936
6.655454 9.849252 9.211186
6.630883 10.01033 9.365085
6.62128 10.1689 9.509696
6.671573 10.39582 9.685868
7.084456 10.7962 9.841889
7.167196 11.48908 10.41398
7.147458 11.64987 10.56539
7.116218 11.81265 10.72405
6.967465 12.15359 11.0961
6.905864 12.24317 11.20462
6.524208 13.57349 12.56154
6.688314 9.34787 8.620492
6.677654 9.506368 8.765475
6.667617 9.664791 8.91009
6.646479 9.982067 9.200225
6.623766 10.14282 9.353017
6.643756 10.37489 9.548278
6.709964 10.52064 9.645155
7.154092 11.07257 9.920113
7.171169 11.38396 10.18673
7.145713 11.6242 10.41105
7.123409 11.7855 10.56396
7.083673 11.9498 10.72805
7.029019 12.1168 10.90152
6.505144 13.70872 12.55707
5.091758 14.83376 14.22559
6.69194 9.321753 8.463416
6.68285 9.479962 8.607368
6.669554 9.638977 8.753973
6.655272 9.876569 8.970489
6.626111 10.35223 9.404203
7.159055 11.51735 10.17783
7.126049 11.7591 10.40682
7.096306 11.9216 10.56457
7.049536 12.08725 10.73298
6.991742 12.25482 10.90852
6.944879 12.34182 11.00771
6.885998 12.43097 11.11449
6.683995 9.454242 8.451767
6.670591 9.61317 8.598397
6.656863 9.772236 8.745322
6.644451 10.0096 8.96073
6.631718 10.16865 9.107089
6.618759 10.32783 9.253715
6.681691 10.63099 9.491272
7.133688 11.65314 10.17726
7.100443 11.89492 10.40652
7.065859 12.0584 10.56719
7.017603 12.22423 10.73661
6.845557 12.56957 11.12345
5.090334 14.93989 14.05292
6.680589 9.42927 8.299114
6.671139 9.587522 8.443262
6.65898 9.7463 8.589156
6.646667 9.905197 8.735195
6.636878 10.14215 8.948885
6.624769 10.30112 9.094874
6.61586 10.45961 9.238995
6.647703 10.6111 9.357467
7.102007 11.78998 10.18072
7.066653 12.03222 10.41126
7.028474 12.19633 10.57421
6.978924 12.36252 10.74449
6.910887 12.53203 10.92654
6.828842 12.70412 11.11752
6.779869 12.79158 11.21799
6.669672 9.562317 8.289381
6.656976 9.721059 8.435617
6.644374 9.879991 8.581732
6.636697 10.03803 8.724799
6.621037 10.27609 8.942199
6.616932 10.4337 9.083201
6.689494 10.81376 9.383863
7.073836 11.92631 10.18192
7.036109 12.16903 10.4139
6.992335 12.33412 10.5805
6.936818 12.50142 10.75451
6.879744 12.66911 10.92955
6.769205 12.9251 11.20821
6.668219 9.53701 8.135596
6.653832 9.696055 8.282792
6.648683 9.853691 8.424166
6.637579 10.01234 8.569371
6.626595 10.17098 8.714648
6.61048 10.40909 8.932269
6.60471 10.567 9.074327
6.611007 10.72297 9.208891
7.036188 12.06427 10.18911
6.990493 12.30845 10.42618
6.946994 12.47361 10.5926
6.897097 12.63994 10.76308
6.845905 12.80662 10.93441
6.759847 13.05836 11.19757
6.708284 13.22539 11.36931
6.654019 9.670451 8.127854
6.642125 9.829197 8.273575
6.634951 9.987176 8.416202
6.625609 10.14552 8.560326
6.613307 10.30451 8.706365
6.600618 10.54201 8.921849
6.584926 10.70172 9.070123
6.604224 10.85541 9.196529
6.680714 10.99933 9.286993
6.995376 12.20282 10.19827
6.943019 12.4482 10.43957
6.897674 12.61378 10.60709
6.862347 12.77755 10.76838
6.817591 12.94316 10.93576
6.742591 13.19307 11.19188
6.66728 13.44322 11.44831
4.743924 3.721295 3.660084
6.646195 9.802926 8.116278
6.632251 9.962018 8.263155
6.620859 10.1207 8.408435
6.611792 10.27911 8.552386
6.60239 10.43756 8.696632
6.586551 10.67574 8.914081
6.564808 10.83647 9.066212
6.599826 10.98748 9.182718
6.959062 12.18321 10.06579
6.936147 12.34468 10.21907
6.883694 12.59008 10.46039
6.859355 12.75203 10.61478
6.827371 12.9153 10.77395
6.787 13.08018 10.93853
6.716745 13.32932 11.19166
6.641973 13.57951 11.44774
4.650626 3.711335 3.56401
6.634548 9.935959 8.106939
6.61744 10.09563 8.255781
6.608792 10.25389 8.399415
6.59885 10.4125 8.543907
6.586908 10.57146 8.689749
6.559469 10.81163 8.914472
6.55171 10.96999 9.057879
6.596842 11.11937 9.168022
6.669641 11.26393 9.260796
6.893494 12.32613 10.09053
6.848891 12.49142 10.25745
6.831331 12.73082 10.47692
6.826534 12.88932 10.61885
6.798864 13.05187 10.77535
6.761142 13.21633 10.9383
6.687736 13.46615 11.1934
6.613155 13.71631 11.44942
4.556429 3.701585 3.468379
4.681076 3.837206 3.528671
6.634766 9.832093 7.883068
6.620816 10.06944 8.098974
6.606523 10.22868 8.246048
6.594545 10.38754 8.391794
6.588391 10.54549 8.533952
6.575285 10.70469 8.68041
6.535229 10.94708 8.913189
6.537739 11.1037 9.050087
6.649162 11.39873 9.257082
6.786599 12.47633 10.14138
6.765002 12.63765 10.2938
6.80159 12.86763 10.47906
6.793847 13.02669 10.623
6.76844 13.18887 10.77797
6.72958 13.35357 10.94164
6.658461 13.60301 11.19531
6.568185 13.85606 11.46124
4.455449 3.69285 3.376998
4.585824 3.827581 3.433728
6.626015 9.807965 7.733877
6.62216 9.965243 7.874391
6.601176 10.20394 8.094623
6.595704 10.36172 8.23629
6.579675 10.52126 8.384543
6.57183 10.67952 8.52766
6.552255 10.83989 8.678293
6.515085 11.08184 8.909181
6.521394 11.2379 9.043745
6.565016 11.38747 9.154798
6.61675 11.53577 9.260837
6.674714 11.68291 9.36297
6.714682 11.83322 9.47643
6.735 12.30183 9.879673
6.703566 12.46484 10.03828
6.679057 12.62661 10.1925
6.747074 12.85111 10.35796
6.759528 13.16425 10.62798
6.742415 13.32504 10.77789
6.698185 13.49078 10.94483
6.623317 13.74098 11.20093
6.52929 13.99478 11.46929
5.745049 14.5308 12.31458
4.980603 15.30334 13.35873
4.924953 15.55194 13.60427
4.296656 3.61551 3.252585
4.487996 3.818366 3.340285
4.617054 3.953256 3.397874
6.612272 9.941351 7.725914
6.609122 10.09865 7.865936
6.588067 10.33735 8.08629
6.579394 10.49561 8.229826
6.569285 10.65424 8.374466
6.553891 10.81381 8.522349
6.527882 10.97526 8.676939
6.499448 11.21586 8.902445
6.508176 11.37143 9.03534
6.529786 11.52495 9.160322
6.575637 11.67425 9.270071
6.623417 11.82322 9.378592
6.638461 11.97793 9.507774
6.629721 12.1368 9.651967
6.623281 12.2954 9.794734
6.591725 12.45841 9.953274
6.581201 12.6178 10.09877
6.660709 12.84021 10.25697
6.732154 13.0641 10.42029
6.726745 13.30163 10.63215
6.711117 13.46224 10.78106
6.661986 13.62888 10.95114
6.581691 13.88003 11.21073
6.478114 14.13568 11.48511
5.635147 14.52414 12.22793
4.982563 15.27642 13.20081
4.940641 15.44289 13.36749
4.388154 3.809393 3.248192
4.517392 3.944362 3.305635
4.647959 4.079071 3.362315
6.60381 9.917187 7.576647
6.601151 10.07432 7.716231
6.587637 10.23336 7.862789
6.577139 10.4703 8.076557
6.565244 10.62925 8.222181
6.552461 10.7883 8.368345
6.531388 10.94896 8.519889
6.508194 11.10996 8.67271
6.482372 11.35005 8.896497
6.482714 11.50723 9.034795
6.492197 11.6628 9.167393
6.544284 11.96838 9.411731
6.518094 12.20901 9.63625
6.479995 12.45187 9.868334
6.466808 12.61178 10.01535
6.549841 12.83357 10.1714
6.678236 13.0475 10.29873
6.703036 13.20084 10.42206
6.700707 13.43791 10.63198
6.664302 13.60221 10.79407
6.61964 13.76801 10.96133
6.526728 14.02158 11.22888
4.931637 15.41799 13.21648
4.905926 15.58162 13.37282
4.28389 3.801253 3.158705
4.41586 3.935693 3.2145
4.547315 4.070295 3.270641
4.676373 4.205184 3.32823
6.589094 10.05079 7.569249
6.584339 10.20828 7.710207
6.573809 10.36686 7.854849
6.564532 10.60365 8.067784
6.549043 10.76323 8.215692
6.530832 10.92324 8.365344
6.507734 11.08424 8.518141
6.486146 11.24505 8.670026
6.464818 11.4845 8.890989
6.448719 11.64445 9.039582
6.465304 11.87753 9.236884
6.460251 12.11442 9.448014
6.41931 12.35773 9.68177
6.583256 13.03815 10.2031
6.664493 13.18149 10.29088
6.682509 13.41491 10.48793
6.661236 13.57649 10.64028
6.618696 13.74194 10.80625
6.567649 13.90901 10.97756
6.467391 14.16396 11.24983
5.165143 14.79343 12.4223
4.948597 15.30879 12.97906
4.897451 15.55645 13.22156
4.313286 3.927249 3.124055
4.444478 4.061883 3.180367
4.574866 4.196512 3.237193
4.75409 4.401123 3.33229
6.576668 10.18402 7.560425
6.568846 10.34208 7.703324
6.558315 10.50066 7.847968
6.546235 10.73799 8.062669
6.529175 10.89786 8.211609
6.506926 11.05865 8.363768
6.48311 11.21973 8.516958
6.470652 11.37905 8.663048
6.448462 11.6186 8.884648
6.418579 11.85967 9.11116
6.410244 12.0185 9.254937
6.387445 12.25862 9.477124
6.335109 12.504 9.718103
6.465101 13.03278 10.12212
6.648892 13.31581 10.28415
6.648465 13.55254 10.49274
6.615462 13.71624 10.6526
6.567386 13.88275 10.822
6.514698 14.05011 10.99446
5.007158 15.03346 12.57558
4.95444 15.2812 12.81879
4.901852 15.44956 12.99198
4.205739 3.919502 3.036559
4.339674 4.053706 3.091223
4.47397 4.187867 3.145691
4.657963 4.391705 3.237888
6.560108 10.31784 7.55423
6.550344 10.47633 7.69826
6.541311 10.63464 7.841994
6.524761 10.8728 8.059522
6.507091 11.03285 8.20883
6.480625 11.19435 8.363642
6.468155 11.35357 8.509732
6.453959 11.51319 8.656999
6.42035 11.75482 8.885724
6.382031 11.99751 9.117447
6.359834 12.1587 9.270018
6.313776 12.40292 9.506872
6.26972 12.647 9.742691
6.627715 13.52995 10.35029
6.604095 13.69202 10.50419
6.563099 13.85718 10.66903
6.519266 14.02298 10.83587
6.450424 14.19329 11.01846
6.410643 14.27954 11.11323
5.051175 14.76088 12.18169
4.961995 15.17384 12.58756
4.903766 15.42264 12.83429
4.231971 4.046079 3.003875
4.365451 4.180337 3.05876
4.558398 4.382799 3.145623
4.732242 4.588157 3.244086
6.550053 10.29397 7.405899
6.542038 10.45205 7.548848
6.532754 10.61048 7.692753
6.523529 10.76881 7.836537
6.504175 11.00751 8.055833
6.488768 11.16719 8.203619
6.462937 11.32871 8.358062
6.449617 11.48813 8.504789
6.436728 11.6475 8.651198
6.391339 11.89124 8.887245
6.347593 12.13489 9.122455
6.308979 12.29905 9.285321
6.255648 12.54465 9.526769
6.22633 12.78616 9.753254
6.592366 13.66785 10.35596
6.559723 13.8315 10.51563
6.511204 13.99816 10.68525
6.452811 14.16661 10.86127
4.950752 15.1493 12.43817
4.919541 15.31369 12.5978
4.863323 15.56225 12.84318
4.254668 4.173181 2.973353
4.45121 4.37501 3.05793
4.633203 4.579188 3.151478
6.531383 10.42825 7.400982
6.52259 10.58652 7.544446
6.513892 10.74479 7.687886
6.508215 10.90269 7.829506
6.481576 11.14267 8.053397
6.469261 11.30177 8.19934
6.450438 11.46215 8.349264
6.432637 11.62231 8.498816
6.412546 11.78305 8.649697
6.362784 12.02761 8.888545
6.30763 12.27323 9.130977
6.272527 12.43688 9.291583
6.187016 12.92463 9.761406
6.541166 13.80854 10.37178
6.503418 13.97321 10.53454
6.448943 14.14089 10.70799
6.366765 14.31371 10.89893
5.001361 14.87552 12.04018
4.957482 15.04214 12.20767
4.912875 15.2884 12.44556
4.874198 15.45419 12.60983
4.277618 4.300151 2.942659
4.53142 4.570649 3.060516
6.517614 10.56164 7.392921
6.507155 10.72021 7.537442
6.501993 10.87795 7.678718
6.490959 11.0368 7.823705
6.465831 11.2766 8.046687
6.450327 11.43628 8.194498
6.430836 11.59674 8.34501
6.417502 11.75626 8.49164
6.384532 11.91925 8.650749
6.335991 12.16367 8.888762
6.278045 12.40993 9.132964
6.157519 12.90369 9.624557
6.152864 13.06218 9.766243
6.484571 13.95029 10.39077
6.437285 14.11671 10.55964
6.366755 14.28732 10.74319
4.953538 14.85769 11.91422
4.966706 15.01394 12.04548
4.914836 15.18201 12.21796
4.867784 15.42877 12.45742
4.832019 15.59411 12.6199
4.16681 4.292997 2.857153
4.364167 4.494728 2.941312
4.667884 4.834877 3.096946
6.508986 10.53749 7.243802
6.502288 10.69542 7.385891
6.492021 10.85397 7.530362
6.483959 11.01226 7.673433
6.477658 11.17023 7.815422
6.451295 11.41028 8.039141
6.434846 11.57018 8.187615
6.412202 11.73132 8.340093
6.388864 11.89255 8.493061
6.35727 12.05527 8.651189
6.305435 12.30038 8.891411
6.24949 12.5463 9.134263
6.111278 13.0434 9.637107
6.132338 13.19738 9.762554
6.417386 14.09392 10.41656
6.359568 14.2623 10.59202
6.28845 14.43309 10.77603
4.912137 15.15595 12.06334
4.872979 15.32179 12.22774
4.823135 15.56919 12.46896
4.250195 4.488155 2.857773
4.441824 4.690775 2.945494
4.567611 4.826158 3.005075
6.496942 10.51386 7.096917
6.494785 10.67094 7.23606
6.489527 10.82869 7.377362
6.478984 10.98737 7.521907
6.470562 11.1457 7.665175
6.459169 11.30459 7.810358
6.435357 11.54423 8.03248
6.414894 11.70491 8.183558
6.391987 11.86609 8.336207
6.362921 12.0284 8.492641
6.328882 12.19162 8.652341
6.276005 12.43696 8.893251
6.215171 12.68386 9.139247
6.167762 12.84969 9.307519
6.119898 13.01577 9.476328
6.068523 13.18258 9.6473
6.186398 13.47724 9.850873
6.291838 13.61627 9.923326
6.377724 13.75886 10.00814
6.402856 13.99122 10.20064
6.345023 14.23856 10.44557
6.263001 14.41126 10.63636
4.943887 15.04437 11.81709
4.872737 15.29533 12.07154
4.836576 15.46061 12.23412
4.331376 4.683578 2.859793
4.693745 5.092027 3.047823
6.489283 10.4895 6.947233
6.48503 10.64693 7.08775
6.479459 10.80471 7.22903
6.471456 10.96289 7.371979
6.461272 11.12153 7.516328
6.454972 11.27951 7.658317
6.437012 11.43959 7.807701
6.415142 11.679 8.028595
6.389491 11.8406 8.182891
6.363588 12.00234 8.33736
6.338668 12.16396 8.491262
6.2969 12.3286 8.655777
6.244094 12.57394 8.896566
6.181858 12.82111 9.143446
6.035618 13.31998 9.6514
6.070591 13.47159 9.768246
6.163917 13.61278 9.848315
6.271323 13.75158 9.919637
6.349287 13.97448 10.07888
6.330038 14.13592 10.22987
6.245294 14.38811 10.49187
4.937451 14.93969 11.59521
4.897574 15.18489 11.82979
4.825453 15.43606 12.0848
4.147526 4.610353 2.750715
4.472096 4.947195 2.893668
4.594514 5.083082 2.955263
4.7642 5.289039 3.056259
6.480189 10.62213 6.936297
6.471801 10.78035 7.079346
6.466602 10.93799 7.220526
6.455075 11.0968 7.365637
6.445155 11.25541 7.509814
6.437034 11.4138 7.653007
6.418799 11.57401 7.802465
6.388312 11.81496 8.028716
6.367754 11.97565 8.179818
6.339862 12.13783 8.335637
6.308183 12.30066 8.493789
6.274768 12.4638 8.65312
6.215839 12.71037 8.89779
6.147443 12.95869 9.148454
6.14418 13.74789 9.844111
6.268947 13.96256 9.973942
6.285084 14.11764 10.10275
6.246365 14.28253 10.26608
4.902161 15.15755 11.67057
4.850002 15.32565 11.84313
4.227184 4.806058 2.753548
4.359359 4.940373 2.809391
6.467235 10.75542 6.927817
6.458128 10.91373 7.071259
6.444937 11.07283 7.217428
6.435795 11.23125 7.361089
6.429147 11.38937 7.503275
6.415284 11.54875 7.649933
6.399697 11.70855 7.79777
6.361231 11.95085 8.029105
6.339546 12.11188 8.18092
6.310743 12.27417 8.337182
6.273097 12.43812 8.49907
6.242175 12.60096 8.656926
6.178835 12.84826 8.904299
6.111363 13.09657 9.15452
6.152542 13.95699 9.891781
6.198837 14.10674 10.00143
6.19803 14.26486 10.14088
6.149485 14.43153 10.3104
4.946087 14.96444 11.34722
4.909241 15.1297 11.50997
4.855129 15.29815 11.68366
4.049517 4.73189 2.640686
4.496098 5.204669 2.845649
6.458066 9.557384 5.746932
6.440929 9.716658 5.895047
6.463968 10.49526 6.568754
6.458084 10.65288 6.71011
6.448181 10.88974 6.923
6.440669 11.04776 7.065509
6.429862 11.20648 7.210226
6.420301 11.36505 7.354206
6.408631 11.52407 7.499464
6.397418 11.68304 7.644501
6.375336 11.84401 7.796416
6.337828 12.0862 8.027089
6.311673 12.24807 8.181728
6.282799 12.41036 8.338112
6.249107 12.57364 8.497518
6.208167 12.73829 8.661616
6.14037 12.98653 8.911815
6.068788 13.23562 9.164663
6.027867 13.953 9.814683
6.089884 14.09986 9.914528
6.115139 14.25335 10.03754
6.098982 14.41422 10.18669
4.860326 15.27063 11.52407
4.129007 4.927616 2.643665
4.259516 5.062231 2.700564
4.386442 5.197376 2.759432
4.619488 5.470968 2.890042
6.423733 9.850459 5.88922
6.428525 10.0061 6.023747
6.431651 10.16203 6.15933
6.446593 10.62918 6.562978
6.443106 10.78651 6.702883
6.432219 11.0235 6.916339
6.4191 11.18259 7.062385
6.415159 11.34018 7.202827
6.401716 11.49942 7.349167
6.389627 11.65859 7.494744
6.373128 11.81849 7.643025
6.350447 11.97954 7.795406
6.310675 12.2223 8.027503
6.280829 12.38482 8.184453
6.251511 12.54726 8.341059
6.214417 12.71115 8.502699
6.169342 12.87659 8.669328
6.105236 13.12419 8.917217
5.999666 14.24766 9.95462
4.984849 14.98376 11.08038
4.944287 15.07041 11.17556
4.901809 15.15729 11.27207
4.513488 5.463137 2.801735
4.684767 5.668802 2.901795
6.489484 9.579298 5.488251
6.402872 9.828487 5.748059
6.411965 9.983305 5.879906
6.415619 10.13918 6.015146
6.43065 10.52796 6.34974
6.431422 10.76284 6.555802
6.422316 10.92115 6.699244
6.408626 11.15867 6.91447
6.40315 11.31644 7.055725
6.397711 11.47432 7.197076
6.376635 11.63497 7.348207
6.362258 11.79452 7.495209
6.34262 11.955 7.645552
6.31868 12.1163 7.798573
6.279196 12.35903 8.030596
6.250045 12.52146 8.187055
6.219948 12.6841 8.344176
6.176108 12.84929 8.510067
6.136581 13.01377 8.67328
4.016606 5.051384 2.542459
4.144538 5.186408 2.600857
4.275838 5.320928 2.65724
4.401445 5.456232 2.716967
4.580155 5.660804 2.812506
6.386527 9.962084 5.741594
6.393512 10.11736 5.87472
6.403977 10.35037 6.07452
6.410927 10.50575 6.207865
6.415048 10.66167 6.342882
6.409937 10.89755 6.552654
6.402136 11.05561 6.695237
6.385391 11.2938 6.912403
6.380179 11.45154 7.053486
6.367886 11.61064 7.199113
6.350141 11.77069 7.348131
6.338411 11.92982 7.493511
6.312518 12.09145 7.647664
6.289586 12.25263 7.800216
6.250879 12.49537 8.031626
6.216828 12.65869 8.19123
6.181375 12.82228 8.351717
6.148151 12.98559 8.510901
6.090709 13.15333 8.685317
4.470272 5.65364 2.726557
4.701244 5.92738 2.858325
6.431105 9.694571 5.353917
6.372412 10.09541 5.733827
6.387346 10.32759 5.930801
6.389142 10.48379 6.067146
6.397242 10.79564 6.337424
6.390884 11.03188 6.547837
6.381777 11.19019 6.69128
6.36581 11.42819 6.90793
6.358874 11.58634 7.050191
6.34289 11.74608 7.198128
6.329278 11.90554 7.344517
6.310167 12.06595 7.494517
6.285449 12.22744 7.648054
6.260827 12.38893 7.801565
6.215554 12.63286 8.037176
6.183791 12.7958 8.195354
6.147823 12.95955 8.356185
6.095019 13.12642 8.527629
6.049333 13.29204 8.694626
4.026396 5.311167 2.503116
4.159458 5.445375 2.558418
4.292256 5.579614 2.613891
4.591817 5.920161 2.772153
4.763071 6.125829 2.872118
4.916172 6.334379 2.983335
6.35926 10.30678 5.794111
6.366411 10.46204 5.92709
6.373917 10.69571 6.128805
6.375205 10.93042 6.334523
6.366042 11.1672 6.546704
6.35968 11.32508 6.6885
6.342324 11.56345 6.906035
6.329646 11.72259 7.051762
6.317617 11.88165 7.197217
6.300147 12.04177 7.346063
6.279479 12.20258 7.497094
6.252639 12.36443 7.651909
6.228125 12.526 7.805396
6.178216 12.77078 8.043978
6.147675 12.93358 8.201322
6.105211 13.09851 8.366232
6.048549 13.26605 8.540132
4.361765 5.776839 2.62299
4.480242 5.913301 2.687165
4.657861 6.117903 2.783293
4.818451 6.325253 2.889867
4.968472 6.534273 3.003025
6.342207 10.44057 5.788041
6.351781 10.59553 5.919668
6.359663 10.90741 6.189898
6.351477 11.06551 6.332582
6.345156 11.30185 6.543091
6.329027 11.4614 6.690956
6.317591 11.69886 6.904877
6.30139 11.85862 7.052767
6.288486 12.01789 7.198764
6.2685 12.17852 7.349303
6.246825 12.33944 7.500802
6.222478 12.50099 7.654143
6.192607 12.66351 7.810995
6.147346 12.90753 8.046606
6.102055 13.07301 8.213188
6.05408 13.239 8.38161
6.012181 13.40397 8.546272
4.175168 5.704246 2.515462
4.548408 6.110687 2.697026
4.716968 6.316779 2.79883
4.872884 6.524891 2.908279
6.326497 10.57419 5.781208
6.332049 10.80819 5.984054
6.334295 11.0428 6.18911
6.330256 11.2002 6.329262
6.316817 11.43779 6.544218
6.303156 11.59705 6.690511
6.28731 11.83523 6.907136
6.272259 11.99486 7.054313
6.260601 12.15398 7.199572
6.233042 12.31592 7.354781
6.213763 12.47656 7.50483
6.185714 12.63865 7.66048
6.152692 12.80185 7.819298
6.101727 13.04696 8.058472
6.059264 13.21189 8.223381
6.008472 13.37853 8.393475
4.245229 5.901405 2.524315
4.374132 6.036213 2.582148
4.611146 6.309027 2.710374
4.768561 6.516858 2.818914
4.922871 6.725163 2.929297
6.307624 10.70839 5.776341
6.314218 10.94217 5.978499
6.313049 11.17749 6.185693
6.308495 11.33505 6.326189
6.287997 11.57379 6.545471
6.28058 11.732 6.687857
6.259292 11.97124 6.907872
6.250175 12.12985 7.051534
6.227947 12.29084 7.20328
6.199609 12.45297 7.359005
6.176736 12.61425 7.511339
6.147297 12.77671 7.667873
6.116563 12.93953 7.825267
6.060769 13.18552 8.067462
6.015778 13.35106 8.233968
5.969551 13.51685 8.401212
3.909127 5.69718 2.371463
4.440106 6.233963 2.593409
6.29501 10.9198 5.836281
6.294039 11.07663 5.974492
6.288987 11.31261 6.184045
6.284169 11.47021 6.324713
6.262545 11.70929 6.544707
6.255235 11.86758 6.687068
6.234919 12.1066 6.906518
6.218048 12.26665 7.054899
6.194802 12.42787 7.20743
6.162066 12.59083 7.365858
6.137887 12.75236 7.519051
6.113097 12.91406 7.672613
6.078577 13.07753 7.832341
6.017367 13.32458 8.078024
5.971668 13.4903 8.244924
4.254948 6.161197 2.485094
4.558294 6.501088 2.641022
4.664308 6.639447 2.71279
4.824012 6.846903 2.819905
6.271727 11.05473 5.834117
6.271739 11.21145 5.971763
6.265356 11.44769 6.182078
6.258621 11.60572 6.323974
6.238339 11.84463 6.543206
6.222929 12.0043 6.69058
6.202528 12.24343 6.910055
6.181895 12.40414 7.060867
6.158637 12.56546 7.213301
6.135044 12.72681 7.366029
6.102537 12.88984 7.524503
6.073277 13.05239 7.680891
6.0392 13.21591 7.8403
5.973689 13.46378 8.088661
5.92316 13.63038 8.258584
4.325079 6.358348 2.493824
4.444336 6.494614 2.557483
4.720048 6.838828 2.730343
4.882232 7.045886 2.835982
6.248288 11.18979 5.832101
6.248275 11.3465 5.969649
6.239017 11.58329 6.181856
6.220669 11.74342 6.330927
6.205313 11.98144 6.547111
6.193079 12.14063 6.69252
6.168041 12.38062 6.914967
6.148366 12.5412 7.065116
6.121969 12.7031 7.219613
6.088718 12.86622 7.378385
6.069811 13.02692 7.528237
6.030461 13.19127 7.690987
5.993317 13.35537 7.852337
5.918674 13.60493 8.106399
5.263044 14.98584 9.625963
4.556006 6.762723 2.609173
4.973062 7.317401 2.900356
6.220006 11.48244 5.970654
6.205033 11.72021 6.186424
6.188878 11.87997 6.334095
6.173437 12.11811 6.550305
6.157801 12.27791 6.697947
6.133637 12.51789 6.919757
6.103345 12.68036 7.076613
6.085025 12.84088 7.226
6.054685 13.00355 7.382978
6.02243 13.16665 7.541184
5.988436 13.33007 7.700569
5.952275 13.49404 7.861353
5.869831 13.74505 8.120352
4.442226 6.756328 2.525488
4.613782 6.961859 2.625473
4.77623 7.168886 2.730941
4.874826 7.308437 2.807231
6.197 11.46062 5.830771
6.190228 11.61855 5.972569
6.167345 11.85788 6.193204
6.152587 12.09583 6.408923
6.142809 12.25463 6.55276
6.126631 12.41459 6.70065
6.091672 12.65638 6.929313
6.066138 12.81817 7.083172
6.036385 12.98067 7.239684
6.010012 13.14276 7.394181
5.978919 13.30563 7.551771
5.942565 13.46962 7.712606
5.896733 13.63526 7.879434
4.500806 6.955267 2.541368
4.668287 7.161489 2.643763
6.165795 11.59701 5.833473
6.160366 11.75478 5.974509
6.140395 11.99366 6.193351
6.120975 12.23247 6.411945
6.104702 12.39245 6.559859
6.09055 12.55207 6.706496
6.054824 12.79415 6.935675
6.028667 12.95601 7.089903
6.001466 13.11811 7.244818
5.964117 13.28212 7.406218
5.93373 13.445 7.563318
5.892811 13.60985 7.727003
5.844368 13.776 7.89555
4.551859 7.155512 2.561699
4.718382 7.361848 2.664756
4.821651 7.500637 2.738173
4.919096 7.640326 2.815175
6.13567 11.73327 5.835585
6.127244 11.8916 5.97844
6.112917 12.1295 6.19384
