-1.1940278 22.2801305 -45.2303700
-1.1860820 11.0525209 -54.6726696
-1.2191815 -14.9239181 -61.1733086
-1.1997209 -15.7195739 -48.7116687
-1.2046673 21.0472308 -54.7731780
-1.1970637 22.2419649 -45.5478653
-1.1972334 -11.9542833 -61.5106709
-1.1939125 -12.5275701 -36.6567448
-1.2011613 13.0409012 -59.9780492
-1.1910074 -14.7057427 -39.7364721
-1.1983780 19.5195004 -7.2329156
-1.1964000 -11.4765586 -28.4758527
-1.2043290 12.9727954 -59.3757182
-1.2017797 -16.0771422 -50.7079735
-1.1923544 1.5129782 -60.5647378
-1.2073524 -16.0350148 -50.2393842
-1.2060804 5.6775087 9.3196305
-1.2066382 -16.4133403 -11.7802629
-1.2104725 -15.8142820 -49.0126163
-1.2089958 -16.8571435 -2.1619208
-1.2094978 15.8870667 -23.4594252
-1.2116808 -15.8539992 -49.1632670
-1.2111416 -15.9984380 -49.9284044
-1.2169890 21.4162990 -55.9665821
-1.2129012 -13.6027420 -61.6106987
-1.2130569 22.2294144 -46.0168906
-1.1968048 20.2306230 -51.8021360
-1.2261441 21.0454147 -59.0738989
-1.2147754 22.3940369 -44.7240733
-1.2144817 20.4988848 -51.4005683
-1.2163074 16.1394719 -21.4139670
-1.2176251 0.7053504 -60.6729127
-1.2214781 -15.0233740 -26.3738669
-1.2292323 21.4000326 -55.8097586
-1.2168303 -14.9293737 -56.5025173
-1.2130620 9.1004809 -53.7794568
-1.2285172 -15.5491913 -54.2769507
-1.2240730 20.2475134 -53.1741120
-1.1999283 1.9214678 -60.4437217
-1.2189595 -14.7484466 -39.8833342
-1.2244229 21.9868831 -48.7059690
-1.2144847 -14.5020047 -39.2921269
-1.2315342 12.9381623 -59.7521439
-1.2274071 6.4364783 -53.3754192
-1.2195252 3.8736810 -57.7659942
-1.2474654 -14.4998450 -61.6100580
-1.2121511 1.7313584 -60.4975522
-1.2313470 15.0416698 -59.8531552
-1.2465018 4.8229974 -54.3958172
-1.2279374 -14.8938252 -55.8810048
-1.2360156 -16.1111578 -51.2658022
-1.2328245 11.6087385 -55.2571639
-1.2406074 -16.0694495 -52.2408858
-1.2439372 5.9785424 -53.4515902
-1.2378868 6.9120801 -53.3872731
-1.2344318 -14.9142453 -55.7211488
-1.2422921 20.2022064 -53.0240908
-1.2481407 -15.6926010 -53.9432056
-1.2228150 2.5074938 -59.9980578
-1.2494111 -15.2028818 -47.3021269
-1.2514258 -11.7383469 -33.0215953
-1.2523198 -11.7233219 -31.7690782
-1.2537205 8.5977800 -53.6560155
-1.2618013 -16.4156277 -24.4820528
-1.2572109 -11.1088678 -29.9239289
-1.2710874 21.7368491 -57.3318340
-1.2609072 -12.3691447 -36.5004241
-1.2599777 19.4843225 -59.5787726
-1.2747139 21.7645038 -57.7948876
-1.2790003 21.7644032 -57.9527207
-1.2428964 2.2881066 -60.2214187
-1.2753129 20.5096230 -53.6065996
-1.2666505 20.1290231 -52.7209006
-1.2669482 3.9877226 -57.4277267
-1.2993137 21.7335373 -58.2781732
-1.2899878 20.7768939 -59.3061857
-1.2805448 -15.5198453 -42.1688147
-1.2818143 13.6546753 -59.9230900
-1.2845115 12.8125623 -59.7961098
-1.2826215 -11.4951506 -34.3568400
-1.2805052 7.3067341 -53.4285419
-1.2833352 16.9462785 -59.7327463
-1.2842787 -12.4753686 5.5977120
-1.2839222 13.3089367 -59.9557199
-1.2892748 -15.8857014 -53.2713234
-1.2869333 -15.0958700 -60.6776923
-1.2816368 -15.1154557 -46.7742458
-1.2803641 -15.1251983 -46.9169281
-1.2885110 -17.0537326 -5.7507423
-1.2966396 20.9200718 -59.2166483
-1.2911051 12.7430288 -59.1152944
-1.2821561 -13.9209013 -38.5753848
-1.2934904 15.5351199 -59.8185547
-1.2833904 10.2444449 -54.2915650
-1.3061251 -15.0691196 -61.0164814
-1.2917236 11.6346274 -55.4399677
-1.3008881 12.7503835 -59.5434271
-1.2999482 21.3756319 -40.2050056
-1.2991807 22.3665144 -42.2600992
-1.3032411 -11.5078967 -34.0390429
-1.3204082 21.3938318 -58.8247515
-1.3042093 -11.4924498 -34.1951922
-1.2938860 -11.1009534 -28.8433321
-1.2990313 9.6759545 -54.0256612
-1.3098946 -17.0609914 -4.4969236
-1.3158995 -14.5694790 -26.8698838
-1.3082399 6.6043385 -53.3957668
-1.3150858 20.1321393 -59.5212951
-1.3186135 15.7573838 -23.1418852
-1.3129723 -13.7410406 -38.4223573
-1.3187325 -15.6346262 -43.9043120
-1.3278845 4.4587268 -55.1291332
-1.3198256 7.5906920 -53.4817874
-1.3261724 15.8943217 -21.9121967
-1.3242585 -15.6185450 -44.2179665
-1.3249094 7.0730681 -53.4193143
-1.3333476 21.5259790 -55.9535585
-1.3271215 -15.1656307 -46.2345816
-1.3203616 10.5654569 -54.5169674
-1.3293336 0.2181639 -60.6986582
-1.3278017 -11.7883151 -32.6983742
-1.3524762 -15.0092756 -61.1790232
-1.3290540 17.2272734 -27.4118800
-1.3275819 11.4280740 -55.2543029
-1.3276815 22.4458445 -42.5515994
-1.3315498 16.7929493 -25.2602547
-1.3341879 -15.2933681 -54.8107848
-1.3461461 -12.0187774 -36.0256471
-1.3396058 -15.1326880 -57.1688265
-1.3449528 -14.3642426 -61.6220795
-1.3500679 -12.9047940 -37.5423282
-1.3414319 -15.3134465 -41.4015986
-1.3316717 11.1802872 -55.0044812
-1.3417173 -11.7955403 -32.5411521
-1.3427871 -16.0975214 -51.9779101
-1.3442226 20.3532558 -53.1624593
-1.3542207 -11.6221337 -35.1167582
-1.3453549 17.2850564 -27.7118552
-1.3472559 -16.1079131 -51.1805974
-1.3494195 17.2725711 1.5035471
-1.3534555 22.3017465 -45.0574383
-1.3534996 22.2350769 -45.5379002
-1.3532321 -14.1076175 -61.6318397
-1.3569302 21.5488747 -40.6518765
-1.3594871 -15.4052982 -54.6164662
-1.3476515 10.8904652 -54.7842272
-1.3552889 21.4335751 -50.1015224
-1.3554714 -15.1266046 -40.9410894
-1.3573798 5.9289411 -53.4534194
-1.3394052 20.2911310 -51.7902933
-1.3499850 -14.6412179 -39.7298224
-1.3619023 -13.9171248 -27.4147950
-1.3697693 -11.8316896 -35.7226543
-1.3572009 -13.7516623 -61.6097413
-1.3576661 22.2270377 -45.6951782
-1.3554833 22.0500771 -41.5376872
-1.3584646 -15.1092671 -57.0143908
-1.3799665 5.0858068 -53.9843030
-1.3582872 17.3239354 -27.8592352
-1.3585174 21.1034417 -38.9943309
-1.3616874 0.6628978 -60.6417842
-1.3570412 11.4489244 -55.3526878
-1.4022302 -14.7344293 -61.5947507
-1.3648607 -16.0880797 -50.7038347
-1.3981744 21.6263402 -58.6361177
-1.3619186 22.5300305 -42.9956689
-1.3632922 20.3069188 -53.0127473
-1.3656992 15.8736799 -23.4489124
-1.3667213 -10.9949308 -29.6039619
-1.3673517 -16.0567518 -50.2355210
-1.3701394 20.6721481 -53.7423231
-1.3392136 2.3061163 -60.0688830
-1.3672141 -11.2212151 -30.2220508
-1.3666293 8.0404086 -53.5765179
-1.3717256 -15.8438198 -49.0069203
-1.3706243 -15.9477592 -49.4623147
-1.3712859 -15.9152988 -49.3098609
-1.3721277 -15.8806089 -49.1581075
-1.3720914 -16.0203930 -49.9241352
-1.3696421 -12.7095096 -37.2490771
-1.3717584 -11.5622133 -33.7153040
-1.3842790 -12.2655807 -36.4879817
-1.3604517 -14.4264931 -39.2868631
-1.3777249 -15.5022126 -54.4371828
-1.3714499 22.5484688 -43.1448817
-1.3900191 21.8295883 -57.1650788
-1.3771494 20.5264594 -51.4048338
-1.3766618 12.6172276 -59.9914975
-1.3749993 -11.6122020 -28.4526441
-1.3824501 21.6258168 -40.8077873
-1.3861578 -15.3160216 -58.7355271
-1.3827306 21.9926406 -48.6965217
-1.3889970 5.7643973 -53.5107516
-1.3928479 -11.6582811 -35.2642797
-1.3954014 21.8085367 -57.0123270
-1.3836107 -14.9946185 -56.4882681
-1.3910912 -15.5870738 -54.2667098
-1.3864372 -14.9474926 -56.1829060
-1.4005486 -12.0696332 -36.1766815
-1.4035689 4.5593046 -54.6289273
-1.3745433 20.2236567 -51.9543029
-1.3874263 22.5689560 -43.4435643
-1.3913029 20.8129752 -51.0392152
-1.4369962 21.7468739 -58.5287213
-1.3889283 3.9395639 -57.2041050
-1.3943493 22.5045793 -44.2071222
-1.3971336 22.2388469 -46.7823930
-1.3959475 -11.6280364 -31.4505100
-1.3956962 22.5645527 -43.7455922
-1.3913108 20.2297866 -52.7102239
-1.3967262 0.9195746 -60.5984144
-1.3861310 -14.2277097 -39.0013419
-1.3973995 22.1834760 -41.8237299
-1.3971537 22.5310642 -44.0504961
-1.4016572 -11.5259131 -34.7432680
-1.4062853 -12.5100780 -36.9495004
-1.4143852 5.5141533 -53.6385216
-1.4107951 -15.7175660 -53.9331436
-1.4143783 -12.7545688 -37.3971052
-1.4093105 -11.6991792 -33.1822895
-1.4067098 11.0426266 -55.0030619
-1.4119494 21.2373696 -39.7453047
-1.4145667 -14.9862561 -40.6231619
-1.4155619 12.4578038 -59.2448078
-1.4111405 -14.9992192 -55.5464327
-1.4132631 6.2120231 -53.4173660
-1.4186702 20.5611438 -53.4468032
-1.4039353 20.1829262 -52.4070039
-1.3973649 20.1838557 -52.2576012
-1.4176210 15.2184004 -59.8292947
-1.4204691 12.4603994 -59.4488718
-1.4180365 20.3729961 -59.5148019
-1.4184422 11.9228987 -56.4366169
-1.4111781 -14.4800842 -39.4298285
-1.4257445 -15.1857501 -60.6906377
-1.4341302 -12.3136723 -36.6397053
-1.4250776 -15.4072214 -41.6944847
-1.4391523 -14.5975789 -61.6065897
-1.4373726 -11.6954427 -35.4168229
-1.4636358 -14.9832917 -61.3984987
-1.4477121 -15.1582174 -61.0304959
-1.4425952 21.2658308 -54.7499619
-1.4396530 12.4440119 -59.7502291
-1.4296776 -15.2052976 -60.5037250
-1.4372608 -14.7812665 -40.1691087
-1.4425110 -15.8641636 -53.4266047
-1.4382510 -11.0311713 -29.0155225
-1.4429098 20.5084048 -53.2996319
-1.4436695 -15.1246833 -55.1996939
-1.4455573 18.4806176 -31.4982571
-1.4460192 19.8478978 -59.5434718
-1.4503044 21.3420726 -40.1987359
-1.4496419 -15.9002449 -53.2653444
-1.4506109 15.6902671 -22.7043591
-1.4469413 11.5087265 -55.6878448
-1.4491616 21.5954520 -49.7825630
-1.4497065 14.5179927 -59.8699972
-1.4607933 21.3956889 -58.9337461
-1.4603739 21.6124468 -55.7864755
-1.4536104 15.7285240 -22.3974492
-1.4473570 -15.1853999 -47.0559821
-1.4537580 -16.3868461 -0.1452223
-1.4672637 5.2058576 -53.8120866
-1.4465434 2.4463802 -59.6861281
-1.4482923 20.4150043 -51.6174138
-1.4577149 -15.2507760 -45.9043868
-1.4619118 -16.6981686 -24.0125712
-1.4598670 -16.7204682 -14.4225489
-1.4613317 15.7690849 -22.2362485
-1.4624211 15.7127380 -22.9921974
-1.4321578 2.0555481 -60.1963811
-1.4472504 -14.2891007 -39.1415805
-1.4611398 20.6826050 -51.2147807
-1.4616831 -16.1125120 -51.7413169
-1.4639527 -15.9597602 -52.9425703
-1.4646158 18.1013718 -30.1257316
-1.4662888 19.9415106 -36.1763611
-1.4658782 -11.6966739 -31.7560546
-1.4684799 -15.9888454 -52.7772531
-1.4675073 8.3954390 -53.6996089
-1.4717097 -14.2034860 -27.2433478
-1.4645763 2.5079933 -59.5051870
-1.4717411 15.8239044 -22.0730696
-1.4701930 -15.2198663 -55.0021343
-1.4773122 -12.6551287 5.4561347
-1.4590535 1.6516892 -60.3999533
-1.4782421 14.1613595 -59.8898679
-1.4785933 18.1409791 -30.2768275
-1.4807980 -6.2978333 -61.2529665
-1.4734536 -11.3070589 -28.6924336
-1.4930057 20.6808038 -59.4464429
-1.4871133 12.3182153 -59.5815331
-1.4839158 7.7728429 -53.5688214
-1.4860819 -11.7357923 -33.0047235
-1.4870028 15.5483764 4.2378125
-1.4872140 20.4117130 -53.0037954
-1.4901832 -15.3692095 -45.4258434
-1.5037152 21.9682883 -57.4582145
-1.4907127 13.4598827 -59.9320047
-1.5042463 21.9556149 -57.3045686
-1.5059288 21.9780784 -57.7718541
-1.4930955 -8.6425738 7.8435652
-1.4934033 -16.0714816 -52.2209555
-1.4924451 9.4692875 -54.0609509
-1.5121291 21.9624843 -58.1012480
-1.4856920 1.3619722 -60.4801774
-1.4993690 -15.1830874 -57.0208132
-1.4993445 14.8788514 -59.8443970
-1.5059032 12.2917490 -59.7353689
-1.5156703 -12.8497677 -37.6829281
-1.5014643 -14.5746898 -39.7224911
-1.5164886 -13.6748040 -27.5946651
-1.5077014 20.5906238 -37.6663581
-1.5164214 13.9111439 -59.9025376
-1.5163167 -15.1609760 -46.3750102
-1.5227176 -16.0404388 -52.4756871
-1.5241515 22.3675966 -44.7047725
-1.5264462 -16.0939768 -50.7001802
-1.5239783 0.7557776 -60.5878904
-1.5279197 2.4128929 9.7495886
-1.5292070 -16.0644650 -50.2325781
-1.5289579 -12.4835540 5.6025032
-1.5310650 -15.8709045 -49.0013659
-1.5306578 -16.0494316 -50.0768796
-1.5314948 -16.0108805 -49.7672632
-1.5353285 -16.5795777 -24.3427437
-1.5217924 9.7938729 -54.2580970
-1.5314685 10.5333049 -54.7549278
-1.5493217 4.2836471 -54.9563095
-1.5426455 -15.3813213 -57.9519235
-1.5417926 -14.1040403 -27.3440722
-1.5504318 4.4570286 -54.5483865
-1.5413365 -14.8911681 -40.4595025
-1.5304083 8.9538144 -53.8884662
-1.5276623 2.2267504 -59.9063188
-1.5316071 10.3072561 -54.5872338
-1.5460304 -11.4913145 -34.1740921
-1.5367402 -13.7322061 -38.5707580
-1.5477384 -16.1148105 -51.5743122
-1.5557953 12.1318121 -59.1025166
-1.5576098 12.2115426 -60.0040965
-1.5513197 -15.1833743 -46.2140478
-1.5528093 17.1075966 -59.7040132
-1.5539587 13.7882046 -59.9074550
-1.5644302 -15.2782071 -60.7065670
-1.5529770 -11.7624868 -32.2176553
-1.5536698 -15.0630325 -56.4729087
-1.5618331 12.1481223 -59.5166162
-1.5545796 -11.7353145 -28.4276046
-1.5619876 -11.4970636 -34.4895646
-1.5774155 21.0550539 -59.2547059
-1.5635939 16.5054239 -59.7401783
-1.5626109 7.0439680 -53.4905978
-1.5804947 -12.6914391 -37.5364013
-1.5775110 21.2991126 -59.0870976
-1.5674413 -11.5100257 -34.0126827
-1.6122237 21.8116641 -58.6402826
-1.5681267 -14.4392215 -61.6303533
-1.5707571 -15.7367829 -53.9259948
-1.5664782 10.6819188 -54.9288206
-1.5698571 18.3799732 -31.1867613
-1.5669246 6.6541219 -53.4630120
-1.5679193 8.6129364 -53.8023263
-1.5665209 -15.0169395 -55.6998141
-1.5705337 -11.1885741 -30.2103274
-1.5760694 -16.5119600 -24.5060679
-1.5729930 21.0880470 -50.6647490
-1.5887767 -14.7658112 -61.6128705
-1.5718009 -11.7788045 -32.5239189
-1.5785693 17.2225107 -18.9363528
-1.5693668 3.7212004 -57.3226884
-1.5797458 -15.2456695 -61.0328279
-1.5812750 -15.7891586 -53.7577234
-1.5807074 -15.1053993 -40.9256890
-1.5958297 20.7723826 -59.4133213
-1.5790132 -15.0410151 -55.5344485
-1.5849038 -15.6232454 -43.2386249
-1.5865670 -15.6269781 -43.3967188
-1.5928262 12.0612383 -59.2630245
-1.6206952 -15.1793817 -61.1822568
-1.6095699 -12.2572193 -36.7852300
-1.5984385 -11.6279656 -35.2638625
-1.5961963 19.2330070 -59.5706664
-1.5956378 18.9806689 -3.5307375
-1.6006236 21.3064104 -40.1943363
-1.6113283 -12.4956379 -37.2444652
-1.5977019 -17.0879643 -4.1719289
-1.5993747 -15.8718955 -53.4237958
-1.5987097 -15.6064034 -42.9197699
-1.5998740 -13.7401819 -61.5920648
-1.5999308 -15.2178649 -46.0456498
-1.5809758 2.0678951 -60.0166768
-1.5980635 10.9511325 -55.2722253
-1.6052879 21.3193391 -50.3005646
-1.6090790 15.6808365 -22.6978213
-1.6204548 22.0715925 -57.4474372
-1.6054005 -15.1583645 -55.1961251
-1.6077694 -15.9055684 -53.2626323
-1.6000625 -14.4552868 -39.5671800
-1.6073536 10.5426880 7.8395819
-1.6007035 20.4604510 -51.6212657
-1.6109017 18.0692393 -29.9639795
-1.6131625 15.7216117 -22.3895926
-1.6115865 0.4089650 -60.6132634
-1.6053374 -15.1641155 -46.7511527
-1.6120095 11.2481359 -55.7292402
-1.6246891 22.0776591 -57.9251759
-1.6261557 22.0446195 -57.1386218
-1.6110867 11.5164453 -56.2933423
-1.6117443 -15.2080571 -46.9715111
-1.6301891 -12.7425920 -37.6777165
-1.6105748 10.5593307 -54.8881143
-1.6174135 -14.0184127 -61.6078973
-1.6210238 15.7011747 -22.9859743
-1.6202998 15.7628302 -22.2297143
-1.6656491 21.9397098 -58.5206226
-1.6171827 6.0837599 -53.4635000
-1.6324358 22.0242776 -56.9859482
-1.6332980 -11.8726231 -36.0194221
-1.6497057 -14.8581471 -61.5730956
-1.6214597 -15.9609858 -52.9369861
-1.6257321 -14.6720503 -26.8921833
-1.6281747 -16.1337499 -25.1737982
-1.6414671 -12.0858354 -36.4798754
-1.6285523 -11.4510963 -30.9826694
-1.6275775 -10.9985312 -29.7497846
-1.6304881 15.8175938 -22.0669564
-1.5972032 1.9500703 -60.1029731
-1.6348289 21.4113798 -40.4881090
-1.6507045 22.0538396 -58.2425222
-1.6332682 -13.3212777 -27.8073195
-1.6310271 0.5930012 -60.5824515
-1.6324592 -3.0394818 -61.0928051
-1.6323624 7.5361938 -53.5861254
-1.6535972 -12.5406794 -37.3897068
-1.6543650 -12.3041449 -36.9376317
-1.6360270 20.4863865 -37.5137366
-1.6620863 4.6816384 -54.1621111
-1.6383834 16.6423228 -20.3896817
-1.6379610 20.6900872 -51.2311868
-1.6417218 -17.3212122 -21.7705015
-1.6386857 22.4221796 -42.6870659
-1.6421333 17.2006395 -27.2402484
-1.6520125 11.9650802 -59.6269593
-1.6423408 19.0441068 -33.4613062
-1.6406529 6.3806283 -53.4715652
-1.6440924 17.6857412 -28.7488420
-1.6444142 15.8854257 -21.8999591
-1.6475979 21.6509737 -49.6555604
-1.6478429 18.6885986 -2.3040359
-1.6438668 20.4223488 -52.6908450
-1.6501072 20.9595747 -50.8525148
-1.6404151 -14.2636197 -39.2774902
-1.6571673 5.5296784 -53.5537787
-1.6538136 20.1494284 -59.5104508
-1.6591738 11.9783022 -59.8778911
-1.6546093 17.2515661 -27.5438502
-1.6560602 -15.3567130 -54.7976904
-1.6548983 -15.1674841 -41.0719253
-1.6573985 15.7821272 -23.2816413
-1.6537348 -14.5036923 -39.7167876
-1.6579116 19.5603482 -35.1183414
-1.6599483 21.7222646 -49.4896695
-1.6586070 7.9057608 -53.6631048
-1.6608792 -11.5190633 -34.7598717
-1.6621745 22.2698729 -45.0419672
-1.6483602 -14.0517987 -38.9914289
-1.6651613 17.2867943 -27.6914462
-1.6684945 -15.6638976 -48.2430570
-1.6722592 -11.7004635 -35.5620794
-1.6600990 -10.9862918 -29.1275121
-1.6705197 -13.4381894 -27.7640205
-1.6515515 20.3653239 -51.9325770
-1.6600976 2.1839517 -59.7303137
-1.6622818 9.4906241 -54.2012863
-1.6841671 -11.9159520 -36.1722708
-1.6776629 -15.4631874 -57.9560176
-1.6759764 -14.0149156 -27.4453238
-1.6703868 -11.4496276 -28.6243223
-1.6725950 5.6926552 -53.5121001
-1.6795580 21.8632873 -56.0717061
-1.6838666 -13.7106618 -27.6179966
-1.6585428 20.3560349 -52.0850755
-1.6757097 20.6138473 -37.8068723
-1.6630390 1.2793168 -60.4185835
-1.6638030 20.3530993 -52.2356480
-1.6908897 -12.1304560 -36.6338380
-1.6808672 15.8451740 -23.4356578
-1.6829852 11.8529145 -59.0827614
-1.6801615 18.2546638 -30.7223275
-1.6716926 9.1750119 -54.0524572
-1.6804078 22.2055055 -45.9881648
-1.6781492 22.5071982 -43.2825796
-1.6702182 1.0704326 -60.4757816
-1.6824800 13.1833218 -59.9355511
-1.6822966 16.8806985 -25.5453791
-1.6832040 14.6192629 -59.8474592
-1.6795527 10.2738077 -54.7270179
-1.6870560 -15.8153418 -48.6946553
-1.6887753 11.3301072 -56.1546944
-1.6888879 -17.0313828 -6.9915936
-1.6819700 9.9921515 -54.5253195
-1.6896139 -17.2090083 -16.7308785
-1.6869310 22.3911405 -44.5162505
-1.6853192 22.5159191 -43.4322581
-1.6926426 -15.5466441 -54.4311889
-1.6908271 12.5811398 -59.9718913
-1.6925343 -15.8913899 -48.9976779
-1.6914424 17.8419799 -17.3006915
-1.6989838 4.0537575 -55.2282445
-1.7098270 4.3357005 -54.5235388
-1.6930443 -16.0652753 -52.1178432
-1.7018422 21.2189090 -59.2166372
-1.6948646 18.2920191 -30.8739077
-1.6924206 -14.5563083 -39.8595333
-1.7025797 21.4176327 -54.5770787
-1.6966867 -14.8595376 -26.7345905
-1.7004334 -13.2434424 -38.2717252
-1.6953449 22.1216325 -41.8145880
-1.6988422 16.9285871 -25.6966371
-1.6962127 22.4619005 -44.1938601
-1.6826340 1.5259435 -60.3174120
-1.6919619 -14.3200103 -39.4185334
-1.6980480 22.4861261 -44.0374799
-1.7017748 -2.4252885 -61.0173568
-1.7058734 -15.6254731 -54.2602800
-1.7065809 15.9196053 -23.5913042
-1.7090811 -16.8937612 -23.6954782
-1.7050769 2.2994974 -59.3818314
-1.6901786 3.5235556 -57.4952513
-1.7433666 -15.0891477 -61.5077838
-1.7062509 -11.7304204 -32.9919867
-1.7155423 -11.7433798 -35.7107818
-1.7070404 6.1689611 -53.4800813
-1.7092960 -16.0816554 -51.9159026
-1.7117608 17.9571602 -16.9756040
-1.7136760 -15.2957402 -45.7069427
-1.7104612 -11.1773033 -28.8992785
-1.7084982 20.5849987 -51.4402874
-1.7165449 -17.3240397 -17.5369754
-1.7161578 20.5232874 -59.4669655
-1.7154026 -15.0138391 -40.7635942
-1.7180181 13.5635380 -59.9097535
-1.7225781 -14.4697689 -27.1034371
-1.7185305 8.2996758 -53.7845045
-1.7201492 22.1096687 -48.1802598
-1.7205783 -16.4727587 -13.0119491
-1.7220516 14.3385762 -59.8619543
-1.7195038 -15.0488978 -56.0031720
-1.7308829 5.1603084 -53.7291653
-1.7230829 -15.2279856 -41.2167385
-1.7260141 -15.4674016 -41.9726558
-1.7265320 21.4119721 -50.1348637
-1.7406446 22.1739206 -57.4354380
-1.7327570 20.9769253 -53.7064932
-1.7178176 -14.1160591 -39.1357057
-1.7296302 -10.9576974 -29.3889642
-1.7313655 20.8270103 -51.0450378
-1.7434092 22.1835691 -57.7493981
-1.7497275 22.1822504 -57.9063855
-1.7543045 -12.8635243 -37.9614420
-1.7490555 21.3692505 -59.1357276
-1.7462615 -14.8475599 -40.4499285
-1.7473411 -13.5108344 -61.5676902
-1.7499671 -11.0423267 -29.8881400
-1.7551290 11.8015846 -60.0153022
-1.7510264 -14.2647400 -61.6136640
-1.7517974 5.2236784 9.3431314
-1.7525405 -15.5236600 -42.2794446
-1.7519571 7.6712077 -53.6536612
-1.7493633 0.7228635 -60.5276860
-1.7635897 11.7244925 -59.5198832
-1.7551879 -11.9660040 -28.3692498
-1.7749821 -12.2181736 -36.9350016
-1.7664969 10.9373322 -55.6182824
-1.7751596 11.6739972 -59.2220500
-1.8140925 -15.0356321 -61.5615211
-1.7730568 -11.1252125 -28.9564095
-1.7937518 4.1557136 -54.7051877
-1.7814371 11.7465500 -60.0168109
-1.7687967 8.7561700 -53.9565794
-1.7790028 7.0089148 -53.5584204
-1.7807195 -15.9738995 -52.7752414
-1.7779245 -14.1774025 -39.2754115
-1.8053945 -12.6960166 -37.8173590
-1.7872255 22.3898832 -42.6822342
-1.7900069 -15.2065251 -46.1817868
-1.7816498 -13.9600029 -38.9952622
-1.7953054 -15.5632952 -47.8694700
-1.7909975 8.0456333 -53.7520722
-1.7881199 9.3970047 -54.2442501
-1.8010042 0.1584384 -60.6074296
-1.7923781 8.9671686 -54.0354885
-1.8009661 -15.0800347 -40.9115031
-1.8028856 -11.4903618 -34.4690010
-1.8017765 -16.0963107 -51.4583737
-1.8213653 -12.4906693 -37.5336595
-1.7975392 -15.1973693 -46.4834310
-1.7988040 10.7299648 -55.3984977
-1.8045426 14.3760610 5.4567498
-1.8069665 -16.0567071 -50.0295386
-1.8113249 -15.2876740 -56.8838529
-1.8092839 -16.8274380 -14.7109348
-1.8119082 0.3403667 -60.5798662
-1.8494211 22.0139660 -58.6339310
-1.8118884 -15.2301677 -46.0283533
-1.8169141 22.1909657 -45.5126055
-1.8193222 -0.3253746 -60.6710985
-1.8214937 22.1856218 -45.6691012
-1.8383617 4.2821839 -54.4236191
-1.8322712 3.9612106 -55.0848842
-1.8245642 -15.6478956 -48.0861738
-1.8249963 -1.5635779 -60.8599670
-1.8307586 21.4944165 -59.0937361
-1.8261404 17.2872189 -27.6813805
-1.8281289 -13.4143494 -27.8123468
-1.8278168 -11.1442432 -30.1857814
-1.8310689 -14.0654799 -27.4534002
-1.8334097 -15.6995747 -48.2378937
-1.8325808 14.8317656 -59.8239824
-1.8395140 -14.5847090 -27.0426627
-1.8410111 11.5963221 -59.7469024
-1.8378975 -16.9843007 -23.5398151
-1.8376528 16.0416309 -21.5526819
-1.8205422 1.2020037 -60.3583716
-1.8299724 3.2051569 -57.7798411
-1.8403636 0.3047574 9.8660849
-1.8485407 -11.8653234 -36.1641832
-1.8356493 9.8923296 -54.6102002
-1.8338545 -14.2357070 -39.4169316
-1.8451876 -11.5160486 -34.7836204
-1.8429584 20.6336323 -37.9503295
-1.8596395 -12.3017719 -37.2389667
-1.8438172 6.7494838 -53.5504185
-1.8448612 -16.0740297 -51.7454967
-1.8900303 -15.2064757 -61.4580847
-1.8489887 -15.8344135 -48.6915372
-1.8475784 20.9402461 -50.8821160
-1.8491623 -15.5548938 -54.4276088
-1.8636393 22.2626571 -57.2691932
-1.8350312 1.0238119 -60.4132935
-1.8467348 22.4589985 -44.0297835
-1.8704033 -12.5416536 -37.6762040
-1.8543075 -16.6148543 -13.7832314
-1.8791789 -15.3586175 -61.1913279
-1.8583462 -15.4862776 -57.4982390
-1.8581265 -14.3174035 -27.2778906
-1.8539656 -11.5835527 -28.5895467
-1.8679895 22.2837627 -57.7345490
-1.8581674 20.6974410 -52.9696532
-1.8592101 -14.7366002 -40.2899459
-1.8582977 11.9021079 -60.0018129
-1.8592642 18.7337268 -32.5410776
-1.8483016 1.9915439 -59.6922934
-1.8620585 17.8735126 -29.1865543
-1.8616682 -15.6275388 -54.2584881
-1.8629117 -15.2712986 -45.8141752
-1.8623800 -15.4830394 -44.6530245
-1.8638585 -16.5661760 -13.5527030
-1.8765341 -12.0965084 -36.7824025
-1.8652312 -11.5400823 -33.8211507
-1.8651610 -11.0309077 -29.8806876
-1.8671787 -17.1337910 -16.0983708
-1.8456570 1.4145661 -60.2556355
-1.8680032 5.5750310 -53.5386764
-1.8544581 3.4375770 -57.2912879
-1.8621188 20.6263065 -51.4383577
-1.8696962 14.0243620 5.7530855
-1.8721987 22.2207643 -46.9058603
-1.8857063 22.2758818 -58.0458120
-1.8750973 21.4836430 -49.9896966
-1.8860807 21.7588916 -54.9996346
-1.8773536 -11.5955956 -35.2509581
-1.8768618 -15.1446452 -41.0563983
-1.8959603 21.8563564 -58.8389039
-1.8785851 19.2060098 -11.7224408
-1.8902632 20.9291596 -59.4070368
-1.8837459 -14.9460100 -26.7132707
-1.8783045 6.4199464 -53.5353161
-1.8792212 20.6482075 -52.8203137
-1.8841797 21.1882722 -40.0360860
-1.8935464 -11.9065484 -36.3174342
-1.8775681 10.1167373 -54.8411049
-1.8792553 20.7449887 -38.2422246
-1.8833200 -11.6313258 -35.4040638
-1.8824970 13.2973995 -59.9145740
-1.9006241 22.2602002 -58.2037978
-1.8868585 -16.0057265 -49.5521761
-1.8832538 14.6632968 5.1571694
-1.8857782 21.1740565 -50.5234785
-1.8824354 -15.2394166 -46.7778705
-1.8990753 4.8072482 -53.8859107
-1.8874198 5.9368629 -53.5236076
-1.8736719 3.3017297 -57.5440824
-1.8878046 -15.0955049 -55.9912920
-1.8883615 -15.1166702 -56.1436936
-1.8888273 -15.1912896 -56.4433001
-1.8952697 20.7583513 -59.4504364
-1.8956963 18.4000041 -31.3197114
-1.9111327 -12.1384738 -36.9317755
-1.8774378 -10.9637268 -29.2878561
-1.8945913 -15.1449321 -56.2959984
-1.8986175 -14.5493802 -39.9909168
-1.8945030 22.2425088 -42.2382057
-1.8956228 -15.0916204 -55.6821488
-1.9417875 22.1602973 -58.5135557
-1.8999575 -14.0324142 -61.5889952
-1.9007598 -16.0288364 -49.7065000
-1.8890148 9.6338354 -54.4756278
-1.9097109 11.4422776 -59.5533065
-1.9027033 -11.6690481 -35.5555154
-1.9010433 17.0365907 -26.1455625
-1.9019211 -11.6881710 -33.1346951
-1.9033388 -15.1002510 -55.5228777
-1.9112896 11.4178639 -59.3377016
-1.9066943 12.4344556 -59.9657893
-1.9073852 -15.8608854 -53.4273796
-1.9103198 18.4378885 -31.4713195
-1.9176253 21.6972735 -58.9917190
-1.9125064 11.4826653 -59.9397272
-1.9123523 -14.6156130 -61.6196394
-1.9160128 -15.6474598 -59.2296049
-1.9123174 -15.4140349 -41.8036990
-1.9191188 17.3336584 -18.5900796
-1.9169153 6.1531737 -53.5334870
-1.9226149 10.2647161 -55.0509505
-1.9181975 20.8287444 -51.0731488
-1.9197450 13.7110874 -59.8866045
-1.9128082 20.5680318 -52.5205769
-1.9108451 -13.8646672 -39.0013307
-1.9246693 -10.9698270 -29.4141471
-1.9132785 -14.0876388 -39.2759740
-1.9208834 -14.9830859 -40.7486781
-1.9204655 14.7982016 5.0070570
-1.9271561 -15.3938262 -57.0442080
-1.9217191 -15.9126334 -53.1057976
-1.9267176 15.6572219 -22.6838049
-1.9261691 0.0491907 -60.5975911
-1.9271369 -16.4507683 -12.6879048
-1.9292167 -17.5149646 -19.7359603
-1.9265767 21.8429938 -41.3817652
-1.9288755 -15.1990047 -55.1900789
-1.9267669 20.8831131 -38.6812463
-1.9330004 -11.7053008 -35.7071608
-1.9325380 -14.2161548 -61.5979992
-1.9343811 -17.5112262 -19.4221996
-1.9177727 20.5276161 -51.7597981
-1.9326957 -16.0669889 -50.1742102
-1.9376491 15.6732257 -22.9734816
-1.9386780 15.7463290 -22.2146977
-1.9364782 -15.4477768 -41.9540554
-1.9352325 22.3548543 -42.6775366
-1.9508767 -12.8322635 -38.1115489
-1.9451727 22.0162235 -55.7413958
-1.9535152 -15.5501310 -60.7136935
-1.9387060 9.2889313 8.2885837
-1.9386187 -16.0804503 -50.4895076
-1.9401265 5.6948015 -53.5389893
-1.9403085 -15.2042294 -41.2001349
-1.9398544 -16.0854757 -50.6475531
-1.9422518 17.4596738 -18.2619244
-1.9320541 20.5146540 -52.2182919
-1.9397510 -14.3544972 -39.6987572
-1.9462585 -15.5645274 -60.5533943
-1.9407008 -12.1538164 -28.3403210
-1.9274445 20.5140784 -51.9158542
-1.9544738 5.1258374 -53.6789373
-1.9482017 10.6826061 -55.6607917
-1.9499734 18.6283030 -2.2951623
-1.9597206 21.4199312 -59.2041016
-1.9524978 -15.2795212 -54.9852066
-1.9530270 -14.8033323 -40.4444635
-1.9500793 0.4382221 -60.5254434
-1.9508633 -11.7050353 -32.1929976
-1.9469839 0.7093730 -60.4662672
-1.9532752 -15.2877159 -46.9238162
-1.9563804 14.9277570 4.8574060
-1.9566109 22.4072058 -42.9739617
-1.9610561 21.0514460 -50.7120676
-1.9621365 13.4474905 -59.8997995
-1.9677381 -14.4224511 -27.2251125
-1.9571534 8.4762955 -53.9487377
-1.9645176 15.8743933 -21.8807533
-1.9850058 4.4070086 -54.1780256
-1.9673118 22.1987870 -45.1845489
-1.9663733 20.0088210 -59.4972149
-1.9806647 4.2360420 -54.3303490
-1.9669177 -14.6148894 -40.1354283
-1.9672050 20.3191917 -59.4781265
-1.9656692 7.3967669 -53.6818579
-1.9692236 -12.6660271 5.4568136
-1.9776903 -15.5035499 -61.0482842
-1.9681181 -11.3336518 -28.8038217
-1.9721081 -15.3764859 -54.7893420
-1.9737191 17.2481313 -27.5239088
-1.9700828 21.9828580 -41.6615680
-1.9771338 12.1660912 -59.9773154
-1.9552673 1.3053702 -60.2282584
-1.9752481 20.7381006 -51.2575954
-1.9831627 -10.9612839 -29.6944473
-1.9901288 22.3781392 -57.7268526
-1.9731342 9.1542769 -54.2452894
-1.9839033 -14.7921527 -61.6112202
-1.9849534 13.9482412 -59.8675050
-1.9894612 11.2973778 -59.6086644
-2.0162892 -15.4377352 -61.1972325
-1.9811604 -13.5055454 -38.7140177
-1.9923197 -16.4469499 -24.8655714
-1.9895218 12.6712890 -59.9454753
-1.9876680 22.3404374 -44.4993228
-1.9971903 -11.7842555 -36.0082649
-1.9939709 11.3401059 -60.0268058
-2.0096709 3.9730622 -54.6687394
-1.9996108 3.1964574 9.6615180
-2.0004769 20.5730163 -59.4564714
-2.0027265 -15.9150492 -48.9846431
-2.0133695 4.8798705 -53.7854210
-2.0108514 -13.5531146 -61.5518503
-2.0001295 9.5090447 -54.4893295
-2.0163180 11.2245223 -59.3624860
-2.0088605 22.1040472 -41.9443063
-2.0151800 -13.1067401 -38.4119228
-2.0151497 -11.4828032 -34.1357663
-2.0101541 10.7087633 -55.8827110
-2.0176687 15.0231337 -59.7993098
-2.0180575 -14.2338760 3.8167925
-2.0385815 -12.9129235 -38.2644609
-2.0511516 -12.5028025 -37.8179476
-2.0336187 -13.4046022 -27.8645027
-2.0345659 0.2670217 -60.5371669
-2.0360998 -15.3506156 -47.0678434
-2.0390581 16.8913454 1.9821650
-2.0405862 11.6448728 -60.0036010
-2.0294490 9.7631905 -54.7124445
-2.0405392 10.0261737 -54.9762920
-2.0537407 21.5101931 -59.1915920
-2.0494855 -15.3569244 -45.2762619
-2.0249290 1.4697748 -60.0601062
-2.0478009 -11.2519152 -28.9040525
-2.0571626 -14.6875065 -40.2851664
-2.0566110 -15.1185291 -55.6763001
-2.0622090 11.1788390 -59.7245730
-2.0948409 22.1898537 -58.6218275
-2.0581859 -15.1372002 -55.9801199
-2.0581216 5.3236769 -53.5946749
-2.0632618 20.9955871 -53.2493554
-2.0623086 -11.5209948 -34.9243954
-2.0616488 -15.1193431 -55.5208661
-2.0663964 -14.4865699 -39.9818644
-2.0705999 -14.9708567 -61.6152063
-2.0671843 10.2815628 -55.3077944
-2.0720402 -15.2615262 -45.9913686
-2.0652853 1.7099536 -59.7551912
-2.0722516 -15.8901680 -53.1088747
-2.0671696 20.5935203 -52.2106662
-2.0608206 20.5909014 -51.7529435
-2.0844932 21.6736533 -59.0855926
-2.0915910 22.0579710 -55.4277711
-2.0681724 20.5809996 -51.9096442
-2.0824347 11.8652359 -59.9883944
-2.0852955 15.6429671 -22.6765182
-2.0864459 -16.5795423 -24.6874411
-2.0825351 20.8438858 -51.0706455
-2.0844024 -15.9672964 -49.2157973
-2.0802438 -15.9109533 -52.9471226
-2.0866334 15.6592131 -22.5219913
-2.0860748 21.4832723 -49.9646999
-2.0857023 -15.3524177 -41.6369960
-2.0788161 3.0553935 -57.6162562
-2.0827493 -15.2451070 -46.2911241
-2.0868978 -14.2766386 -39.6921039
-2.0892376 -15.2073419 -55.1892743
-2.1067467 3.9728926 -54.5404106
-2.0925903 -17.5145902 -21.0038647
-2.0916234 10.8053554 7.6391017
-2.0921200 -14.6043682 -61.6106503
-2.0959098 15.6570598 -22.9675975
-2.0940118 12.9567347 -59.9206649
-2.0936085 -0.2082395 -60.6021285
-2.0970213 15.7355499 -22.2078227
-2.1004677 -16.5419616 -10.9428698
-2.1091111 -15.5939404 -61.0375442
-2.1159039 22.4708710 -57.7161722
-2.1119891 11.0556819 -59.3346544
-2.1043392 22.3697312 -42.9695733
-2.1044526 5.4484466 -53.5869375
-2.1074954 -16.0187706 -49.5249070
-2.1065259 -15.9743186 -52.3948930
-2.1108256 -15.2845103 -54.9805053
-2.1091178 5.7292827 -53.5699725
-2.1142180 -14.1803492 -61.5831204
-2.1130056 -15.3911645 -41.7856462
-2.1169025 -15.8613194 -48.6925021
-2.1188748 22.1714769 -45.1774448
-2.1176462 -16.2616409 -25.2249613
-2.1210657 -11.8948501 -36.4660546
-2.1173456 17.1850305 -27.2144508
-2.1205638 22.1978668 -45.0140722
-2.1200296 -15.3896427 -44.9966229
-2.1294809 22.3955754 -56.7903593
-2.1450601 -15.5254202 -61.1877292
-2.1328954 -12.1468091 -37.2297727
-2.1203908 10.6814681 -56.2107265
-2.1297676 22.4575158 -58.0412596
-2.1219950 22.1430901 -45.4966463
-2.1208124 18.1750227 -30.2358232
-2.1098994 0.8968187 -60.3361316
-2.1160159 1.8036828 -59.5015474
-2.1132573 0.4931928 -60.4560748
-2.1234492 15.8659872 -21.8727197
-2.1215822 -16.0289351 -49.6808328
-2.1198685 10.3722923 -55.5476099
-2.1261212 22.1396275 -45.6546918
-2.1219649 -11.6733601 -32.1812145
-2.1283466 15.7333165 -23.2618116
-2.1251454 21.3624481 -50.1849540
-2.1233456 13.1674884 6.3445847
-2.1277468 -15.3747220 -54.7825955
-2.1262895 6.4367871 -53.6094345
-2.1352721 -14.4947069 -27.2157583
-2.1337068 -15.6440120 -57.5085804
-2.1303201 -15.3007051 -45.7037874
-2.1300481 8.7518785 8.4484098
-2.1433702 22.4407893 -58.2057759
-2.1306688 22.2700033 -44.6678065
-2.1294733 7.7369604 -53.8171716
-2.1280660 -15.9862582 -52.2303395
-2.1277384 20.7720064 -51.2474775
-2.1326793 17.2455944 -27.5138188
-2.1324956 -11.6863083 -32.9627357
-2.1333462 3.2336621 -57.0583642
-2.1383225 21.7717402 -49.2966361
-2.1366223 22.0064186 -41.8007560
-2.1447053 -16.4939277 -24.8644389
-2.1423583 16.1500052 3.1950236
-2.1421595 -14.9490619 -40.7424048
-2.1445174 21.0413616 -50.7252477
-2.1704927 22.4041026 -58.3626255
-2.1538013 21.9008736 -54.8300892
-2.1427830 -15.4605359 -54.5980074
-2.1451868 -11.6047664 -35.3885330
-2.1363581 0.6851239 -60.3986755
-2.1424526 22.3958436 -44.0222956
-2.1503244 15.7940965 -23.4155208
-2.1596986 -12.8105916 -38.2668041
-2.1420349 -15.2626382 -46.4334860
-2.1484368 -15.1773905 -41.1833115
-2.1504816 20.7618549 -59.4382286
-2.1549033 -15.6146465 -57.3581532
-2.1548809 -14.5598287 -40.1313007
-2.1549708 -14.7604821 -40.4379256
-2.1572644 12.4393757 -59.9479638
-2.1588763 11.2146875 -60.0206703
-2.1569123 -15.5415619 -54.4218905
-2.1448196 1.1208612 -60.2102801
-2.1570779 20.7836609 -52.6561625
-2.1578323 9.2720343 -54.4650182
-2.1660177 -16.4812338 -12.9879490
-2.1631562 -11.6951345 -32.4898809
-2.1680489 21.9351538 -48.7943105
-2.1689006 16.2411388 3.0439494
-2.1669096 -11.6994455 -32.6444618
-2.1712051 -15.9240216 1.0945053
-2.1690875 -15.6094776 -54.2590879
-2.1729548 -15.2722765 2.3172884
-2.1730359 -11.6775269 -28.6166165
-2.1693662 20.7043830 -51.4224470
-2.1793426 -15.8306304 -58.7571599
-2.1744564 22.1876334 -46.7343852
-2.1732328 22.1164841 -42.0847274
-2.1947771 -12.6326308 -38.1126665
-2.1879803 -11.9677419 -36.7701761
-2.1747474 20.7411647 -52.5056608
-2.1838092 -14.8071675 -61.5983419
-2.1841109 20.1745331 -59.4718307
-2.1833011 -15.4796541 -42.2417410
-2.1849817 22.1905988 -47.0421277
-2.1907394 -14.8958452 -26.8714707
-2.1911256 10.9467497 -59.6680269
-2.1936046 -15.7436337 -60.5366044
-2.1892914 -16.5019762 -13.1423520
-2.1872546 6.1705750 -53.6071807
-2.1926370 4.9051400 -53.7073389
-2.1900046 21.2546196 -50.3664836
-2.1959338 21.1451221 -40.1785485
-2.1890542 -15.7133341 -53.9268479
-2.1893727 22.1642777 -42.2294997
-2.1922383 22.1696086 -47.5116894
-2.1979723 -16.6952759 -24.5282799
-2.1935087 22.1549682 -47.6680286
-2.1942160 -15.5023374 -42.3966013
-2.2130483 -12.2326929 -37.5239626
-2.2110352 -15.7373454 -60.6880896
-2.1967471 -15.7524664 -53.7637584
-2.2054079 -11.4571741 -34.4399773
-2.2042159 20.9418572 -50.9050116
-2.2046778 -13.2846506 -38.7081876
-2.2160322 21.3007014 -59.3428798
-2.2182709 22.1503098 -55.4185174
-2.2076787 -14.4056929 -61.5904219
-2.2098161 -11.4569599 -34.2820473
-2.2079526 18.3944516 -31.3006677
-2.2024396 -16.0299316 -51.4167063
-2.2177023 22.0158901 -58.9126386
-2.2209829 -12.0030688 -36.9234905
-2.2121307 0.7603775 9.8953294
-2.2145764 -16.9746019 -23.8852631
-2.2056701 -16.0368476 -51.2577891
-2.2198129 -15.7888532 -57.9726808
-2.2100760 -15.8131458 -53.4392819
-2.2146790 7.2325156 -53.7446439
-2.2207610 -15.6937446 -47.9687378
-2.2173054 5.8684922 -53.5953306
-2.2308556 22.1177973 -55.2691333
-2.2238987 -15.7126766 -60.8700365
-2.2110138 8.3444985 -54.0318415
-2.2226227 -10.9637631 -29.7787823
-2.2040303 20.6559412 -51.7490730
-2.2189580 -15.1726594 -55.9712648
-2.2177510 -15.2490567 -56.2702008
-2.2075293 20.6516515 -51.9024990
-2.2175089 22.2439356 -42.5215997
-2.2205792 -15.5359320 -42.7075215
-2.2223976 18.4272230 -31.4531662
-2.2251094 -11.0039013 -29.9335849
-2.2476609 -15.2783804 -61.5638010
-2.2216721 -15.1405632 -55.6672029
-2.2202439 -15.5542148 -43.4958041
-2.2215219 20.7964666 -38.6732966
-2.2236174 -15.1417200 -55.5157512
-2.2279790 13.1774079 -59.8977692
-2.2173293 1.6008766 -59.6602745
-2.2222691 -16.0439834 -50.9355962
-2.2353628 4.8004133 -53.7513047
-2.2315241 -11.0957101 -30.2370917
-2.2282167 -15.8765595 -52.9530831
-2.2301059 22.2769249 -42.6687859
-2.2324815 -16.0444304 -50.7742204
-2.2342796 -15.9044489 -52.7115613
-2.2418466 20.9708512 -52.9438406
-2.2444380 -11.4812423 -33.9637995
-2.2442248 -15.3211486 -45.5383919
-2.2399067 -16.0421021 -50.2982698
-2.2395614 -16.0424449 -50.4563488
-2.2504046 21.3158503 -40.6271517
-2.2459198 5.2683838 -53.6230020
-2.2480122 -16.5572017 -13.4502072
-2.2459796 -16.0292815 -49.9801226
-2.2493124 -11.7440429 -36.0010900
-2.2793580 -15.6087475 -61.1790605
-2.2517198 19.8984519 -59.4840311
-2.2532227 -13.5379219 -61.5339689
-2.2366056 9.5521128 -54.7638126
-2.2518095 22.3299842 -42.9655574
-2.2565508 -12.2249490 -28.3754077
-2.2523124 10.1814130 -55.5247106
-2.2584770 -17.1137676 -6.4964448
-2.2593793 21.0411679 -59.4150648
-2.2596966 20.4661451 -59.4486631
-2.2692364 4.5308485 -53.9009608
-2.2548675 10.2833556 -55.7065383
-2.2611690 22.3500915 -43.1147069
-2.2687789 -15.7441963 -48.1135026
-2.2729370 22.4293750 -56.4774796
-2.2581217 9.7877039 -55.0076589
-2.2719724 21.3908721 -40.7820679
-2.2692410 19.3498675 -7.3525105
-2.2761179 11.3628758 -60.0044541
-2.2978901 22.4973224 -58.3395511
-2.2791917 7.4370317 -53.8093746
-2.2826078 -1.2876801 9.7404961
-2.3093240 22.2220514 -58.7569363
-2.2856197 12.7174743 -59.9219389
-2.2806409 8.6865295 -54.2078875
-2.2912596 -16.8620218 -24.2240764
-2.2895085 11.9633004 -59.9679053
-2.2878689 6.5992218 -53.6741130
-2.2935893 21.2565418 -59.3507625
-2.3139047 4.0504355 -54.2814732
-2.2933225 -11.8172606 -36.3054499
-2.2925034 12.2193992 -59.9519946
-2.2963951 11.6765266 -59.9842891
-2.2903869 0.2363761 -60.4661517
-2.3165511 -15.8276409 -60.5491623
-2.3038744 -15.7852918 -48.2610837
-2.3014355 -15.3356548 -45.3713089
-2.2965532 -15.9407314 -52.2190109
-2.2937134 8.2229432 -54.0336929
-2.3207611 3.6526313 -54.7376275
-2.3115906 -13.6175500 -27.8152842
-2.3084751 -14.2749799 -39.8228876
-2.3074548 5.6275646 -53.6187291
-2.2987016 8.5373344 -54.1597754
-2.3112795 3.3777826 9.6189231
-2.3371221 -15.3453872 -61.5664087
-2.3067393 20.8231043 -52.4969287
-2.3118632 21.8715258 -48.9590243
-2.3119911 22.1514739 -46.4217402
-2.3154700 -11.8522337 -36.4582464
-2.3144146 2.4551041 9.7608464
-2.3145282 -15.3632807 -41.7687260
-2.3194293 18.6642241 -32.5191431
-2.3210605 10.5682770 -56.9025353
-2.3288461 10.7023939 -59.4717748
-2.3170663 2.6110951 -57.8614213
-2.3385787 10.7538970 -60.0388050
-2.3203159 20.7526386 -51.4198467
-2.3342355 -14.7805000 -27.0283706
-2.3295623 -0.5500676 -60.6149733
-2.3399810 -15.8182625 -60.7142374
-2.3209041 9.2399186 -54.5916781
-2.3178859 0.8445267 -60.2423586
-2.3144190 1.0519963 -60.1195060
-2.3335346 21.0331362 -50.7462025
-2.3304927 -11.6503080 -32.3253721
-2.3496691 10.6977848 -59.7652011
-2.3380311 -16.2015725 -25.3951065
-2.3359077 11.0620493 -60.0183867
-2.3386031 18.7083017 -32.7065587
-2.3437263 -12.9822278 -38.5677367
-2.3341416 -15.9640033 -51.8920124
-2.3394332 -11.5466081 -35.2202468
-2.3433324 -11.8853245 -36.6115719
-2.3398979 22.0410842 -48.2945330
-2.3407114 16.9133358 -25.8207768
-2.3376334 7.9127764 -53.9470948
-2.3396465 5.3284988 -53.6294803
-2.3389468 -11.6540827 -32.9482965
-2.3214717 1.2409036 -59.9424504
-2.3371628 20.7508001 -52.1967225
-2.3389354 -15.6824160 -53.9307855
-2.3428621 -14.9126453 -40.7307744
-2.3588797 22.2068466 -55.2607700
-2.3438022 -11.7699150 -28.6095664
-2.3616275 -12.1617960 -37.5184529
-2.3446069 22.1520066 -47.5041904
-2.3542161 21.8348335 -54.3844327
-2.3480665 12.9701365 -59.9020794
-2.3467848 -15.7193523 -53.7695810
-2.3512284 -14.7167249 -40.4306427
-2.3457753 20.7281876 -52.0454384
-2.3598259 21.1463980 -40.3240509
-2.3545998 15.9245189 -23.7132367
-2.3570622 10.5900737 -57.5508550
-2.3507148 -15.9706660 -51.7265387
-2.3548962 -11.6614746 -32.7898115
-2.3622504 -14.9692185 -26.8533137
-2.3641915 10.6289703 -59.1565706
-2.3707696 22.6478055 -57.6986969
-2.3692034 -12.7904667 -38.4153426
-2.3418085 1.3691675 -59.7775951
-2.3637549 -16.4458733 -25.0480920
-2.3721610 3.4442726 -55.0778955
-2.3739801 22.5998517 -56.9239333
-2.3770991 -12.3853786 -37.9588120
-2.3646725 -13.4787634 -27.8977063
-2.3485380 20.7159929 -51.7424904
-2.3621714 -15.2974883 -45.9493548
-2.3757976 -15.7624390 -61.0445589
-2.3649959 18.3987934 -31.2904604
-2.3641526 22.2015344 -42.5180718
-2.3679303 18.7716689 -32.9759754
-2.3664196 14.6653773 5.0116302
-2.3705619 -14.9961915 2.7663438
-2.3683622 20.7508784 -38.6703610
-2.3784232 3.3391933 -55.3700700
-2.3780349 -15.5746453 -56.9161922
-2.3667112 -15.7972425 -53.2875098
-2.3834473 21.3881526 -59.3284816
-2.3736344 -15.4240858 -42.0717038
-2.3783708 -10.9434910 -29.7825765
-2.3763245 -13.4481695 -38.9823988
-2.3776665 -11.5326317 -33.6020775
-2.3804454 -10.9792659 -29.9378633
-2.3789268 18.4286460 -31.4431228
-2.3768540 22.2346336 -42.6650830
-2.4080281 22.5511938 -58.3993047
-2.3770814 -10.9617403 -29.4760745
-2.3823264 -14.1201792 -39.6795385
-2.3795136 -15.2952150 -56.2577471
-2.3876280 -15.8285592 -57.6701276
-2.3729317 -15.9938838 -51.2463935
-2.3796300 -15.3528685 -56.4026423
-2.3896471 21.9010506 -59.0703525
-2.4159462 -15.6921819 -61.1932278
-2.3827434 -15.2052511 -55.9623949
-2.3844105 -15.1566640 -55.6600392
-2.4018041 -12.6119824 -38.2571779
-2.3856328 -15.1473936 -55.5096939
-2.3819089 0.0489022 -60.4881123
-2.3904387 -11.4305932 -34.2740528
-2.3859970 20.9484417 -50.9239137
-2.3861537 -15.4141048 -56.5496236
-2.3954855 -11.9550060 -36.9166210
-2.3866892 21.7850506 -41.5110141
-2.3927072 -15.8910509 -48.7094037
-2.3954781 -11.4300745 -34.4283357
-2.4044828 22.6115566 -58.1811704
-2.3933267 -14.8171224 -61.6008565
-2.3926948 -15.4492995 -42.2247872
-2.4003808 22.5158874 -56.4682111
-2.3953819 -16.7063642 -14.0600959
-2.3941926 -15.1998261 -41.3103327
-2.3972502 21.0011266 -52.7877137
-2.3964550 21.4633215 -49.9528684
-2.4010991 15.6275630 -22.5104187
-2.4010376 -15.4326558 -47.0201448
-2.3940962 -15.9948133 -50.9241074
-2.3896662 2.9268404 -57.2058968
-2.3969954 -15.8602167 -52.7027324
-2.4029841 -15.5513100 -56.8427518
-2.4061694 -15.3973708 -44.6322709
-2.4067296 -15.1983062 -55.1962033
-2.3988867 -11.0890884 -29.1690379
-2.4064761 18.4893534 -31.7487605
-2.4070020 -14.3571328 -39.9731249
-2.4104014 -13.7226079 4.4218809
-2.4106191 18.3626115 -15.4996244
-2.4030565 -15.9948934 -50.7631637
-2.4080812 21.8545869 -41.6531228
-2.4106472 -15.9341507 -49.0192361
-2.4043473 9.8051708 -55.2477837
-2.4131532 -13.7054455 -39.2522924
-2.4138829 19.3121824 -7.1938024
-2.4118409 -15.2970012 -46.2445319
-2.4198077 22.1316479 -45.0080261
-2.4214759 21.3224795 -53.3719957
-2.4105601 -15.8746522 -52.5427237
-2.4335948 3.7466201 -54.4688664
-2.4194764 18.5200647 -31.9011882
-2.4221779 22.0835190 -45.4869755
-2.4209085 -15.2557120 -55.0065935
-2.4165842 22.3248638 -43.2610027
-2.4236965 15.7679021 -22.0308974
-2.4290136 4.7009448 -53.7548624
-2.4227069 -15.9520879 -49.1743796
-2.4177921 -15.9942824 -50.2843000
-2.4269950 22.0817160 -45.6435420
-2.4238792 -15.4885203 -42.5335020
-2.4238480 22.3362651 -43.4117801
-2.4337668 22.0317282 -54.6699353
-2.4358167 4.5877029 -53.8026653
-2.4323517 17.1696041 -27.1974672
-2.4314260 -15.3275086 -54.8002757
-2.4366686 21.6559749 -53.9473444
-2.4322697 10.1888692 -56.0030118
-2.4474859 3.6048563 -54.6302609
-2.4268634 9.3834754 -54.8180342
-2.4329906 -15.9729104 -49.4885370
-2.4391108 -13.9572658 -39.5284072
-2.4405848 15.6926662 -23.2484657
-2.4334239 9.9367406 -55.4862581
-2.4399189 -11.4478199 -34.7394086
-2.4426761 -15.9984212 -59.4065860
-2.4344926 -15.9894787 -49.9623008
-2.4341284 22.3426092 -43.7143296
-2.4395410 20.7593776 -59.4181120
-2.4407862 -15.4126864 -44.4634892
-2.4419767 -15.6768635 -47.7852784
-2.4501986 -12.0248329 -37.2176655
-2.4588110 -12.2584896 -37.8098413
-2.4349764 -11.2669440 -28.9617535
-2.4432016 18.6032522 -14.5440586
-2.4520138 22.3816950 -55.7043701
-2.4405483 20.9033787 -52.4899550
-2.4377885 22.3216526 -44.0172814
-2.4474531 10.5701163 -60.0423813
-2.4432112 -14.5860640 -40.2788408
-2.4506578 -15.2208088 -61.5978912
-2.4447707 6.2603764 -53.6850467
-2.4468636 20.1697517 -59.4537482
-2.4425096 -15.4095050 -54.6070784
-2.4488685 19.9815333 -36.8916728
-2.4491909 17.2384623 -27.4927747
-2.4499020 -16.1987506 0.4939858
-2.4507844 -14.4108227 -61.5737364
-2.4493535 5.4316632 -53.6491051
-2.4505220 7.6032006 -53.9135821
-2.4610427 10.5153341 -59.6740209
-2.4566883 -16.8996304 -24.2367145
-2.4538217 17.1975531 1.2266227
-2.4646765 10.4691796 -58.9629710
-2.4587123 -17.5810643 -18.6681300
-2.4599964 -15.4894907 -47.1656397
-2.4486312 0.4393723 -60.3500716
-2.4619696 15.7523770 -23.4023146
-2.4537861 -15.4833794 -54.4285700
-2.4547789 20.8304711 -51.2604192
-2.4599596 -11.5883183 -33.2694799
-2.4630735 19.3378963 -8.7391874
-2.4585612 20.8620019 -52.3405895
-2.4640891 17.2838327 -27.6383348
-2.4644670 18.9675409 -12.6910154
-2.4649298 13.2381367 6.2064268
-2.4709012 -11.4667341 -34.8956883
-2.4708617 14.7589790 -59.7838126
-2.4991562 -15.5302556 -61.4959486
-2.4729192 13.7336133 -59.8465428
-2.4765243 21.0152548 -40.0219560
-2.4842583 -12.0601803 -37.3666845
-2.4773001 21.2004539 -53.0780479
-2.4660281 -15.5449323 -54.2635135
-2.4574592 0.9779449 -60.0525737
-2.4911468 4.1816453 -54.0404730
-2.4789656 4.1611078 9.4640413
-2.4806841 17.4252652 -59.6196540
-2.4806454 19.3023887 -9.6707847
-2.4773453 -15.5994920 -54.0965907
-2.4834906 -15.0476228 -41.0126112
-2.4873612 -16.5546667 -13.4393377
-2.5044251 22.6841420 -56.9161028
-2.4797646 2.7418998 -57.4140735
-2.4992656 -14.6843027 3.2258206
-2.5013408 12.4502471 -59.9232353
-2.5121605 22.6598475 -56.7654185
-2.5045557 -15.7244448 -47.9301363
-2.5038808 -13.5860750 4.5683393
-2.5045073 -15.0145767 -61.6033785
-2.5103865 21.8617059 -54.2300716
-2.5054826 -11.5900030 -32.1597531
-2.5092587 -11.7084002 -35.9882861
-2.5053509 9.2335586 -54.7675379
-2.5204702 10.3938673 -59.1757260
-2.5289590 10.3907418 -59.3906976
-2.5182622 -11.8875308 6.0682655
-2.5107204 -15.7296248 -53.4598529
-2.5290726 22.0049843 -59.0584688
-2.5151831 9.9740308 -55.7479449
-2.5321306 22.6014182 -56.4620048
-2.5202108 -15.7830361 -53.0246124
-2.5309017 1.5088350 -59.1931231
-2.5323061 18.8721418 -3.9619352
-2.5392356 -11.6878934 6.2117339
-2.5287983 2.5639641 -57.6258488
-2.5361751 -11.0025918 -29.3950699
-2.5335245 -15.6877786 -53.6677912
-2.5450028 -15.3381201 -56.2469698
-2.5423390 8.9670122 -54.5899011
-2.5486851 6.5328008 -53.7491404
-2.5538942 21.0308619 -52.6337139
-2.5663292 22.2287867 -58.9200780
-2.5677185 3.1855411 -55.2861765
-2.5562271 5.9088762 -53.6899604
-2.6439887 10.4698800 -59.9527843
-2.5468064 9.7275916 -55.3802773
-2.5594980 -15.8011504 -48.2268035
-2.5546229 2.3684958 -57.8486919
-2.5597333 -11.2688513 6.4960346
-2.5711749 -12.7674118 -38.5470167
-2.5678477 21.7425916 -59.2214018
-2.5673483 -15.8498902 -57.3746972
-2.5696373 10.3181340 -59.0719767
-2.5604514 -15.5513100 -56.6792078
-2.5667571 4.2389100 -53.9349318
-2.5651155 12.1023264 -59.9401109
-2.5565012 -15.9361064 -50.9152971
-2.5656852 -15.3330853 -26.5167076
-2.5705521 15.6933367 -22.1864469
-2.5614211 8.0341622 -54.0877506
-2.5702263 11.4725623 -59.9779822
-2.5740364 -15.3561793 -44.9382737
-2.5730815 -17.0334689 -2.4232485
-2.5844229 3.2920984 -54.9662635
-2.5769859 -15.2313160 -55.0236218
-2.5681164 -15.9438979 -50.7539846
-2.5794881 15.6255141 -23.0941568
-2.5757917 10.7907141 -60.0099266
-2.5756124 20.9814496 -52.4840988
-2.5818213 22.4657971 -55.6964613
-2.5782122 18.9266540 -33.7283202
-2.5679166 9.4137462 -55.0088175
-2.5781598 11.1574046 -59.9966124
-2.5835722 -15.9766041 -60.7551858
-2.5789267 19.8802371 -36.7392004
-2.5780823 -11.8051115 -36.4469960
-2.5789388 11.7843281 -59.9586442
-2.5796588 21.0036691 -59.3925379
-2.5797910 13.3403046 -59.8631836
-2.5810916 -17.1655882 -6.0107335
-2.5815582 21.2072078 -50.4096448
-2.5868430 -14.4192232 -27.3979399
-2.5826171 -14.2931081 -39.9740152
-2.5900577 -16.0166584 -60.5565943
-2.5891871 -15.4917073 -26.3432357
-2.5874772 10.1141976 -56.4179644
-2.5945115 -15.8129111 -57.2262630
-2.5908451 17.1603505 -27.1887723
-2.5934076 21.2725606 -59.3520217
-2.5845899 22.2804137 -44.0146625
-2.5924572 -15.3253991 -45.6546843
-2.6068592 -12.5933755 -38.3954383
-2.5973532 -11.3966083 -34.2603512
-2.5961755 15.6694073 -23.2418124
-2.5917138 -15.1619539 -41.2969291
-2.5882635 -15.9453172 -50.4306629
-2.5920214 21.9291653 -41.9337526
-2.5969716 0.0734843 9.8989243
-2.5939816 5.2043963 -53.6821000
-2.5981625 -11.8731698 -36.7540941
-2.5893804 -15.8305373 -52.2135012
-2.5980698 -0.8313410 -60.6139600
-2.5986820 12.8279086 -59.8932728
