13.054 12.945 20.99
12.729 13.282 21.1
12.379 13.628 21.207
12.015 13.984 21.308
11.684 14.321 21.386
11.343 14.671 21.46
10.989 15.022 21.527
10.643 15.377 21.579
10.293 15.718 21.626
9.939 16.067 21.664
9.584 16.423 21.686
9.241 16.759 21.7
8.878 17.118 21.707
8.524 17.466 21.703
8.182 17.807 21.683
7.823 18.158 21.656
7.473 18.505 21.621
7.134 18.849 21.575
6.784 19.189 21.527
6.439 19.536 21.471
6.095 19.885 21.406
5.746 20.224 21.333
5.387 20.593 21.236
5.01 20.97 21.13
4.604 21.379 20.988
4.214 21.772 20.82
3.828 22.165 20.622
3.447 22.546 20.411
3.096 22.912 20.195
2.729 23.278 19.967
2.373 23.644 19.734
2.028 24.024 19.479
1.866 24.292 19.665
1.592 24.51 19.847
1.274 24.781 19.911
0.84 25.146 19.794
0.455 25.524 19.569
0.08 25.894 19.335
-0.288 26.255 19.087
-0.991 26.961 18.554
-1.339 27.312 18.269
-1.681 27.652 17.981
-2.005 27.98 17.695
-2.021 28.006 17.668
-1.786 27.939 17.736
-1.407 27.605 18.035
-1.107 27.312 18.285
-0.811 27.013 18.524
-0.507 26.712 18.76
-0.203 26.408 18.982
0.114 26.099 19.204
0.438 25.78 19.408
0.758 25.468 19.6
1.148 25.107 19.778
1.553 24.728 19.805
1.905 24.366 19.631
2.078 24.173 19.437
2.303 23.991 19.476
2.666 23.603 19.743
2.973 23.28 19.955
3.287 22.965 20.152
3.603 22.642 20.341
3.924 22.321 20.525
4.248 21.988 20.695
4.586 21.644 20.853
4.935 21.287 20.99
5.273 20.949 21.101
5.624 20.594 21.197
5.975 20.252 21.282
6.325 19.894 21.355
6.684 19.551 21.415
7.041 19.193 21.47
7.383 18.85 21.516
7.734 18.504 21.556
8.086 18.156 21.586
8.444 17.799 21.609
8.782 17.458 21.623
9.147 17.103 21.623
9.495 16.756 21.614
9.837 16.402 21.598
10.194 16.058 21.57
10.536 15.708 21.533
10.901 15.342 21.482
11.229 15.004 21.426
11.59 14.644 21.359
11.933 14.303 21.279
12.267 13.951 21.197
12.628 13.607 21.094
12.956 13.267 20.987
13.295 12.908 20.869
13.708 12.514 20.709
14.041 12.181 20.563
14.386 11.847 20.401
14.721 11.51 20.23
15.059 11.179 20.039
15.393 10.854 19.837
15.723 10.529 19.616
16.042 10.224 19.382
16.358 9.913 19.134
16.653 9.619 18.886
16.954 9.316 18.641
17.073 9.099 18.557
17.079 8.657 18.596
17.313 8.417 18.703
17.805 8.122 18.762
18.229 7.83 18.675
18.655 7.487 18.478
19.002 7.175 18.271
19.331 6.861 18.05
19.662 6.55 17.807
19.971 6.236 17.553
20.309 5.919 17.271
20.604 5.624 17.004
20.947 5.302 16.636
21.145 5.024 16.454
21.361 4.866 16.235
21.589 4.629 15.972
21.863 4.37 15.616
22.163 4.091 15.196
22.328 3.942 14.962
22.66 3.866 14.502
22.995 3.702 14.304
23.34 3.38 14.356
23.724 2.976 14.285
24.065 2.622 14.071
24.381 2.302 13.777
24.658 2.016 13.469
24.929 1.742 13.127
25.196 1.461 12.745
25.416 1.243 12.327
25.603 1.042 11.88
25.751 0.888 11.416
25.871 0.757 10.933
25.958 0.664 10.448
26.017 0.605 9.949
26.053 0.568 9.454
26.077 0.549 8.959
26.083 0.534 8.445
26.077 0.53 7.633
26.011 0.707 7.547
25.912 0.979 7.547
25.846 1.131 7.953
25.829 1.153 8.467
25.829 1.158 9.013
25.798 1.174 9.556
25.734 1.241 10.089
25.642 1.335 10.609
25.504 1.475 11.127
25.331 1.653 11.589
25.126 1.858 12.045
24.877 2.096 12.474
24.592 2.385 12.841
24.309 2.678 13.144
23.992 2.984 13.47
23.61 3.355 13.709
23.188 3.741 13.772
22.981 3.846 13.97
22.691 3.95 14.439
22.386 4.171 14.903
22.094 4.443 15.336
21.791 4.733 15.748
21.482 5.037 16.126
21.326 5.161 16.282
21.169 5.332 16.451
20.979 5.484 16.624
20.844 5.699 16.77
20.519 5.972 17.081
20.188 6.3 17.373
19.837 6.639 17.67
19.466 6.985 17.954
19.086 7.341 18.214
18.7 7.7 18.447
18.331 8.004 18.626
17.891 8.328 18.739
17.408 8.638 18.706
17.079 8.842 18.581
17.058 9.35 18.542
16.928 9.586 18.647
16.259 10.254 19.199
15.889 10.601 19.48
15.523 10.961 19.733
15.153 11.322 19.962
14.772 11.687 20.179
14.393 12.056 20.368
14.003 12.435 20.552
13.642 12.807 20.702
13.247 13.199 20.852
12.996 13.452 20.936
12.631 13.808 21.053
12.299 14.145 21.148
11.951 14.494 21.23
11.597 14.835 21.31
11.266 15.179 21.368
10.918 15.533 21.424
10.575 15.874 21.474
9.873 16.567 21.536
9.514 16.925 21.555
9.169 17.267 21.564
8.456 17.964 21.547
8.108 18.312 21.522
7.413 19.005 21.449
7.067 19.356 21.401
6.727 19.694 21.345
6.373 20.039 21.283
6.02 20.389 21.211
5.688 20.727 21.124
5.352 21.06 21.029
4.959 21.462 20.896
4.612 21.817 20.753
4.271 22.162 20.59
3.951 22.492 20.413
3.625 22.817 20.223
3.239 23.209 19.988
2.919 23.53 19.783
2.545 23.913 19.527
2.23 24.226 19.304
2.062 24.483 19.459
1.757 24.763 19.67
1.393 25.083 19.728
1.034 25.396 19.626
0.685 25.734 19.43
0.367 26.047 19.233
0.05 26.364 19.02
-0.269 26.676 18.797
-0.573 26.979 18.564
-0.882 27.287 18.32
-1.242 27.653 18.016
-2.003 28.424 17.333
-1.989 28.557 17.219
-1.983 28.581 17.196
-1.976 28.591 17.189
-1.667 28.331 17.434
-1.318 27.967 17.757
-0.734 27.381 18.257
-0.13 26.779 18.73
0.18 26.469 18.948
0.499 26.152 19.162
0.81 25.844 19.356
1.162 25.512 19.544
1.518 25.183 19.644
1.893 24.796 19.571
2.194 24.456 19.323
2.396 24.342 19.206
2.713 23.994 19.453
3.081 23.617 19.714
3.397 23.297 19.918
4.02 22.662 20.297
4.345 22.333 20.476
4.676 22.002 20.641
5.015 21.656 20.79
5.358 21.311 20.915
5.71 20.95 21.017
6.059 20.621 21.103
6.382 20.278 21.182
6.723 19.945 21.246
7.058 19.613 21.304
7.377 19.29 21.348
7.715 18.963 21.387
8.039 18.64 21.422
8.377 18.301 21.448
8.707 17.974 21.468
9.046 17.635 21.477
9.365 17.311 21.477
9.709 16.971 21.471
10.033 16.641 21.455
10.358 16.312 21.428
10.696 15.982 21.391
11.038 15.63 21.347
11.391 15.278 21.292
11.737 14.931 21.226
12.081 14.582 21.152
12.43 14.232 21.065
12.766 13.886 20.974
13.133 13.537 20.852
13.533 13.12 20.711
13.873 12.777 20.577
14.213 12.445 20.429
14.561 12.103 20.262
14.908 11.767 20.08
15.239 11.443 19.89
15.577 11.119 19.677
15.896 10.801 19.46
16.215 10.485 19.216
16.531 10.185 18.964
16.824 9.883 18.722
17.064 9.637 18.534
17.094 9.044 18.567
17.345 8.809 18.676
17.829 8.525 18.732
18.248 8.234 18.651
18.684 7.89 18.454
19.021 7.584 18.253
19.406 7.225 17.994
19.773 6.873 17.715
20.127 6.533 17.427
20.473 6.194 17.128
20.756 5.923 16.866
20.992 5.707 16.625
21.193 5.466 16.438
21.465 5.204 16.16
21.726 4.962 15.857
21.971 4.72 15.54
22.266 4.435 15.116
22.532 4.181 14.709
22.801 3.932 14.282
22.971 3.846 14.011
23.266 3.773 13.501
23.431 3.708 13.229
23.779 3.39 13.076
24.166 2.999 12.846
24.51 2.638 12.535
24.815 2.32 12.168
25.089 2.035 11.755
25.317 1.794 11.256
25.491 1.613 10.725
25.616 1.489 10.184
25.705 1.387 9.624
25.751 1.339 9.054
25.775 1.308 8.476
25.771 1.308 7.924
25.771 1.32 7.647
25.708 1.464 7.572
25.492 1.914 7.572
25.405 2.083 7.564
25.405 2.087 7.564
25.351 2.187 7.941
25.338 2.191 8.488
25.345 2.164 9.049
25.302 2.192 9.596
25.2 2.281 10.137
25.059 2.421 10.652
24.86 2.608 11.137
24.611 2.842 11.568
24.302 3.143 11.931
23.969 3.464 12.225
23.743 3.671 12.411
23.567 3.712 12.847
23.336 3.792 13.345
23.094 3.977 13.803
22.847 4.187 14.235
22.583 4.413 14.663
22.315 4.656 15.078
22.052 4.918 15.464
21.741 5.212 15.851
21.449 5.506 16.184
21.16 5.79 16.482
20.941 5.923 16.645
20.815 6.176 16.805
20.477 6.437 17.121
20.126 6.789 17.423
19.837 7.067 17.662
19.518 7.371 17.908
19.144 7.715 18.169
18.776 8.055 18.392
18.355 8.408 18.601
17.934 8.716 18.707
17.463 9.012 18.684
17.134 9.207 18.573
17.078 9.507 18.531
17.046 9.858 18.531
16.723 10.207 18.787
16.393 10.549 19.062
16.021 10.916 19.346
15.665 11.253 19.596
15.29 11.619 19.83
14.961 11.94 20.022
14.563 12.323 20.23
14.214 12.671 20.393
13.807 13.072 20.567
13.43 13.449 20.714
13.022 13.857 20.848
12.721 14.155 20.939
12.388 14.461 21.033
12.04 14.831 21.116
11.644 15.249 21.193
11.24 15.633 21.263
10.847 16.015 21.32
10.472 16.403 21.359
10.049 16.823 21.389
9.673 17.179 21.415
9.345 17.526 21.415
8.982 17.876 21.415
8.627 18.226 21.399
8.281 18.572 21.376
7.942 18.918 21.341
7.582 19.269 21.302
6.849 20.004 21.191
6.468 20.384 21.114
6.085 20.773 21.024
5.71 21.148 20.923
5.323 21.536 20.799
4.946 21.922 20.65
4.574 22.295 20.473
4.211 22.664 20.277
3.855 23.025 20.067
3.5 23.381 19.852
3.145 23.731 19.624
2.792 24.081 19.386
2.45 24.43 19.135
2.217 24.731 19.309
1.865 25.045 19.527
1.473 25.388 19.558
1.111 25.723 19.418
0.744 26.089 19.196
0.39 26.448 18.963
0.041 26.796 18.716
-0.298 27.142 18.457
-0.641 27.476 18.187
-0.966 27.808 17.91
-1.295 28.136 17.625
-1.615 28.458 17.334
-1.902 28.755 17.061
-2.003 28.853 16.964
-1.983 29.011 16.823
-1.972 29.031 16.801
-1.972 29.036 16.801
-1.638 28.745 17.086
-1.062 28.153 17.624
-0.765 27.849 17.887
-0.458 27.548 18.143
-0.149 27.237 18.389
0.165 26.927 18.624
0.48 26.609 18.849
0.798 26.285 19.061
1.125 25.96 19.266
1.524 25.576 19.448
1.869 25.243 19.471
2.242 24.848 19.29
2.458 24.585 19.035
2.718 24.429 19.121
3.027 24.108 19.351
3.337 23.793 19.567
3.651 23.469 19.776
3.978 23.141 19.975
4.308 22.817 20.166
4.644 22.479 20.351
4.973 22.139 20.517
5.323 21.789 20.668
5.666 21.431 20.794
6.016 21.077 20.9
6.372 20.714 20.992
6.719 20.366 21.069
7.072 20.012 21.134
7.419 19.667 21.189
8.11 18.991 21.267
8.464 18.645 21.296
9.168 17.95 21.329
9.509 17.596 21.333
9.865 17.255 21.325
10.211 16.89 21.311
10.559 16.549 21.283
10.903 16.196 21.246
11.262 15.84 21.196
11.594 15.501 21.145
11.96 15.141 21.076
12.3 14.791 21.002
12.644 14.445 20.916
13.034 14.046 20.806
13.442 13.649 20.667
13.807 13.287 20.532
14.167 12.924 20.38
14.524 12.581 20.217
14.876 12.237 20.037
15.229 11.885 19.844
15.582 11.549 19.627
15.93 11.21 19.39
16.256 10.881 19.149
16.593 10.56 18.883
16.902 10.248 18.629
17.088 10.049 18.485
17.113 9.486 18.534
17.262 9.275 18.612
17.673 9.035 18.704
18.135 8.74 18.664
18.504 8.46 18.534
18.903 8.12 18.313
19.261 7.788 18.09
19.611 7.455 17.838
19.953 7.141 17.572
20.58 6.522 17.033
20.934 6.201 16.681
21.12 5.964 16.517
21.458 5.66 16.18
21.771 5.364 15.835
22.066 5.069 15.47
22.332 4.805 15.093
22.594 4.549 14.688
22.804 4.337 14.329
23.013 4.144 13.966
23.223 3.965 13.584
23.423 3.807 13.19
23.655 3.696 12.666
23.849 3.655 12.133
24.007 3.532 11.882
24.36 3.196 11.54
24.633 2.92 11.257
24.87 2.653 10.931
25.058 2.455 10.55
25.191 2.311 10.122
25.287 2.218 9.692
25.345 2.16 9.247
25.386 2.119 8.651
25.404 2.092 7.667
25.322 2.253 7.584
25.089 2.672 7.569
24.891 3.044 7.549
24.881 3.055 7.549
24.828 3.117 8.018
24.822 3.106 8.596
24.822 3.095 9.181
24.752 3.122 9.65
24.634 3.245 10.066
24.435 3.42 10.466
24.22 3.629 10.763
24.134 3.679 11.028
23.992 3.679 11.597
23.83 3.775 12.147
23.679 3.896 12.577
23.513 4.024 12.987
23.334 4.172 13.388
23.146 4.327 13.764
22.94 4.5 14.134
22.673 4.748 14.591
22.399 5.005 15.013
22.136 5.264 15.391
21.837 5.558 15.766
21.529 5.857 16.101
21.213 6.169 16.426
20.941 6.372 16.668
20.726 6.665 16.888
20.393 6.963 17.192
20.066 7.28 17.473
19.716 7.607 17.752
19.36 7.939 18.014
18.998 8.28 18.251
18.607 8.635 18.475
18.251 8.91 18.617
17.834 9.194 18.687
17.383 9.476 18.634
17.13 9.626 18.534
17.096 9.911 18.499
17.068 10.255 18.482
16.783 10.591 18.703
16.475 10.906 18.95
16.121 11.25 19.225
15.772 11.589 19.472
15.424 11.926 19.695
15.063 12.279 19.903
14.692 12.646 20.099
14.314 13.012 20.279
13.954 13.362 20.433
13.583 13.729 20.578
13.213 14.097 20.703
12.851 14.454 20.812
12.505 14.791 20.906
12.215 15.085 20.973
11.818 15.494 21.052
11.41 15.887 21.123
11.008 16.295 21.176
10.608 16.685 21.218
10.22 17.086 21.246
9.824 17.484 21.262
9.453 17.845 21.268
9.109 18.193 21.259
8.772 18.528 21.243
8.412 18.871 21.219
8.076 19.219 21.185
7.401 19.895 21.097
7.035 20.254 21.034
6.68 20.618 20.961
6.303 20.996 20.87
5.922 21.38 20.766
5.538 21.766 20.636
5.159 22.144 20.481
4.796 22.517 20.301
4.43 22.889 20.103
4.069 23.248 19.893
3.714 23.597 19.675
3.37 23.945 19.449
3.016 24.296 19.208
2.68 24.638 18.957
2.467 24.857 19.064
2.127 25.206 19.328
1.746 25.555 19.399
1.381 25.878 19.299
1.058 26.203 19.108
0.715 26.564 18.873
0.366 26.914 18.63
0.027 27.251 18.38
-0.313 27.594 18.111
-0.644 27.922 17.837
-0.973 28.252 17.551
-1.289 28.573 17.258
-1.604 28.897 16.955
-2.002 29.304 16.558
-1.969 29.494 16.364
-1.653 29.198 16.674
-1.362 28.904 16.96
-1.073 28.609 17.238
-0.775 28.305 17.513
-0.465 27.999 17.78
-0.16 27.69 18.036
0.152 27.382 18.282
0.464 27.066 18.517
0.781 26.743 18.744
1.101 26.416 18.963
1.443 26.081 19.17
1.811 25.724 19.301
2.138 25.394 19.284
2.403 25.103 19.146
2.63 24.818 18.881
2.881 24.711 18.881
3.177 24.401 19.116
3.48 24.079 19.341
3.803 23.755 19.556
4.135 23.426 19.76
4.463 23.099 19.955
4.799 22.754 20.144
5.143 22.42 20.317
5.473 22.08 20.468
5.831 21.719 20.609
6.191 21.349 20.728
6.534 20.994 20.822
6.882 20.645 20.904
7.13 20.398 20.952
7.466 20.068 21.006
7.874 19.673 21.062
8.286 19.267 21.106
8.691 18.859 21.144
9.105 18.45 21.165
9.518 18.036 21.179
9.85 17.699 21.179
10.211 17.329 21.169
10.556 16.983 21.149
10.901 16.63 21.119
11.254 16.281 21.075
11.598 15.929 21.03
11.951 15.582 20.968
12.318 15.212 20.893
12.72 14.801 20.799
13.11 14.4 20.692
13.502 14.015 20.562
13.891 13.639 20.421
14.277 13.262 20.26
14.657 12.883 20.083
15.044 12.506 19.884
15.348 12.203 19.71
15.726 11.844 19.475
16.09 11.488 19.224
16.434 11.15 18.963
16.768 10.81 18.697
17.099 10.484 18.448
17.106 9.954 18.496
17.295 9.679 18.59
17.706 9.434 18.676
18.189 9.122 18.624
18.581 8.831 18.479
18.993 8.472 18.247
19.364 8.119 18.008
19.733 7.777 17.739
20.084 7.437 17.457
20.422 7.106 17.167
20.69 6.851 16.927
20.96 6.566 16.657
21.3 6.241 16.342
21.559 5.995 16.072
21.894 5.68 15.704
22.14 5.441 15.406
22.376 5.2 15.086
22.573 4.98 14.781
22.782 4.775 14.45
22.974 4.595 14.115
23.153 4.426 13.78
23.328 4.267 13.42
23.499 4.124 13.043
23.648 3.99 12.666
23.781 3.882 12.29
23.9 3.777 11.921
24.061 3.665 11.362
24.158 3.665 10.971
24.293 3.628 10.448
24.514 3.421 10.056
24.69 3.213 9.788
24.845 3.025 9.454
24.973 2.858 8.934
25.011 2.81 8.404
25.019 2.797 7.883
25.026 2.797 7.636
24.877 3.063 7.56
24.621 3.471 7.56
24.443 3.826 7.567
24.421 3.834 8.058
24.421 3.817 8.564
24.405 3.795 9.073
24.366 3.772 9.596
24.3 3.779 10.106
24.218 3.832 10.614
24.106 3.917 11.122
23.992 4.024 11.586
23.85 4.134 12.068
23.693 4.273 12.556
23.518 4.425 13.023
23.317 4.586 13.485
23.102 4.778 13.913
22.872 4.991 14.329
22.638 5.222 14.718
22.381 5.47 15.09
22.116 5.727 15.436
21.815 6.018 15.79
21.506 6.317 16.127
21.192 6.624 16.442
20.878 6.88 16.731
20.559 7.224 17.039
20.215 7.557 17.339
19.87 7.891 17.625
19.509 8.228 17.898
19.142 8.578 18.144
18.769 8.926 18.37
18.404 9.219 18.544
17.989 9.512 18.649
17.557 9.801 18.635
17.112 10.064 18.49
17.07 10.638 18.44
16.951 10.855 18.524
16.621 11.194 18.785
16.275 11.534 19.059
15.922 11.886 19.31
15.554 12.242 19.555
15.185 12.596 19.771
14.793 12.975 19.98
14.415 13.345 20.158
14.041 13.709 20.319
13.672 14.074 20.458
13.285 14.455 20.588
12.912 14.831 20.696
12.592 15.15 20.78
12.207 15.536 20.862
11.924 15.812 20.919
11.598 16.146 20.971
11.252 16.488 21.018
10.915 16.822 21.056
10.579 17.152 21.084
10.243 17.493 21.101
9.572 18.161 21.11
9.242 18.487 21.102
8.908 18.824 21.082
8.553 19.17 21.055
8.225 19.516 21.018
7.887 19.848 20.978
7.549 20.184 20.929
7.208 20.521 20.872
6.791 20.936 20.783
6.387 21.356 20.674
6.066 21.676 20.576
5.745 21.999 20.465
5.427 22.319 20.331
5.119 22.629 20.181
4.809 22.942 20.018
4.503 23.247 19.845
4.119 23.633 19.612
3.531 24.218 19.228
2.962 24.791 18.821
2.813 24.965 18.696
2.52 25.228 19.037
2.257 25.52 19.181
2.025 25.671 19.248
1.614 26.062 19.16
1.315 26.375 18.98
1.033 26.675 18.784
0.742 26.967 18.581
0.458 27.263 18.369
-0.106 27.826 17.929
-0.387 28.103 17.697
-0.661 28.376 17.457
-1.28 29.009 16.875
-1.546 29.27 16.616
-1.848 29.587 16.287
-2.011 29.751 16.107
-1.949 29.969 15.866
-1.63 29.72 16.161
-1.375 29.436 16.462
-1.074 29.128 16.766
-0.772 28.824 17.058
-0.483 28.498 17.357
-0.149 28.16 17.651
0.186 27.821 17.935
0.535 27.471 18.205
0.877 27.123 18.46
1.227 26.761 18.711
1.6 26.389 18.947
1.971 26.03 19.107
2.344 25.641 19.107
2.615 25.328 18.968
2.839 25.026 18.701
3.158 24.907 18.701
3.476 24.558 18.966
3.825 24.204 19.214
4.177 23.845 19.449
4.539 23.485 19.675
4.906 23.119 19.88
5.285 22.748 20.078
5.664 22.37 20.254
6.05 21.98 20.414
6.431 21.588 20.543
6.754 21.255 20.642
7.078 20.921 20.723
7.409 20.595 20.785
7.731 20.275 20.839
8.048 19.958 20.886
8.369 19.645 20.921
8.691 19.323 20.953
9.019 19.003 20.977
9.37 18.649 21
9.741 18.281 21.005
10.076 17.936 21.005
10.428 17.582 20.999
10.779 17.232 20.978
11.114 16.883 20.954
11.473 16.532 20.912
11.807 16.185 20.868
12.158 15.834 20.805
12.503 15.49 20.734
12.846 15.143 20.655
13.193 14.804 20.559
13.524 14.456 20.458
13.886 14.122 20.327
14.201 13.792 20.208
14.565 13.439 20.045
14.935 13.08 19.864
15.312 12.712 19.656
15.678 12.359 19.437
16.045 11.999 19.192
16.4 11.653 18.93
16.761 11.293 18.65
17.081 10.943 18.405
17.117 10.407 18.463
17.303 10.131 18.557
17.724 9.882 18.64
18.198 9.576 18.594
18.595 9.28 18.451
19 8.928 18.224
19.378 8.572 17.982
19.738 8.228 17.72
20.092 7.892 17.439
20.432 7.563 17.146
20.77 7.233 16.846
21.118 6.88 16.517
21.452 6.564 16.182
21.775 6.258 15.838
22.032 6.005 15.554
22.252 5.782 15.28
22.462 5.564 15
22.657 5.37 14.708
22.851 5.178 14.397
23.042 4.999 14.069
23.291 4.761 13.581
23.455 4.613 13.215
23.596 4.485 12.852
23.787 4.323 12.31
23.947 4.178 11.763
24.054 4.083 11.372
24.18 3.966 10.81
24.285 3.881 10.231
24.357 3.833 9.652
24.4 3.816 9.084
24.425 3.826 8.518
24.433 3.831 8.016
24.433 3.843 7.687
24.414 3.949 7.595
24.37 4.242 7.558
24.37 4.259 8.066
24.375 4.241 8.653
24.362 4.231 9.181
24.318 4.231 9.765
24.257 4.269 10.322
24.199 4.314 10.685
24.123 4.369 11.074
23.993 4.493 11.618
23.847 4.627 12.148
23.682 4.775 12.667
23.48 4.951 13.201
23.263 5.154 13.688
23.007 5.382 14.161
22.742 5.633 14.596
22.462 5.905 15.009
22.162 6.188 15.388
21.85 6.486 15.748
21.519 6.808 16.102
21.199 7.121 16.425
20.859 7.443 16.749
20.52 7.768 17.062
20.165 8.109 17.366
19.825 8.443 17.644
19.45 8.791 17.923
19.069 9.148 18.163
18.782 9.427 18.338
18.395 9.725 18.512
17.985 10.019 18.613
17.53 10.314 18.592
17.095 10.58 18.444
17.067 11.088 18.395
16.94 11.39 18.467
16.606 11.718 18.729
16.253 12.064 18.997
15.894 12.42 19.248
15.518 12.782 19.49
15.147 13.139 19.702
14.773 13.51 19.892
14.394 13.884 20.068
13.802 14.47 20.302
13.197 15.053 20.499
12.911 15.336 20.576
12.601 15.632 20.651
12.325 15.92 20.706
12.024 16.223 20.76
11.722 16.523 20.806
11.386 16.854 20.848
11.021 17.213 20.886
10.695 17.55 20.905
10.361 17.887 20.918
9.995 18.241 20.925
9.669 18.576 20.919
9.326 18.915 20.905
8.983 19.254 20.882
8.648 19.596 20.848
8.316 19.925 20.813
7.971 20.273 20.767
7.64 20.605 20.714
7.312 20.932 20.654
6.961 21.276 20.573
6.626 21.606 20.479
6.236 22.012 20.346
5.882 22.388 20.197
5.515 22.749 20.032
5.183 23.084 19.865
4.832 23.432 19.673
4.487 23.768 19.469
4.159 24.102 19.258
3.843 24.421 19.04
3.522 24.75 18.806
3.197 25.073 18.564
2.925 25.235 18.669
2.63 25.583 18.938
2.299 25.94 19.031
1.902 26.324 18.949
1.542 26.694 18.741
1.213 27.029 18.513
0.899 27.355 18.279
0.579 27.675 18.042
0.263 27.985 17.797
-0.046 28.291 17.539
-0.36 28.601 17.269
-0.663 28.905 16.99
-0.957 29.205 16.705
-1.241 29.494 16.418
-1.527 29.785 16.103
-1.811 30.07 15.768
-2.012 30.281 15.505
-1.918 30.555 15.154
-1.625 30.317 15.481
-1.377 30.051 15.818
-1.09 29.753 16.15
-0.819 29.477 16.447
-0.557 29.169 16.745
-0.271 28.872 17.029
0.033 28.564 17.3
0.337 28.257 17.561
0.657 27.944 17.813
0.969 27.631 18.053
1.281 27.314 18.286
1.597 26.99 18.516
1.945 26.647 18.735
2.294 26.293 18.88
2.595 25.961 18.891
2.862 25.642 18.777
3.134 25.264 18.47
3.435 25.207 18.423
3.723 24.894 18.673
4.038 24.567 18.907
4.368 24.238 19.132
4.692 23.916 19.339
5.027 23.579 19.538
5.364 23.241 19.726
5.713 22.899 19.896
6.057 22.556 20.055
6.409 22.2 20.196
6.778 21.829 20.324
7.065 21.53 20.415
7.371 21.226 20.491
7.671 20.912 20.559
7.957 20.631 20.612
8.262 20.319 20.658
8.571 20.022 20.692
8.865 19.735 20.719
9.157 19.441 20.747
9.474 19.127 20.768
9.82 18.786 20.781
10.169 18.441 20.787
10.498 18.098 20.787
10.847 17.739 20.776
11.179 17.405 20.758
11.526 17.055 20.727
11.87 16.705 20.686
12.212 16.368 20.634
12.549 16.023 20.569
12.88 15.689 20.5
13.245 15.332 20.405
13.551 15.005 20.315
13.919 14.656 20.19
14.237 14.336 20.069
14.587 13.995 19.921
14.962 13.635 19.739
15.343 13.261 19.536
15.716 12.902 19.315
16.076 12.547 19.074
16.432 12.194 18.819
17.036 11.59 18.352
17.089 11.062 18.396
17.167 10.802 18.45
17.661 10.493 18.589
18.146 10.184 18.564
18.553 9.885 18.434
18.897 9.607 18.254
19.277 9.249 18.023
19.643 8.899 17.771
19.995 8.56 17.497
20.345 8.222 17.21
20.684 7.894 16.91
21.013 7.569 16.602
21.341 7.253 16.28
21.668 6.935 15.941
21.984 6.623 15.593
22.206 6.403 15.337
22.427 6.188 15.06
22.637 5.982 14.776
22.832 5.792 14.479
23.024 5.612 14.164
23.195 5.446 13.85
23.363 5.293 13.508
23.514 5.148 13.159
23.712 4.96 12.632
23.823 4.851 12.278
23.933 4.754 11.908
24.074 4.638 11.34
24.194 4.529 10.776
24.254 4.476 10.388
24.312 4.433 9.803
24.348 4.409 9.211
24.366 4.409 8.64
24.366 4.409 8.081
24.366 4.421 7.615
24.34 4.69 7.551
24.331 4.878 7.543
24.331 4.909 8.051
24.331 4.888 8.554
24.331 4.879 9.106
24.3 4.888 9.675
24.255 4.917 10.23
24.175 4.978 10.808
24.078 5.062 11.338
23.944 5.174 11.899
23.788 5.31 12.43
23.602 5.48 12.956
23.394 5.674 13.462
23.154 5.901 13.943
22.893 6.145 14.386
22.612 6.412 14.803
22.306 6.695 15.204
22.01 6.984 15.553
21.677 7.296 15.916
21.364 7.607 16.236
21.028 7.926 16.571
20.68 8.257 16.894
20.338 8.588 17.198
19.979 8.937 17.493
19.613 9.284 17.769
19.22 9.649 18.033
18.858 10.001 18.246
18.484 10.303 18.433
18.063 10.608 18.548
17.604 10.903 18.548
17.155 11.178 18.415
17.066 11.455 18.354
17.013 11.923 18.315
16.687 12.282 18.563
16.335 12.638 18.828
15.966 12.99 19.089
15.595 13.357 19.323
15.217 13.723 19.541
14.826 14.11 19.733
14.442 14.487 19.907
14.097 14.823 20.041
13.796 15.118 20.149
13.497 15.4 20.249
13.222 15.674 20.325
12.939 15.965 20.393
12.642 16.249 20.462
12.353 16.531 20.515
12.068 16.816 20.562
11.772 17.107 20.601
11.481 17.401 20.631
11.127 17.758 20.652
10.81 18.086 20.666
10.105 18.78 20.672
9.774 19.129 20.654
9.425 19.463 20.637
9.095 19.801 20.61
8.749 20.142 20.575
8.076 20.819 20.481
7.737 21.147 20.421
7.392 21.503 20.335
7.056 21.828 20.247
6.714 22.174 20.134
6.385 22.503 20.008
6.017 22.889 19.839
5.676 23.233 19.673
5.33 23.574 19.491
4.991 23.914 19.293
4.664 24.245 19.087
4.342 24.573 18.869
4.026 24.888 18.649
3.706 25.203 18.407
3.472 25.45 18.212
3.227 25.555 18.471
2.945 25.891 18.705
2.622 26.252 18.78
2.236 26.642 18.686
1.887 27.014 18.471
1.561 27.341 18.24
1.25 27.657 18.009
0.934 27.967 17.775
0.619 28.279 17.527
0.311 28.585 17.273
-0.014 28.917 16.981
-0.312 29.216 16.702
-0.604 29.515 16.409
-0.889 29.805 16.105
-1.137 30.048 15.821
-1.387 30.301 15.518
-1.615 30.544 15.205
-1.878 30.816 14.798
-2.022 30.97 14.551
-1.985 31.087 14.355
-1.91 31.265 14.059
-1.694 31.068 14.42
-1.459 30.837 14.795
-1.211 30.568 15.188
-0.953 30.301 15.54
-0.687 29.988 15.906
-0.437 29.713 16.206
-0.167 29.436 16.49
0.106 29.155 16.758
0.383 28.877 17.012
0.68 28.58 17.264
0.973 28.292 17.497
1.267 28.003 17.722
1.938 27.334 18.211
2.268 27.004 18.421
2.63 26.629 18.601
2.925 26.295 18.633
3.263 25.881 18.486
3.507 25.543 18.186
3.778 25.52 18.118
4.049 25.226 18.355
4.345 24.927 18.58
4.644 24.622 18.796
4.946 24.317 18.999
5.255 24.006 19.193
5.561 23.692 19.373
5.883 23.378 19.537
6.203 23.061 19.688
6.524 22.737 19.827
6.849 22.41 19.955
7.195 22.068 20.074
7.525 21.732 20.173
7.852 21.398 20.261
8.18 21.059 20.33
8.509 20.726 20.391
8.849 20.391 20.433
9.224 20.016 20.473
9.585 19.674 20.496
9.912 19.335 20.514
10.285 18.98 20.52
10.972 18.285 20.52
11.321 17.932 20.507
11.674 17.568 20.485
12.025 17.215 20.45
12.384 16.844 20.403
12.754 16.479 20.339
13.113 16.113 20.26
13.482 15.753 20.167
13.838 15.396 20.056
14.202 15.035 19.926
14.61 14.636 19.76
14.946 14.309 19.608
15.345 13.919 19.401
15.736 13.533 19.178
16.061 13.216 18.966
16.441 12.845 18.698
17.014 12.264 18.264
17.075 11.699 18.334
17.196 11.428 18.41
17.632 11.174 18.527
18.033 10.92 18.527
18.481 10.588 18.408
18.869 10.282 18.221
19.264 9.904 17.986
19.595 9.599 17.768
19.97 9.238 17.482
20.339 8.875 17.186
20.695 8.529 16.874
21.042 8.19 16.55
21.388 7.854 16.204
21.667 7.587 15.918
21.966 7.298 15.592
22.268 7.008 15.246
22.562 6.718 14.869
22.845 6.456 14.462
23.101 6.206 14.044
23.339 5.979 13.594
23.551 5.779 13.113
23.738 5.603 12.625
23.894 5.449 12.118
24.026 5.334 11.598
24.134 5.238 11.08
24.219 5.17 10.541
24.27 5.13 10.003
24.305 5.114 9.474
24.319 5.11 8.938
24.326 5.11 8.406
24.326 5.11 7.862
24.317 5.114 7.621
24.31 5.222 7.556
24.286 5.595 7.543
24.286 5.6 8.037
24.293 5.59 8.537
24.289 5.582 9.091
24.264 5.588 9.639
24.23 5.617 10.187
24.177 5.659 10.721
24.088 5.719 11.283
23.968 5.814 11.839
23.819 5.948 12.373
23.643 6.108 12.881
23.427 6.31 13.383
23.195 6.531 13.848
22.944 6.77 14.282
22.665 7.036 14.701
22.373 7.304 15.088
22.074 7.593 15.448
21.767 7.877 15.784
21.428 8.205 16.138
21.098 8.521 16.468
20.751 8.851 16.797
20.411 9.183 17.1
20.057 9.518 17.391
19.686 9.876 17.672
19.297 10.238 17.933
18.928 10.595 18.151
18.577 10.887 18.333
18.191 11.184 18.46
17.744 11.48 18.499
17.28 11.757 18.409
17.041 11.915 18.308
16.998 12.482 18.241
16.884 12.74 18.296
16.543 13.094 18.549
16.186 13.445 18.801
15.811 13.805 19.051
15.439 14.168 19.271
15.047 14.556 19.475
14.661 14.932 19.65
14.273 15.318 19.808
13.893 15.687 19.943
13.549 16.032 20.046
13.197 16.37 20.143
12.842 16.72 20.215
12.495 17.068 20.276
12.147 17.418 20.324
11.789 17.768 20.362
11.399 18.163 20.385
11.052 18.501 20.4
10.629 18.926 20.4
10.305 19.257 20.393
9.975 19.576 20.381
9.559 19.995 20.353
9.228 20.32 20.324
8.911 20.639 20.287
8.593 20.959 20.243
8.269 21.276 20.189
7.935 21.613 20.115
7.625 21.924 20.034
7.299 22.25 19.933
6.982 22.564 19.823
6.678 22.874 19.702
6.364 23.188 19.563
6.01 23.556 19.383
5.645 23.923 19.189
5.282 24.286 18.972
4.925 24.644 18.741
4.585 24.986 18.502
4.239 25.329 18.244
3.897 25.676 17.967
3.674 25.723 18.081
3.416 26.074 18.366
3.076 26.462 18.497
2.722 26.828 18.452
2.423 27.148 18.278
2.062 27.52 18.03
1.369 28.2 17.537
1.022 28.542 17.271
0.675 28.877 16.992
0.353 29.208 16.696
0.036 29.536 16.384
-0.284 29.858 16.053
-0.583 30.168 15.705
-0.874 30.473 15.33
-1.089 30.691 15.028
-1.359 30.96 14.623
-1.619 31.225 14.171
-1.839 31.454 13.724
-2.037 31.663 13.254
-1.952 31.846 12.823
-1.921 31.993 12.405
-1.925 32.003 12.374
-1.774 31.833 12.891
-1.571 31.618 13.397
-1.347 31.395 13.873
-1.115 31.15 14.33
-0.854 30.875 14.772
-0.602 30.582 15.191
-0.344 30.306 15.542
-0.072 30.016 15.88
0.215 29.725 16.187
0.508 29.426 16.483
0.804 29.122 16.762
1.122 28.809 17.029
1.434 28.49 17.281
1.752 28.183 17.51
2.38 27.562 17.947
2.716 27.22 18.165
3.057 26.874 18.319
3.348 26.525 18.34
3.676 26.093 18.175
3.867 25.818 17.94
4.155 25.803 17.819
4.457 25.482 18.087
4.771 25.164 18.332
5.082 24.84 18.561
5.403 24.512 18.783
5.738 24.178 18.984
6.075 23.841 19.173
6.417 23.5 19.339
6.76 23.162 19.49
7.101 22.817 19.63
7.454 22.465 19.762
7.807 22.107 19.879
8.154 21.75 19.976
8.506 21.388 20.057
8.861 21.038 20.118
9.189 20.711 20.161
9.536 20.376 20.192
9.85 20.057 20.218
10.199 19.715 20.233
10.532 19.393 20.242
10.845 19.065 20.253
11.19 18.734 20.253
11.514 18.399 20.247
11.841 18.059 20.229
12.164 17.728 20.203
12.509 17.393 20.158
12.83 17.06 20.113
13.158 16.738 20.045
13.498 16.397 19.967
13.83 16.07 19.872
14.147 15.75 19.767
14.489 15.419 19.639
14.808 15.102 19.507
15.2 14.726 19.317
15.579 14.353 19.113
15.969 13.969 18.883
16.337 13.612 18.634
16.691 13.259 18.379
16.959 12.978 18.182
17.027 12.478 18.239
17.077 12.191 18.289
17.443 11.937 18.433
17.86 11.691 18.47
18.314 11.388 18.397
18.706 11.083 18.244
19.109 10.72 18.019
19.488 10.354 17.782
19.867 9.998 17.516
20.216 9.657 17.242
20.572 9.314 16.944
20.924 8.976 16.628
21.255 8.65 16.301
21.591 8.327 15.958
21.87 8.055 15.656
22.155 7.783 15.338
22.429 7.521 15.002
22.697 7.274 14.641
22.942 7.036 14.275
23.176 6.812 13.879
23.395 6.603 13.456
23.588 6.418 13.026
23.758 6.256 12.575
23.906 6.111 12.1
24.023 5.999 11.619
24.118 5.92 11.122
24.188 5.87 10.626
24.229 5.838 10.122
24.258 5.828 9.644
24.272 5.821 9.146
24.284 5.821 8.18
24.284 5.814 7.617
24.268 6.018 7.556
24.244 6.293 7.551
24.252 6.313 8.108
24.235 6.302 8.947
24.217 6.302 9.792
24.191 6.319 10.212
24.156 6.346 10.639
24.109 6.379 11.079
24.033 6.435 11.513
23.938 6.513 11.938
23.813 6.616 12.375
23.666 6.741 12.779
23.507 6.892 13.162
23.338 7.058 13.526
23.154 7.241 13.871
22.951 7.43 14.212
22.736 7.63 14.543
22.518 7.836 14.842
22.29 8.053 15.135
22.057 8.27 15.411
21.809 8.504 15.689
21.519 8.783 15.999
21.213 9.068 16.312
20.905 9.368 16.609
20.578 9.675 16.908
20.259 9.989 17.176
19.911 10.316 17.451
19.559 10.646 17.702
19.205 10.984 17.927
18.838 11.335 18.131
18.497 11.612 18.294
18.126 11.887 18.399
17.724 12.157 18.428
17.289 12.416 18.345
17.002 12.623 18.22
16.95 13.153 18.152
16.841 13.438 18.193
16.532 13.755 18.416
16.182 14.098 18.661
15.796 14.474 18.903
15.461 14.804 19.094
15.155 15.1 19.256
14.785 15.477 19.42
14.422 15.829 19.563
14.029 16.216 19.7
13.633 16.608 19.82
13.234 16.996 19.919
12.843 17.388 19.991
12.449 17.782 20.047
12.058 18.172 20.084
11.66 18.567 20.108
11.427 18.8 20.115
11.083 19.133 20.121
10.68 19.533 20.114
10.281 19.943 20.096
9.944 20.275 20.078
9.538 20.669 20.045
9.14 21.083 19.991
8.754 21.466 19.93
8.355 21.857 19.85
7.984 22.237 19.746
7.621 22.604 19.625
7.255 22.972 19.488
6.897 23.329 19.342
6.539 23.686 19.181
6.179 24.042 19.001
5.829 24.392 18.807
5.479 24.738 18.589
5.136 25.078 18.357
4.813 25.413 18.105
4.495 25.74 17.847
4.247 25.994 17.653
3.989 26.028 17.899
3.681 26.465 18.154
3.358 26.838 18.213
2.976 27.235 18.097
2.618 27.616 17.86
1.943 28.281 17.394
1.61 28.61 17.153
1.287 28.942 16.891
0.957 29.261 16.614
0.652 29.579 16.321
0.342 29.887 16.009
0.049 30.192 15.673
-0.23 30.483 15.321
-0.5 30.767 14.942
-0.756 31.024 14.542
-0.989 31.274 14.122
-1.224 31.507 13.68
-1.401 31.679 13.308
-1.554 31.828 12.937
-1.682 31.962 12.561
-1.796 32.08 12.177
-1.894 32.177 11.784
-1.99 32.285 11.282
-2.064 32.365 10.734
-2.064 32.373 10.673
-2.033 32.434 10.225
-2.021 32.475 9.739
-2.015 32.5 9.26
-1.999 32.52 8.771
-1.984 32.528 8.283
-1.965 32.544 7.815
-1.956 32.553 7.703
-1.952 32.558 7.688
-1.816 32.558 8.097
-1.771 32.53 8.566
-1.752 32.517 9.043
-1.743 32.502 9.531
-1.722 32.471 10.028
-1.686 32.416 10.527
-1.627 32.353 11.019
-1.548 32.266 11.509
-1.462 32.163 11.946
-1.352 32.042 12.376
-1.221 31.9 12.797
-1.035 31.694 13.303
-0.863 31.498 13.725
-0.661 31.29 14.12
-0.451 31.072 14.486
-0.231 30.841 14.84
0.001 30.589 15.179
0.242 30.337 15.496
0.495 30.072 15.802
0.758 29.805 16.085
1.026 29.53 16.353
1.296 29.249 16.607
1.584 28.967 16.846
1.87 28.674 17.071
2.166 28.383 17.281
2.916 27.636 17.793
3.254 27.288 17.991
3.601 26.91 18.082
3.923 26.486 18.001
4.175 26.13 17.779
4.34 26.04 17.603
4.619 25.951 17.629
4.96 25.591 17.929
5.327 25.214 18.216
5.624 24.919 18.425
5.92 24.613 18.619
6.218 24.312 18.799
6.54 23.996 18.964
6.852 23.684 19.111
7.256 23.28 19.288
7.572 22.965 19.412
7.981 22.559 19.558
8.294 22.233 19.655
8.707 21.816 19.761
9.037 21.477 19.826
9.45 21.079 19.885
9.87 20.656 19.931
10.2 20.329 19.95
10.534 20.008 19.964
10.95 19.592 19.978
11.274 19.266 19.982
11.597 18.943 19.982
12.014 18.513 19.967
12.664 17.85 19.911
12.993 17.527 19.862
13.319 17.205 19.798
13.643 16.876 19.725
13.965 16.568 19.632
14.341 16.18 19.509
14.752 15.788 19.348
15.15 15.405 19.173
15.529 15.033 18.982
15.915 14.642 18.765
16.295 14.271 18.518
16.635 13.927 18.281
16.904 13.662 18.091
16.979 13.155 18.152
17.042 12.833 18.212
17.398 12.585 18.355
17.911 12.293 18.396
18.327 11.996 18.32
18.708 11.707 18.171
19.094 11.354 17.96
19.463 11.001 17.737
19.823 10.662 17.493
20.17 10.325 17.225
20.517 9.99 16.942
20.859 9.661 16.637
21.188 9.346 16.322
21.508 9.034 15.996
22.018 8.546 15.442
22.284 8.29 15.121
22.542 8.044 14.786
22.796 7.803 14.429
23.033 7.576 14.062
23.253 7.354 13.671
23.468 7.158 13.247
23.647 6.99 12.83
23.812 6.829 12.376
23.944 6.704 11.917
24.048 6.61 11.432
24.121 6.552 10.937
24.17 6.52 10.452
24.199 6.5 9.967
24.218 6.494 9.494
24.228 6.487 9.013
24.238 6.487 7.621
24.223 6.662 7.561
24.2 6.946 7.555
24.188 6.964 8.056
24.197 6.95 8.519
24.19 6.939 9.023
24.16 6.949 10.015
24.124 6.98 10.537
24.08 7.019 11.051
23.994 7.088 11.588
23.878 7.194 12.079
23.717 7.33 12.579
23.528 7.505 13.036
23.325 7.701 13.467
23.096 7.909 13.891
22.855 8.136 14.277
22.596 8.385 14.656
22.336 8.634 15.006
22.062 8.891 15.344
21.778 9.161 15.663
21.484 9.435 15.982
21.135 9.767 16.336
20.779 10.106 16.671
20.489 10.379 16.925
20.122 10.735 17.226
19.824 11.015 17.45
19.519 11.304 17.661
19.2 11.602 17.853
18.888 11.905 18.027
18.514 12.216 18.206
18.107 12.526 18.323
17.64 12.829 18.35
17.153 13.119 18.231
16.968 13.298 18.132
16.88 13.886 18.052
16.732 14.172 18.126
16.374 14.53 18.373
16.076 14.824 18.567
15.697 15.204 18.794
15.36 15.525 18.974
15.025 15.847 19.13
14.716 16.162 19.258
14.416 16.446 19.379
14.07 16.797 19.484
13.751 17.117 19.574
13.42 17.437 19.656
13.095 17.76 19.717
12.672 18.176 19.779
12.259 18.591 19.816
11.836 19.01 19.838
11.511 19.331 19.846
11.197 19.64 19.846
10.803 20.038 19.833
10.381 20.461 19.811
9.966 20.87 19.782
9.556 21.274 19.739
9.155 21.673 19.678
8.74 22.085 19.597
8.381 22.445 19.5
8.04 22.793 19.387
7.71 23.124 19.267
7.385 23.454 19.133
7.052 23.785 18.989
6.724 24.11 18.839
6.395 24.432 18.667
6.073 24.754 18.48
5.764 25.065 18.273
5.46 25.378 18.051
5.156 25.681 17.817
4.866 25.975 17.581
4.637 26.19 17.427
4.392 26.176 17.612
4.101 26.592 17.884
3.732 27.044 17.965
3.383 27.405 17.873
3.048 27.766 17.66
2.45 28.381 17.232
2.137 28.689 17.017
1.831 28.996 16.784
1.536 29.293 16.538
1.249 29.582 16.276
0.968 29.868 15.997
0.706 30.147 15.702
0.435 30.422 15.385
0.178 30.689 15.043
-0.055 30.935 14.689
-0.284 31.172 14.317
-0.496 31.398 13.925
-0.692 31.602 13.523
-0.87 31.794 13.088
-1.029 31.964 12.645
-1.186 32.12 12.146
-1.33 32.257 11.596
-1.429 32.356 11.086
-1.493 32.429 10.561
-1.548 32.487 10.024
-1.57 32.518 9.49
-1.576 32.54 8.96
-1.576 32.551 8.436
-1.583 32.563 7.91
-1.563 32.576 7.731
-1.465 32.582 7.65
-1.218 32.587 7.644
-1.156 32.57 8.147
-1.15 32.545 9.353
-1.137 32.524 9.764
-1.117 32.492 10.191
-1.079 32.449 10.599
-1.025 32.387 11.011
-0.941 32.284 11.533
-0.839 32.163 12.054
-0.682 32.001 12.578
-0.51 31.81 13.075
-0.311 31.6 13.553
-0.084 31.358 14.009
0.164 31.103 14.432
0.422 30.824 14.843
0.695 30.539 15.229
0.983 30.235 15.587
1.283 29.921 15.925
1.569 29.62 16.215
1.899 29.28 16.519
2.251 28.926 16.797
2.599 28.572 17.056
3.291 27.877 17.529
3.618 27.538 17.731
3.927 27.195 17.826
4.243 26.794 17.788
4.498 26.432 17.616
4.662 26.182 17.422
4.911 26.234 17.313
5.19 25.998 17.513
5.533 25.649 17.794
5.882 25.299 18.056
6.236 24.945 18.301
6.6 24.577 18.522
6.966 24.201 18.718
7.349 23.823 18.894
7.723 23.451 19.049
8.1 23.073 19.194
8.484 22.693 19.322
8.873 22.287 19.438
9.267 21.907 19.52
9.585 21.568 19.582
9.93 21.235 19.617
10.578 20.59 19.67
11.223 19.954 19.689
11.551 19.629 19.693
11.93 19.24 19.693
12.256 18.909 19.681
12.587 18.579 19.653
12.927 18.246 19.613
13.253 17.923 19.562
13.589 17.594 19.494
13.927 17.264 19.41
14.34 16.849 19.287
14.707 16.475 19.162
15.055 16.141 19.015
15.443 15.754 18.832
15.762 15.435 18.671
16.082 15.122 18.483
16.384 14.823 18.289
16.675 14.521 18.096
16.84 14.336 17.988
16.929 13.755 18.07
17.036 13.454 18.151
17.477 13.198 18.295
17.898 12.939 18.314
18.358 12.62 18.224
18.752 12.316 18.059
19.072 12.015 17.888
19.397 11.712 17.7
19.707 11.41 17.495
20.016 11.122 17.275
20.301 10.841 17.051
20.669 10.483 16.742
20.953 10.21 16.484
21.239 9.939 16.213
21.495 9.683 15.944
21.783 9.404 15.627
22.062 9.147 15.314
22.309 8.905 15.008
22.553 8.675 14.684
22.789 8.447 14.344
23.016 8.238 13.988
23.228 8.035 13.622
23.423 7.849 13.237
23.605 7.674 12.829
23.764 7.52 12.409
23.903 7.39 11.947
24.002 7.299 11.494
24.074 7.241 11.02
24.115 7.21 10.547
24.143 7.199 10.087
24.161 7.191 9.64
24.173 7.184 9.181
24.181 7.184 8.583
24.181 7.18 7.625
24.164 7.402 7.561
24.136 7.642 7.551
24.123 7.653 7.985
24.137 7.645 8.398
24.137 7.64 8.825
24.132 7.64 9.245
24.116 7.64 9.654
24.1 7.651 10.062
24.076 7.672 10.488
24.041 7.7 10.92
23.989 7.744 11.344
23.904 7.806 11.781
23.79 7.898 12.226
23.648 8.019 12.629
23.484 8.168 13.016
23.31 8.339 13.383
23.132 8.517 13.716
22.936 8.706 14.046
22.722 8.904 14.37
22.509 9.109 14.676
22.29 9.321 14.971
22.058 9.531 15.26
21.834 9.751 15.522
21.537 10.023 15.846
21.25 10.302 16.146
20.933 10.598 16.456
20.622 10.893 16.735
20.297 11.209 17.007
19.957 11.524 17.267
19.62 11.847 17.506
19.265 12.183 17.727
18.92 12.515 17.912
18.532 12.852 18.102
18.143 13.138 18.224
17.744 13.413 18.269
17.299 13.679 18.211
16.898 13.914 18.053
16.823 14.415 17.979
16.769 14.747 17.946
16.455 15.086 18.141
16.115 15.423 18.359
15.763 15.766 18.561
15.437 16.063 18.737
15.068 16.448 18.898
14.739 16.798 19.028
14.334 17.163 19.171
13.999 17.517 19.265
13.648 17.846 19.356
13.255 18.246 19.431
12.923 18.565 19.476
12.5 18.975 19.523
12.098 19.379 19.543
11.681 19.79 19.552
11.275 20.196 19.548
10.86 20.6 19.535
10.467 21.004 19.509
10.056 21.414 19.469
9.641 21.817 19.422
9.246 22.214 19.35
8.926 22.53 19.279
8.566 22.896 19.163
8.172 23.294 19.025
7.785 23.689 18.865
7.397 24.078 18.692
7.013 24.464 18.509
6.628 24.839 18.302
6.253 25.213 18.063
5.892 25.578 17.801
5.544 25.924 17.53
5.199 26.279 17.237
4.893 26.304 17.306
4.642 26.547 17.547
4.354 26.952 17.705
4.041 27.344 17.715
3.67 27.734 17.578
3.372 28.053 17.372
3.026 28.416 17.113
2.665 28.782 16.857
2.311 29.145 16.591
1.952 29.504 16.29
1.612 29.854 15.966
1.294 30.183 15.62
1.025 30.461 15.305
0.748 30.738 14.948
0.505 30.995 14.589
0.261 31.245 14.196
0.035 31.477 13.783
-0.165 31.689 13.354
-0.352 31.882 12.904
-0.503 32.045 12.439
-0.636 32.192 11.962
-0.756 32.313 11.464
-0.841 32.402 10.967
-0.899 32.476 10.462
-0.946 32.528 9.942
-0.961 32.554 9.42
-0.961 32.569 8.91
-0.97 32.588 7.893
-0.97 32.596 7.667
-0.608 32.6 7.64
-0.54 32.587 8.106
-0.535 32.577 8.674
-0.535 32.569 9.234
-0.522 32.546 9.812
-0.487 32.491 10.406
-0.411 32.413 10.973
-0.352 32.345 11.364
-0.275 32.253 11.749
-0.184 32.152 12.126
-0.071 32.036 12.503
0.112 31.836 13.029
0.327 31.604 13.537
0.569 31.342 14.019
0.837 31.063 14.471
1.126 30.768 14.89
1.396 30.468 15.261
1.658 30.192 15.589
1.938 29.896 15.891
2.233 29.591 16.18
2.539 29.279 16.441
2.846 28.964 16.683
3.167 28.643 16.907
3.869 27.928 17.396
4.153 27.603 17.552
4.482 27.186 17.608
4.763 26.772 17.514
5.041 26.337 17.245
5.409 26.378 17.1
5.615 26.253 17.192
5.891 25.953 17.445
6.197 25.64 17.692
6.508 25.32 17.921
6.831 24.997 18.136
7.169 24.652 18.329
7.506 24.318 18.498
7.844 23.976 18.649
8.174 23.64 18.79
8.518 23.293 18.925
8.856 22.953 19.042
9.07 22.739 19.103
9.416 22.399 19.185
9.712 22.081 19.255
10.053 21.749 19.3
10.374 21.43 19.335
10.694 21.097 19.365
11.026 20.784 19.376
11.449 20.366 19.388
11.871 19.947 19.388
12.202 19.618 19.382
12.516 19.297 19.368
12.844 18.972 19.34
13.167 18.649 19.303
13.484 18.33 19.25
13.807 18.01 19.185
14.126 17.691 19.107
14.48 17.343 18.998
14.867 16.975 18.859
15.25 16.595 18.704
15.658 16.224 18.51
15.956 15.873 18.361
16.674 15.165 17.914
16.777 14.851 17.914
16.86 14.352 17.988
17.041 14.08 18.095
17.465 13.851 18.213
17.941 13.562 18.213
18.343 13.268 18.127
18.715 12.984 17.972
19.096 12.628 17.772
19.481 12.268 17.548
19.845 11.916 17.309
20.202 11.573 17.043
20.544 11.241 16.766
20.886 10.909 16.465
21.22 10.584 16.141
21.542 10.279 15.812
21.81 10.024 15.518
22.131 9.709 15.135
22.372 9.482 14.826
22.605 9.258 14.505
22.827 9.052 14.173
23.106 8.787 13.715
23.305 8.596 13.345
23.538 8.376 12.839
23.706 8.216 12.415
23.834 8.091 11.994
23.942 7.993 11.538
24.014 7.931 11.079
24.067 7.892 10.488
24.095 7.877 9.893
24.121 7.87 8.742
24.121 7.87 7.635
24.102 8.03 7.559
24.073 8.33 7.551
24.066 8.33 8.049
24.078 8.326 8.542
24.071 8.321 9.138
24.054 8.321 9.695
24.031 8.339 10.268
23.989 8.376 10.817
23.944 8.408 11.213
23.865 8.459 11.669
23.727 8.588 12.206
23.594 8.708 12.591
23.378 8.912 13.096
23.212 9.07 13.427
22.947 9.318 13.898
22.659 9.591 14.341
22.367 9.87 14.754
22.06 10.164 15.152
21.741 10.467 15.528
21.468 10.72 15.833
21.143 11.024 16.163
20.837 11.322 16.452
20.512 11.625 16.738
20.186 11.941 16.999
19.851 12.263 17.247
19.498 12.594 17.481
19.148 12.925 17.683
18.793 13.268 17.865
18.373 13.612 18.053
17.99 13.888 18.153
17.582 14.164 18.171
17.147 14.419 18.093
16.854 14.584 17.973
16.77 14.863 17.918
16.668 15.396 17.852
16.531 15.628 17.903
16.203 15.961 18.099
15.848 16.308 18.298
15.503 16.656 18.469
15.159 16.993 18.625
14.794 17.351 18.766
14.429 17.715 18.883
14.055 18.083 18.989
13.739 18.405 19.058
13.399 18.732 19.123
12.997 19.124 19.182
12.59 19.527 19.218
12.188 19.931 19.239
11.768 20.336 19.246
11.374 20.729 19.246
10.969 21.128 19.224
10.562 21.536 19.193
10.161 21.931 19.152
9.758 22.33 19.092
9.366 22.726 19.004
9.033 23.041 18.92
8.643 23.429 18.79
8.323 23.771 18.652
7.948 24.156 18.484
7.556 24.55 18.302
7.18 24.929 18.098
6.801 25.306 17.869
6.425 25.684 17.605
6.075 26.034 17.331
5.727 26.388 17.045
5.426 26.431 17.086
5.149 26.517 17.258
4.892 26.934 17.458
4.608 27.337 17.515
4.226 27.785 17.42
3.91 28.138 17.216
3.565 28.509 16.946
3.208 28.873 16.695
2.846 29.239 16.426
2.491 29.602 16.13
2.143 29.951 15.804
1.819 30.297 15.443
1.514 30.616 15.06
1.224 30.924 14.654
0.959 31.184 14.262
0.715 31.424 13.864
0.507 31.644 13.441
0.309 31.846 13
0.15 32.015 12.551
0.015 32.163 12.086
-0.111 32.291 11.6
-0.2 32.394 11.101
-0.264 32.47 10.61
-0.318 32.531 10.096
-0.347 32.565 9.588
-0.358 32.585 8.581
-0.358 32.593 8.099
-0.358 32.609 7.674
0.02 32.605 7.66
0.094 32.585 8.136
0.103 32.585 8.541
0.108 32.577 8.956
0.103 32.565 9.375
0.11 32.549 9.796
0.135 32.512 10.231
0.175 32.46 10.635
0.238 32.398 11.055
0.301 32.319 11.463
0.39 32.219 11.881
0.495 32.098 12.286
0.619 31.965 12.683
0.762 31.806 13.063
0.92 31.643 13.428
1.09 31.458 13.779
1.339 31.174 14.241
1.626 30.884 14.679
1.875 30.619 15.024
2.128 30.346 15.348
2.41 30.058 15.658
2.692 29.763 15.944
2.984 29.459 16.204
3.277 29.153 16.439
3.579 28.847 16.66
3.958 28.475 16.917
4.241 28.186 17.12
4.52 27.849 17.312
4.817 27.465 17.407
5.093 27.072 17.378
5.333 26.703 17.237
5.464 26.483 17.102
5.702 26.47 16.989
5.97 26.47 16.907
6.203 26.273 17.07
6.558 25.904 17.367
6.856 25.602 17.589
7.169 25.285 17.805
7.488 24.959 17.998
7.814 24.63 18.17
8.469 23.977 18.466
8.866 23.568 18.629
9.175 23.265 18.73
9.489 22.946 18.829
9.822 22.607 18.904
10.148 22.288 18.963
10.48 21.945 19.01
10.811 21.62 19.042
11.13 21.297 19.064
11.466 20.967 19.075
11.817 20.627 19.081
12.221 20.221 19.081
12.623 19.818 19.06
13.038 19.417 19.02
13.439 19.01 18.968
13.85 18.606 18.891
14.182 18.249 18.832
14.467 17.979 18.745
14.84 17.615 18.622
15.184 17.268 18.495
15.55 16.904 18.336
15.914 16.539 18.159
16.257 16.201 17.969
16.574 15.881 17.785
16.691 15.374 17.85
16.786 14.931 17.916
17.056 14.706 18.04
17.554 14.444 18.135
17.982 14.163 18.108
18.37 13.883 18.005
18.787 13.543 17.82
19.147 13.197 17.631
19.504 12.861 17.426
19.85 12.534 17.199
20.185 12.211 16.951
20.508 11.897 16.698
20.827 11.59 16.419
21.145 11.286 16.122
21.442 10.996 15.819
21.726 10.72 15.511
22.049 10.411 15.128
22.289 10.18 14.818
22.592 9.895 14.397
22.811 9.682 14.066
23.027 9.483 13.706
23.282 9.241 13.228
23.514 9.022 12.723
23.672 8.871 12.295
23.793 8.753 11.881
23.896 8.659 11.417
23.971 8.593 10.829
24.016 8.558 10.237
24.038 8.546 9.649
24.051 8.546 9.07
24.055 8.542 8.484
24.055 8.55 7.61
24.023 8.846 7.553
24.005 9.006 7.547
24 9.006 8.04
24.011 8.993 8.542
24.011 8.984 9.078
23.987 8.984 9.623
23.96 9.008 10.153
23.922 9.048 10.688
23.865 9.1 11.248
23.754 9.191 11.815
23.594 9.337 12.353
23.402 9.513 12.841
23.175 9.717 13.321
22.934 9.947 13.767
22.681 10.194 14.173
22.407 10.447 14.574
22.121 10.719 14.959
21.825 11.001 15.317
21.524 11.29 15.663
21.253 11.541 15.946
20.91 11.868 16.279
20.55 12.21 16.595
20.201 12.552 16.874
19.814 12.915 17.153
19.427 13.285 17.403
19.044 13.651 17.615
18.655 14.033 17.805
18.282 14.327 17.965
17.862 14.618 18.063
17.414 14.908 18.072
16.968 15.166 17.972
16.717 15.303 17.864
16.576 15.878 17.786
16.474 16.24 17.744
16.192 16.583 17.888
15.882 16.903 18.044
15.499 17.287 18.224
15.109 17.667 18.385
14.711 18.06 18.525
14.298 18.469 18.642
13.959 18.807 18.721
13.569 19.188 18.798
13.179 19.576 18.852
12.758 19.996 18.892
12.344 20.397 18.918
11.936 20.794 18.93
11.539 21.182 18.922
11.122 21.602 18.898
10.712 22.001 18.871
10.33 22.393 18.817
9.924 22.797 18.747
9.507 23.203 18.652
9.095 23.604 18.527
8.698 23.989 18.379
8.347 24.372 18.206
7.961 24.766 18.014
7.65 25.076 17.853
7.348 25.38 17.669
7.051 25.682 17.467
6.76 25.969 17.258
6.472 26.255 17.042
6.177 26.535 16.832
5.72 26.509 16.996
5.46 26.881 17.22
5.178 27.301 17.323
4.883 27.688 17.296
4.516 28.124 17.116
4.23 28.449 16.886
3.872 28.825 16.621
3.496 29.204 16.352
3.209 29.493 16.129
2.929 29.783 15.879
2.656 30.066 15.614
2.396 30.338 15.325
2.149 30.601 15.012
1.908 30.846 14.697
1.682 31.082 14.358
1.458 31.312 14.004
1.257 31.524 13.632
1.021 31.758 13.155
0.837 31.949 12.705
0.678 32.113 12.228
0.544 32.254 11.737
0.443 32.363 11.244
0.366 32.45 10.73
0.312 32.511 10.223
0.275 32.559 9.695
0.259 32.577 9.18
0.259 32.592 8.168
0.259 32.606 7.707
0.367 32.606 7.643
0.65 32.591 7.643
0.707 32.578 8.08
0.713 32.572 8.611
0.708 32.566 9.132
0.712 32.546 9.661
0.745 32.5 10.225
0.805 32.433 10.76
0.89 32.337 11.3
1 32.213 11.834
1.142 32.056 12.363
1.298 31.876 12.853
1.465 31.693 13.268
1.653 31.488 13.668
1.866 31.265 14.044
2.088 31.033 14.392
2.32 30.791 14.729
2.563 30.537 15.049
2.817 30.273 15.353
3.082 29.989 15.638
3.356 29.7 15.901
3.647 29.406 16.14
3.93 29.109 16.363
4.3 28.737 16.621
4.672 28.374 16.878
4.994 27.99 17.107
5.343 27.521 17.221
5.626 27.095 17.178
5.872 26.713 17.017
6.022 26.512 16.882
6.52 26.519 16.757
6.822 26.24 16.978
7.189 25.873 17.252
7.485 25.58 17.455
7.791 25.274 17.648
8.094 24.96 17.822
8.409 24.648 17.977
8.807 24.239 18.161
9.211 23.841 18.322
9.536 23.512 18.434
9.849 23.195 18.527
10.181 22.867 18.601
10.513 22.533 18.658
10.841 22.209 18.696
11.165 21.882 18.728
11.499 21.55 18.748
12.148 20.899 18.763
12.489 20.562 18.752
12.818 20.234 18.73
13.243 19.817 18.69
13.581 19.489 18.641
13.907 19.162 18.587
14.313 18.753 18.502
14.728 18.343 18.386
15.139 17.938 18.246
15.475 17.6 18.116
15.782 17.285 17.979
16.183 16.886 17.78
16.388 16.649 17.687
16.521 16.183 17.744
16.641 15.691 17.813
16.829 15.49 17.9
17.246 15.264 18.016
17.741 14.963 18.032
18.158 14.66 17.955
18.563 14.367 17.792
18.972 13.99 17.591
19.283 13.69 17.427
19.681 13.315 17.187
19.984 13.022 16.98
20.359 12.659 16.697
20.725 12.306 16.396
21.074 11.962 16.077
21.35 11.697 15.803
21.658 11.399 15.471
21.922 11.146 15.168
22.166 10.904 14.859
22.406 10.68 14.533
22.628 10.468 14.205
22.848 10.256 13.854
23.061 10.058 13.489
23.255 9.875 13.105
23.427 9.713 12.713
23.589 9.562 12.281
23.72 9.443 11.838
23.816 9.349 11.375
23.879 9.294 10.92
23.92 9.263 10.462
23.955 9.234 9.882
23.974 9.22 9.419
23.993 9.206 8.228
23.993 9.206 7.616
23.953 9.507 7.549
23.939 9.659 7.545
23.933 9.673 8.061
23.944 9.653 8.606
23.933 9.644 9.076
23.911 9.655 9.576
23.885 9.681 10.068
23.848 9.728 10.551
23.799 9.78 11.04
23.716 9.841 11.574
23.586 9.951 12.078
23.435 10.094 12.532
23.244 10.261 12.987
23.036 10.46 13.408
22.807 10.671 13.818
22.572 10.897 14.192
22.319 11.141 14.561
22.056 11.389 14.913
21.79 11.641 15.24
21.522 11.899 15.544
21.229 12.168 15.846
20.879 12.503 16.182
20.529 12.84 16.485
20.165 13.188 16.767
19.794 13.548 17.032
