53.66395 104.9084 16.0852
53.50931 104.9408 17.1411
53.37708 104.6857 18.5911
53.70383 104.2829 15.35761
53.56317 104.316 16.4252
53.01113 104.397 19.1489
52.53416 104.4052 19.6373
51.96612 104.4103 20.0766
53.42992 104.0484 17.50011
53.34025 104.0703 18.2081
53.59346 103.6902 15.69309
52.75214 103.7989 19.3976
53.45985 103.4227 16.7715
53.24778 103.4782 18.55051
53.59375 103.076 15.3252
53.50883 103.0984 16.0433
52.92967 103.1912 19.1356
53.30507 102.841 17.461
53.56011 102.4605 14.93671
53.41341 102.5062 16.3867
53.00551 102.5799 18.8165
52.575 102.5898 19.33121
51.95047 102.5928 19.7397
53.19841 102.2609 18.176
53.42471 101.8797 15.6428
52.72825 101.9812 19.05521
53.29593 101.6124 16.7253
53.18914 101.6339 17.42689
53.44022 101.2532 14.8981
53.32079 101.2872 15.9821
52.82823 101.3707 18.7492
52.39792 101.3806 19.26501
53.0371 101.0522 18.1169
51.70831 101.0806 19.6463
53.3276 100.6349 14.4619
53.36311 100.6617 15.2541
53.23114 100.6952 16.32949
53.14558 100.7175 17.04491
22.88629 100.0163 20.2793
22.0159 100.0018 20.2797
53.25011 100.069 15.58901
52.71198 100.1636 18.7162
23.17242 99.6977 19.60331
10.46897 99.44179 18.3116
10.36213 99.46679 19.1189
53.09166 99.8007 16.6559
53.00173 99.8228 17.3681
52.95197 99.84618 18.10069
22.43814 99.40039 20.0849
53.26892 99.44259 14.8455
53.16483 99.4771 15.9396
52.36157 99.56228 18.9148
10.49523 98.827 17.9121
9.816729 98.86231 19.3188
51.31218 99.26238 19.4759
53.20695 98.82598 14.4385
53.16628 98.85018 15.18711
53.0338 98.88359 16.26351
52.96181 98.90648 16.98771
52.89468 98.9294 17.7121
52.69216 98.94741 18.358
52.02263 98.96149 19.12049
43.56522 98.81961 19.12011
43.95886 98.84601 19.7162
10.62889 98.2156 17.5611
10.62732 98.24397 18.41789
10.31871 98.2626 19.13389
43.28543 98.53499 19.75549
53.14934 98.2353 14.8071
53.05766 98.25759 15.5249
52.45402 98.3501 18.61971
42.73553 98.21539 19.4739
10.816 97.60591 17.2345
10.88518 97.6366 18.1242
52.89509 97.98919 16.5909
52.81718 98.01181 17.3109
52.69933 98.03279 18.00599
21.73902 97.55968 19.3938
10.60957 97.35551 18.86349
53.09959 97.6192 14.407
53.02787 97.64221 15.13799
52.94187 97.66471 15.85839
52.10567 97.7489 18.82001
41.88433 97.59768 19.43139
10.984 97.02411 17.7581
21.47159 96.93592 18.8705
21.66493 96.96952 19.78819
11.0257 96.69628 16.92709
10.06794 96.75109 19.0643
53.02006 97.02771 14.7632
52.91555 97.0495 15.47419
52.82294 97.07158 16.1897
52.73054 97.09381 16.90339
52.65057 97.11631 17.62171
52.43625 97.1339 18.26199
51.71815 97.1463 18.99941
11.03756 96.45279 18.6557
11.32283 96.10432 17.08149
11.30908 96.1323 17.93269
52.90455 96.43491 15.09779
52.77842 96.45589 15.7956
52.15042 96.5349 18.49749
52.44361 96.21929 17.90961
11.62129 95.52669 17.66499
52.87204 95.80647 14.3207
52.75815 95.84092 15.4145
52.68613 95.8638 16.14271
52.58174 95.88552 16.85009
11.76984 95.2023 16.88471
11.87719 94.9476 18.2272
11.27678 94.95678 18.8075
10.54501 94.9477 18.90331
52.73071 95.22559 15.0282
51.36753 95.32949 18.8525
12.07113 94.61059 17.04159
52.72274 94.886 13.86819
52.45878 94.99162 17.18671
52.26704 95.01009 17.8419
12.2044 94.34249 17.9675
52.63729 94.6336 15.3761
52.53073 94.6553 16.0851
51.79389 94.71788 18.3458
12.39804 94.01958 17.2104
52.67338 94.30849 14.6314
12.53332 93.75148 18.1359
52.39161 94.0743 16.7894
12.84961 93.43272 17.43699
12.85532 93.1605 18.3012
52.61191 93.39111 14.2311
52.49966 93.42559 15.32781
52.39781 93.4476 16.0403
52.1995 93.49141 17.4617
51.6313 93.50919 18.2867
13.27699 92.84499 17.6524
11.64435 92.84931 18.60809
37.40919 92.99969 19.1908
52.2391 92.86591 16.7341
51.74083 92.89899 17.98281
52.57702 92.47477 13.84539
52.51232 92.49821 14.58479
52.34782 92.53078 15.64979
52.05807 92.28338 17.41349
52.33587 91.90319 14.8853
51.35461 91.99571 18.1716
52.43182 91.5802 14.1728
52.22973 91.6371 15.99119
52.1514 91.65978 16.71589
52.26236 91.01119 15.2536
52.40161 90.66398 13.78931
52.31682 90.6867 14.5179
52.11906 90.74371 16.3367
51.96248 90.76362 17.0159
51.34289 90.47901 17.8228
52.21997 90.09459 14.8652
52.07732 90.11521 15.5569
51.73944 90.1669 17.28869
51.96867 89.8489 16.6593
52.27849 89.45652 13.74819
52.19124 89.47908 14.476
52.14027 89.50309 15.22239
52.05349 89.5256 15.9454
51.46697 89.56852 17.5338
52.28499 88.8423 13.37739
52.15322 88.88932 14.85809
52.04712 88.91111 15.57131
51.92387 88.9323 16.27251
51.81546 88.95388 16.98011
51.09657 88.96647 17.7243
52.21438 88.5649 14.12421
52.06293 88.2973 15.20919
51.97663 88.31989 15.933
50.65332 88.36209 17.87461
51.82118 88.0392 16.6229
52.19979 87.6492 13.7493
52.09761 87.67138 14.4688
51.9678 87.70519 15.5573
52.21635 87.32321 12.9846
51.19321 87.45363 17.4352
52.03829 87.08068 14.8387
51.84858 87.12509 16.2771
51.58223 87.14122 16.89529
52.06911 86.75518 14.0863
50.75693 86.84929 17.58921
52.1617 86.43188 13.3675
51.89909 86.49977 15.54939
51.99207 86.17669 14.83561
51.78129 86.2205 16.2625
51.02664 86.24469 17.37309
52.08248 85.85348 14.11791
51.46717 85.93421 16.86181
52.18072 85.2166 13.0186
52.08372 85.2391 13.7441
52.01727 85.2625 14.4852
51.86011 85.29548 15.55859
51.75443 85.31728 16.27099
52.11082 84.62559 13.3848
52.07062 84.65009 14.1426
51.93311 84.67089 14.8409
51.96587 84.05771 14.4868
51.04279 84.12742 17.05349
52.12611 83.71099 13.0255
51.9008 83.7804 15.2343
51.76678 83.80129 15.9316
52.02045 83.43231 13.7542
50.64527 83.52452 17.2297
51.94936 83.16778 14.88999
39.47155 83.04089 17.3719
26.21648 82.821 17.44329
25.51442 82.81141 17.50819
52.05728 82.7932 12.61541
51.93495 82.8407 14.1104
51.81992 82.88821 15.59911
51.59338 82.9057 16.24229
51.20147 82.9173 16.7903
38.66312 82.72549 17.3491
37.95726 82.71461 17.3749
39.62114 82.41823 16.6725
25.40419 82.1925 17.0572
52.03594 82.22988 13.79491
51.70227 82.29529 15.9343
51.3791 82.30931 16.52181
38.69074 82.0986 16.58239
24.50511 81.84811 16.20359
52.12437 81.89341 12.67909
51.87271 81.96209 14.87719
38.08317 81.7902 16.667
24.2281 81.56579 16.9063
8.45553 81.20459 13.99029
11.36495 81.32761 16.22839
52.04973 81.61601 13.42751
51.98739 81.63958 14.17289
51.0863 81.71021 16.75669
51.83434 81.3721 15.25929
51.67764 81.39222 15.944
23.87999 80.93899 16.33471
11.57234 80.7186 15.9106
51.98416 81.02509 13.79601
51.90473 81.04809 14.53031
50.72968 81.1088 16.95591
10.99632 80.42788 16.51379
52.09963 80.7026 13.08859
51.7513 80.7805 15.6151
51.47224 80.7962 16.22861
51.86284 80.45801 14.91099
50.95655 80.50268 16.71479
51.98842 80.10998 13.43069
11.64374 79.51801 15.9782
52.08184 79.78671 12.70869
51.9053 79.83222 14.1721
51.72641 79.87741 15.62461
11.06047 79.22711 16.578
51.84058 79.555 14.92179
24.01179 79.13902 16.4505
11.95892 78.9124 15.71139
52.03748 79.20959 13.4834
51.57326 79.28329 15.9396
11.58421 78.6282 16.40781
51.94792 78.93147 14.2209
51.14502 78.9929 16.47591
37.17958 78.75179 16.2689
24.16938 78.52899 16.12859
12.23108 78.31978 15.85699
52.11225 78.58481 12.7585
51.6603 78.67198 15.6182
51.95952 78.31752 13.85261
24.28495 77.9452 16.6196
51.86944 78.0394 14.5889
51.74265 78.06071 15.2935
51.50955 78.07799 15.9348
52.00334 77.69158 13.1102
51.00248 77.7848 16.4263
52.06307 77.367 12.36659
51.93553 77.41439 13.8622
51.61663 77.46749 15.6247
51.81504 77.14819 14.97051
51.89825 76.8246 14.2471
51.41845 76.8718 15.91409
52.00895 76.4628 12.35769
51.97685 76.50071 13.51849
51.70063 76.55551 15.3089
51.18103 76.27469 16.18111
51.96951 75.88588 13.13741
51.77345 75.9437 14.97811
51.57478 75.96231 15.6403
52.03061 75.56131 12.3942
51.86341 75.30662 13.875
51.66058 75.35111 15.3174
51.82313 75.03041 14.6411
51.09517 75.0687 16.16381
52.0163 74.6586 12.40919
51.51614 74.7573 15.6383
39.46825 74.29322 16.81171
51.94027 74.0804 13.1673
51.85793 74.1035 13.9034
51.62653 74.14692 15.3294
51.05362 74.16501 16.16381
51.74577 73.82458 14.6275
39.42692 73.677 16.40629
27.12594 73.4741 16.5068
50.70248 73.56381 16.36651
25.22853 73.13751 16.39169
51.94085 73.1652 12.79769
51.90692 73.19 13.56391
51.43206 73.25061 15.62939
38.21014 73.04692 16.1706
51.77318 72.91039 14.2765
24.1129 72.51259 16.2682
51.59965 72.6422 15.3535
51.18976 72.65329 15.8939
51.95357 72.26338 12.829
51.81992 72.2976 13.9283
50.59755 72.05632 16.34649
23.74859 71.59828 16.11189
51.90605 71.67318 13.21001
51.69965 71.71769 14.656
37.37909 71.5278 16.1696
51.98369 71.34932 12.47611
51.79597 71.39459 13.9379
51.53747 71.43711 15.3492
51.13106 71.4482 15.8919
37.3082 70.91063 15.7449
51.85509 70.76918 13.20341
51.75787 70.80468 14.32299
51.31946 70.84062 15.6279
50.85318 70.84971 16.13651
51.6249 70.52498 15.0343
37.16541 70.3175 16.08839
51.92244 70.14402 12.4709
51.78201 70.19111 13.9614
51.29941 69.9377 15.6401
50.80629 69.9458 16.1335
51.90944 69.55522 12.87351
51.81725 69.5779 13.6056
51.68493 69.59908 14.3118
37.1572 69.40161 15.705
51.45897 69.32902 15.3592
51.05259 69.34031 15.9025
50.41291 69.34311 16.3128
51.81718 68.96328 13.2282
51.71632 68.98569 13.95419
37.41407 68.80911 15.8589
51.64141 68.70832 14.7012
50.76539 68.7414 16.14211
51.83536 68.34938 12.86069
51.77293 68.37329 13.61089
51.71231 68.09639 14.3674
51.5961 68.11809 15.081
51.19535 68.12938 15.62771
50.43007 67.84 16.36259
51.68137 67.4808 13.9731
51.62548 67.5047 14.72349
51.41155 67.52288 15.3795
51.77605 66.83052 12.46969
51.64718 66.89098 14.36079
51.53104 66.91282 15.0748
51.1829 66.92608 15.6524
50.69293 66.93428 16.14829
51.74557 66.55481 13.2485
51.58603 66.3003 14.7321
51.34206 66.31739 15.3709
51.66771 65.97658 14.0046
50.34507 66.03258 16.36189
51.681 65.62399 12.44419
51.69151 65.36292 13.64161
51.56694 65.3974 14.74471
50.61918 65.12719 16.15379
51.75532 64.73761 12.9075
51.45796 64.80499 15.08779
51.11048 64.81829 15.6662
27.08691 64.43729 16.3235
26.3566 64.4265 16.3695
51.60729 64.47061 14.0085
24.72612 64.09892 16.39169
51.51039 64.19241 14.7434
51.29407 64.2105 15.3986
51.68662 63.84601 13.2845
51.5508 63.5794 14.39121
51.42064 63.60071 15.09779
51.6022 62.9537 13.6519
51.69376 62.6302 12.92571
51.07899 62.71201 15.70379
51.56692 62.364 14.03999
51.49044 62.38731 14.7792
50.58921 62.4195 16.2086
51.68074 62.04128 13.3282
51.26793 61.80372 15.4471
50.82771 61.81367 15.9721
51.72521 61.42839 12.9761
51.54089 61.46079 14.04829
51.4314 61.4829 14.7684
51.07739 61.20818 15.74249
51.59857 60.83538 13.3109
51.23947 60.59971 15.46229
50.8238 60.61058 16.0018
51.53381 60.24449 13.6824
51.42637 59.96599 14.4131
51.01841 60.00321 15.7403
50.55059 60.0123 16.2502
37.25942 59.78181 16.0218
51.63581 59.6207 12.96989
51.31811 59.68728 15.14109
51.50506 59.3413 13.68899
50.8576 59.4089 16.0531
51.03272 58.80081 15.7805
51.43514 58.41031 12.88171
51.45076 58.45018 14.0741
51.3468 58.47242 14.7982
50.56676 58.2084 16.3075
51.46407 57.83608 13.70429
51.35639 57.85831 14.4274
51.28627 57.88171 15.1702
51.01885 57.89801 15.7963
50.24995 57.60848 16.5314
51.49819 57.22281 13.34591
51.31537 57.26831 14.8115
51.22344 57.29099 15.5404
50.81563 57.0014 16.0928
51.36675 56.6427 14.07201
51.25627 56.67769 15.1844
51.33805 56.30162 12.8789
50.25625 56.40581 16.567
51.32394 56.05271 14.45579
51.16605 56.08591 15.5389
50.79808 56.0986 16.1067
49.91988 55.8052 16.78059
51.32838 55.4383 14.081
51.24224 55.47421 15.2081
50.55966 55.50148 16.37519
51.41725 55.11468 13.35291
50.97713 55.1899 15.84391
50.27568 54.90281 16.6181
51.30323 54.53508 14.08991
51.2451 54.5591 14.84179
51.13941 54.58131 15.5632
50.56669 54.29881 16.4113
51.3415 53.90891 13.33939
51.26339 53.94533 14.4757
49.96289 54.00228 16.85319
51.15347 53.66658 15.2039
50.79927 53.69269 16.17109
51.09047 53.07581 15.57449
51.2752 52.71661 13.7265
51.20134 52.74012 14.4709
50.80974 52.7909 16.20109
50.30553 52.79871 16.69119
51.09281 52.4615 15.2003
50.92643 52.1807 15.8942
50.6077 52.19509 16.4906
51.35164 51.80412 13.40061
51.25316 51.82668 14.1315
51.12152 51.54731 14.84869
51.04785 51.57059 15.5895
50.31798 51.59619 16.7303
51.24626 51.21192 13.749
50.79578 51.28672 16.23289
51.13259 50.9332 14.4779
51.02853 50.6547 15.21049
50.34203 50.69479 16.768
50.95226 50.37709 15.9568
51.19857 50.00719 13.7522
50.59336 50.08938 16.5383
51.06647 49.72782 14.4708
51.01714 49.75211 15.2276
50.7885 49.48198 16.2765
51.14216 49.08981 13.34699
50.0922 49.1951 17.0551
50.59314 48.76911 13.0285
50.96717 48.86111 15.61419
49.63426 48.35331 10.0557
49.76414 48.3849 10.9409
49.83837 48.42748 12.1885
51.00753 48.5357 14.86121
50.79249 48.57989 16.3027
49.29026 47.9179 6.174186
49.47566 47.95208 7.113794
49.61206 47.98441 8.017818
49.67032 48.01362 8.869091
49.85658 47.80012 11.41409
50.02423 47.84601 12.7139
51.09417 47.8982 13.74569
51.03849 47.92231 14.50191
50.87232 47.96841 15.97431
49.80276 47.99481 17.31179
49.40086 47.33419 6.671408
49.80663 47.47089 10.5874
50.94982 47.64449 15.244
50.5575 47.68219 16.58169
49.63418 47.08301 8.054713
49.73948 47.1408 9.746412
49.85199 47.21179 11.828
49.80252 46.88259 11.00329
50.96646 47.03062 14.87681
50.89669 47.0541 15.621
50.1541 47.09219 17.14639
49.52029 46.4501 7.180193
49.686 46.51051 8.91749
49.73445 46.55262 10.1635
49.89073 46.63821 12.666
50.76122 46.77441 16.3325
49.47416 46.7931 17.54699
49.3395 46.11521 6.251404
49.63347 46.18069 8.077512
50.38965 46.48619 16.9073
49.86038 45.99579 11.4635
49.84559 46.02178 12.2558
50.81964 46.0838 13.63049
50.94697 46.12758 14.8892
49.89356 46.19359 17.41149
49.38342 45.52912 6.706813
49.65175 45.5934 8.512505
49.70175 45.63581 9.762416
49.75566 45.66448 10.6035
50.81892 45.8483 15.6076
49.80146 45.4055 11.8449
50.95198 45.51329 14.51429
50.71365 45.56971 16.33709
50.19886 45.5901 17.21201
49.24737 44.90881 6.224314
49.44396 44.9435 7.171193
49.58645 44.97602 8.079419
49.62025 45.0178 9.322593
49.68778 45.04722 10.17419
50.67808 45.17638 13.5703
49.77996 44.82972 12.64759
50.95177 44.89871 14.1355
50.8649 44.92169 14.87289
50.55868 44.97557 16.6542
49.69685 44.47269 11.00219
50.73516 44.65532 15.9825
49.17666 44.6903 17.82479
49.51215 44.09798 8.872816
49.52399 44.1254 9.692887
50.78867 44.3305 15.23719
50.38076 44.38072 16.95829
49.33356 43.73639 7.133314
49.36987 43.76488 7.976184
49.51934 43.85128 10.5074
49.60613 43.89458 11.7671
49.90499 44.0888 17.47411
49.54579 43.61819 12.5399
50.59796 43.7611 16.31821
49.14469 43.14139 7.442007
49.20321 43.1708 8.297809
49.24903 43.19959 9.141902
49.32053 43.2291 9.997616
50.75696 43.41408 14.8493
50.62622 43.43539 15.55921
49.27891 42.96701 11.1923
49.32427 42.99539 12.02329
50.25771 43.1734 16.91991
48.94966 42.55991 8.156786
49.08047 42.6323 10.27271
50.66719 42.78319 14.023
50.44176 42.84038 15.8604
48.95965 42.3538 11.01601
49.03603 42.38331 11.8672
50.47517 42.5147 15.1021
49.93122 42.57321 17.13949
49.46132 42.5823 17.65221
48.8571 42.02249 10.15311
50.43494 42.17332 13.90179
48.26472 42.27801 18.1564
50.2664 41.89261 14.6016
50.22965 41.91738 15.3685
50.10722 41.93898 16.083
49.97514 41.96029 16.7901
49.06153 41.97948 17.8323
50.20609 41.5635 13.7825
49.46744 41.66739 17.2898
50.02616 41.2825 14.4768
49.91497 41.30458 15.2015
49.82201 41.32738 15.93449
49.70576 41.34931 16.652
49.13494 41.06712 17.5078
48.50048 41.07039 17.9308
49.68303 40.66848 14.29179
49.55693 40.69018 15.00929
49.47728 40.71351 15.75159
48.57833 40.45879 17.6002
49.32732 40.05419 14.0994
49.17098 40.07479 14.80099
10.55907 157.8205 9.030798
9.488479 157.1371 9.263108
8.582199 156.215 9.3743
8.194431 155.6553 9.380915
11.16689 158.1372 9.211103
10.09009 157.54 9.796985
9.145191 156.6779 9.937713
8.356489 155.6644 10.312
11.64039 158.2459 10.04989
10.72431 157.8944 10.3067
9.72378 157.1149 10.4888
8.80187 156.2195 10.6126
8.02285 155.1074 10.6288
6.284479 148.3613 9.60479
6.099671 147.4332 9.443501
6.014918 146.4317 9.556303
11.39615 158.1941 10.7886
10.3183 157.5261 11.02749
9.373493 156.6677 11.1691
8.7133 155.9506 11.23891
8.310949 155.4147 11.25681
5.8893 145.4878 9.698818
19.40807 160.4048 8.988001
18.84336 160.0808 9.119608
11.81147 158.3076 11.3206
10.95079 157.8809 11.5379
9.937821 157.1234 11.73019
5.52323 142.4895 9.750702
5.35047 141.488 9.566704
20.60098 160.5134 8.896688
9.073962 156.229 12.16229
8.671431 155.6961 12.18111
5.237789 140.4797 9.688297
21.34945 160.671 8.984605
19.91345 160.4067 9.458401
18.48362 159.6208 9.800205
11.6327 158.1646 12.0121
10.54402 157.5157 12.25979
5.5193 142.057 10.30451
5.37472 141.0049 10.0973
4.982201 138.3807 9.592392
22.1505 160.7654 9.036996
19.24932 160.2753 10.0051
12.27514 158.4279 12.166
9.61097 156.725 12.7436
8.37875 155.1655 12.8189
23.36001 160.8743 8.939602
18.69326 160.0078 10.47749
11.17705 157.8679 12.76931
9.021381 155.9907 13.11251
4.918381 136.6943 9.856889
4.67485 135.0772 9.546407
24.19699 160.9338 8.969793
22.65814 160.7694 9.507099
20.82644 160.475 10.1221
18.20901 159.6486 10.9
13.36001 158.6933 12.48429
12.6987 158.5288 12.69181
10.213 157.1233 13.2763
5.04712 137.2542 10.2777
4.617549 133.9118 9.608099
25.41498 161.0487 8.870699
21.63246 160.5578 10.1698
20.15903 160.3441 10.67019
11.84192 158.1738 13.2554
11.02796 157.6864 13.44001
9.561791 156.4816 13.6913
8.721001 155.474 13.7567
26.30452 161.0552 8.867987
24.72276 160.9198 9.4286
22.43034 160.6549 10.22399
19.50731 160.198 11.2086
18.79967 160.0646 11.4413
18.16171 159.8435 11.626
14.10516 158.8908 12.91319
12.50458 158.4065 13.3942
4.832439 134.4476 10.3204
27.18561 161.077 8.872399
23.61798 160.7894 10.1412
17.50584 159.7165 12.1708
14.8389 159.0332 13.0029
10.59697 157.3596 14.18049
9.24048 155.9973 14.3515
28.48737 161.1157 8.722791
24.4514 160.852 10.1736
22.92843 160.6704 10.70061
21.08714 160.3913 11.323
19.28259 160.0925 11.9266
18.57365 159.9636 12.161
16.86897 159.5689 12.70329
16.20291 159.3961 12.9106
15.55405 159.2034 13.1064
13.57013 158.6959 13.7256
12.94082 158.4889 13.9106
12.33769 158.2475 14.0772
11.47828 157.8254 14.29511
9.95497 156.7078 14.5896
27.72397 161.054 9.324201
25.69555 160.9327 10.0561
21.87617 160.4944 11.3821
20.45215 160.22 11.84891
8.943808 155.4772 14.9935
8.559629 154.9184 14.99891
29.41668 161.1457 9.040991
26.53858 160.9946 10.0847
24.97485 160.8399 10.6337
22.67958 160.5831 11.43221
19.77803 160.1042 12.4033
19.0673 159.9761 12.6384
18.02015 159.7668 12.9798
17.32988 159.6221 13.2032
16.66056 159.4526 13.4125
16.00559 159.2673 13.6125
14.33684 158.8616 14.13859
12.76942 158.3355 14.5967
12.15982 158.1054 14.76849
11.07353 157.4614 15.01649
9.614292 156.2536 15.26449
30.81509 161.0897 8.8316
27.43973 160.9907 10.0751
23.86862 160.7136 11.3479
15.06593 159.0086 14.2311
10.39079 156.8701 15.4559
8.877479 155.1789 15.604
29.98341 161.094 9.475002
28.74878 161.0187 9.9201
24.69785 160.7799 11.38271
23.16795 160.6101 11.9152
21.31827 160.3456 12.5444
19.52726 160.0333 13.1396
18.82981 159.8909 13.36631
17.11149 159.5182 13.9192
16.44765 159.3441 14.12531
15.80363 159.1465 14.31821
13.85075 158.6007 14.9161
13.2221 158.3941 15.101
11.75907 157.7348 15.4868
9.372772 155.6537 15.8659
8.44725 154.2048 15.8534
31.81322 161.0512 9.106794
27.95487 160.9948 10.5424
25.93409 160.8683 11.2701
22.11657 160.4352 12.59669
20.66064 160.2051 13.08651
14.88211 158.8666 14.9247
12.71857 158.0896 15.54441
11.13054 157.0647 15.8862
10.17768 156.2304 16.0368
33.22539 161.0016 8.893916
29.69385 161.0287 10.22741
26.81352 160.8843 11.2736
25.22523 160.7624 11.84
22.92588 160.5149 12.6423
20.01844 160.0498 13.619
19.30178 159.9311 13.85879
18.26854 159.7059 14.191
17.58605 159.5523 14.40919
16.92313 159.3758 14.6144
16.27241 159.1862 14.8117
9.26052 154.8601 16.3706
8.8739 154.3036 16.3775
34.20575 160.9481 8.842089
32.40281 160.9788 9.527097
31.05362 161.0164 10.0433
27.67562 160.9263 11.28999
24.12783 160.6271 12.5486
15.39086 158.8502 15.3893
14.44198 158.5414 15.66901
12.45193 157.5279 16.1647
10.93205 156.4047 16.45649
10.03404 155.4867 16.5657
8.518789 153.2095 16.5688
30.28318 160.95 10.64619
28.98588 160.9506 11.1337
24.96555 160.6815 12.5773
23.44159 160.5069 13.1064
21.56905 160.2745 13.7522
19.79361 159.9458 14.33749
17.42748 159.3693 15.0831
16.75832 159.2032 15.29331
14.02053 158.1192 16.0523
9.60898 154.5087 16.8122
9.254079 153.9031 16.795
35.32238 160.7938 9.04409
32.1145 160.9034 10.27651
28.25916 160.8477 11.7111
26.1983 160.7722 12.4666
22.40236 160.3185 13.7799
20.91636 160.1293 14.29119
18.83282 159.6896 14.96471
18.17645 159.5001 15.16421
14.79433 158.2004 16.1117
9.09544 153.0834 16.9807
8.275921 151.4376 16.87939
36.84128 160.6572 8.769401
33.53937 160.8378 10.05479
29.95798 160.9273 11.42249
27.03674 160.837 12.4976
25.47553 160.6847 13.04629
23.19729 160.4151 13.8352
20.29566 159.9475 14.8091
19.59415 159.8103 15.0385
16.71087 158.8732 15.88879
8.989692 152.177 17.125
7.905381 149.7462 16.9281
35.96422 160.6722 9.432504
34.52865 160.7733 9.99699
32.7005 160.8348 10.6991
31.34515 160.8809 11.21981
27.93223 160.8369 12.4911
24.36738 160.5652 13.7628
15.55534 157.836 16.395
9.096691 151.5207 17.2515
5.156861 131.8751 13.84779
38.02776 160.4422 8.930007
30.54413 160.8515 11.8433
29.24713 160.8538 12.33121
25.21474 160.6062 13.78461
23.70702 160.4138 14.3032
21.87193 160.1371 14.92391
20.14381 159.7492 15.4767
19.5284 159.501 15.6462
16.03692 157.2456 16.3972
8.453029 149.6666 17.3624
8.1117 149.0108 17.3275
5.073281 130.7324 13.9251
35.61135 160.6568 10.2211
32.38987 160.7857 11.4634
28.49424 160.7835 12.9265
26.45773 160.6822 13.6664
22.69678 160.1906 14.9572
21.27643 159.9191 15.42329
19.06075 159.1268 16.05881
17.99164 158.4244 16.2858
39.69032 160.219 8.909712
33.80099 160.7343 11.2504
30.24351 160.8005 12.6034
27.3348 160.6985 13.6709
25.71962 160.615 14.2569
23.48299 160.2973 15.0182
20.80455 159.5448 15.8374
20.21807 159.2562 15.98599
7.609631 146.3687 17.5192
5.03364 128.8987 14.14391
36.23924 160.5504 10.61861
34.79658 160.6613 11.1881
32.94184 160.756 11.9085
31.56948 160.8241 12.44099
28.19586 160.7391 13.6874
24.7089 160.376 14.9071
22.57043 159.9539 15.60561
4.947589 127.7311 14.2159
37.8029 160.3672 10.3154
30.80837 160.7492 13.0382
29.50282 160.7635 13.53231
25.546 160.4292 14.9358
24.09843 160.1628 15.41341
23.40004 160.0038 15.6362
21.53765 159.2489 16.14819
20.75819 158.6809 16.2999
8.005271 145.9239 17.9198
5.020691 126.9876 14.3335
41.6276 159.7559 9.056518
32.60655 160.7363 12.68941
28.75994 160.6826 14.1212
26.74783 160.5544 14.84531
22.96952 159.5695 16.01989
41.0787 159.3789 9.498904
37.43423 160.3635 11.11279
35.48292 160.533 11.88811
34.05505 160.6395 12.451
27.63227 160.5608 14.8445
26.14023 160.3275 15.347
23.79612 159.6249 16.0531
7.782749 144.0039 18.1858
5.097879 127.088 14.9893
4.988171 125.8244 14.7164
4.860499 124.58 14.455
44.00425 159.3091 8.712301
35.04672 160.5699 12.3911
33.21162 160.6443 13.09899
31.85569 160.6949 13.621
30.15442 160.6598 14.25149
28.53571 160.5494 14.8321
25.2841 159.8957 15.8912
4.890101 123.9007 14.60491
43.41265 158.9668 9.179393
31.06501 160.656 14.23829
27.5209 160.2944 15.4799
26.1606 159.9016 15.89329
7.74048 142.3864 18.45951
5.053231 125.21 15.199
4.85355 122.5879 14.6221
40.97126 159.629 10.5912
32.88227 160.6183 13.8761
29.12541 160.4618 15.2487
28.3985 160.3124 15.48461
7.64748 141.37 18.57159
4.7867 121.3193 14.6618
43.41494 159.0493 9.858796
40.34263 159.8556 11.2136
34.35034 160.4972 13.62441
27.909 159.9341 15.90441
45.56868 158.3082 9.195398
36.31496 160.3357 13.17599
35.34711 160.4209 13.56081
33.4989 160.5122 14.2779
32.20678 160.4897 14.7577
30.57666 160.3708 15.34061
28.79447 159.944 15.90409
4.993669 122.7027 15.5878
4.889071 120.6116 15.10719
4.85019 119.9137 14.9483
4.814591 119.2053 14.7856
43.38034 159.1716 10.5621
4.961069 121.3704 15.59869
4.85165 118.4824 14.9219
4.785811 117.8252 14.7832
37.43549 160.1804 13.37629
32.87241 160.3236 15.12621
31.66414 160.2108 15.5521
7.391229 137.6752 19.069
4.854219 117.0321 14.89031
45.48617 158.5202 10.2688
34.66685 160.3306 14.7837
4.801509 115.6758 14.90279
36.62804 160.1715 14.33721
6.864599 134.794 19.21041
4.936181 117.1389 15.54581
4.83708 114.9357 15.0354
35.33832 160.166 15.1503
34.52213 160.0878 15.43749
4.942601 116.466 15.7061
4.86206 114.2132 15.17631
38.27432 159.932 14.319
4.973869 115.7399 15.8437
4.92428 115.0351 15.6871
4.900101 112.6401 15.1008
4.9133 111.7878 14.884
6.852649 131.1374 19.62551
5.00207 111.8881 15.53539
39.05537 159.7037 14.9585
23.4222 146.9537 18.322
24.98631 146.5903 17.974
26.05435 146.9226 17.98531
25.63055 146.425 18.3507
28.09398 146.0908 18.00191
27.41955 145.8534 18.19631
23.87956 143.1781 18.86109
23.46913 142.5744 18.8653
26.9528 145.4065 18.5904
28.76712 145.8978 18.36079
25.16349 141.504 18.62241
24.4252 141.3593 18.86381
23.80852 141.0431 19.0169
12.3471 124.5656 19.22659
11.72156 123.515 19.20039
28.46815 145.2201 18.6346
12.33494 123.2544 19.23511
11.66045 122.2789 19.24601
25.80088 141.3509 19.0047
25.2294 140.965 19.1235
12.28703 121.9942 19.2698
32.01447 146.3651 18.2467
27.63295 142.423 18.9128
27.87293 140.901 18.44431
26.46893 141.0801 19.01629
11.66233 119.5391 19.224
33.45702 146.8229 18.14849
32.96448 145.7621 18.0698
32.19246 145.6299 18.32699
27.24211 140.6642 18.9523
12.28458 119.2627 19.2514
11.85195 118.5545 19.2379
34.21074 146.4832 18.1107
28.7481 141.0231 18.80569
12.25835 117.9212 19.2577
35.52908 147.1165 18.1028
35.34971 146.2208 17.94749
29.56843 141.151 18.8592
36.10656 146.4493 18.04989
30.61435 141.565 18.89909
29.24302 140.4836 19.1455
35.70889 145.888 18.3897
31.12121 140.9457 18.88459
33.06757 141.9234 18.7263
32.88696 140.991 18.56239
32.22139 140.7069 18.74181
33.59733 141.2859 18.6987
35.40041 141.3113 18.35749
32.95372 140.4493 19.0625
36.11481 142.7674 18.781
36.07306 141.6632 18.5222
33.77214 140.6009 19.12261
36.54914 142.2698 18.82409
36.51097 141.2226 18.908
49.70523 150.068 17.13961
14.92575 105.7875 19.52789
50.04794 148.7014 17.331
15.34072 105.2413 19.8961
17.28862 105.7223 19.61369
50.85047 146.8531 17.55969
16.75692 105.231 20.0213
18.00339 105.4304 19.9324
18.95787 105.3779 19.89079
17.50662 104.8691 20.30949
19.87305 105.4054 19.88361
18.40334 104.9229 20.31591
21.89956 105.7996 19.5502
19.33619 104.9143 20.2932
20.24042 104.9649 20.2959
22.6331 105.4963 19.859
21.87487 105.2827 20.0908
21.16724 104.9794 20.2812
19.57339 103.9008 20.61189
24.69419 105.8657 19.50639
20.69752 104.3572 20.6329
20.24715 103.5728 20.6072
25.69747 105.7728 19.43629
24.11914 105.4281 19.9436
23.39136 105.1514 20.1482
22.641 104.9189 20.3723
21.9206 104.6348 20.5724
26.76127 105.6923 19.67641
24.89314 105.0629 20.22181
24.1555 104.7994 20.43339
23.40498 104.5628 20.6566
22.58682 103.6477 20.7365
27.7213 105.6896 19.645
26.19937 105.223 20.1008
51.39998 137.2237 18.9182
28.67314 105.7071 19.62159
27.13605 105.2571 20.0873
25.64224 104.7457 20.5214
24.90517 104.4774 20.7315
51.87948 136.7036 18.9387
29.61382 105.7497 19.6087
26.59654 104.7457 20.49271
24.95718 103.7015 20.8491
51.48182 135.4753 19.1127
27.90717 104.9131 20.37179
26.06888 104.2131 20.8885
52.20954 135.2413 19.11099
51.68068 134.6987 19.17481
31.58778 105.6958 19.5135
30.80729 105.4739 19.7516
30.02668 105.2563 19.9908
28.86068 104.9291 20.3475
27.38136 104.3738 20.76519
26.74001 103.9263 20.89489
47.99837 127.8188 19.17779
32.59343 105.6474 19.45359
28.32891 104.397 20.7449
47.75231 126.3177 19.22701
33.50658 105.7598 19.46841
31.57169 105.161 20.0465
30.80818 104.9099 20.27091
30.06723 104.6235 20.47811
29.29173 104.4 20.7138
32.553 105.1531 20.00571
29.02317 103.4055 20.8974
47.73227 123.9258 19.2997
35.16536 105.513 19.4437
31.99479 104.6547 20.4215
31.18512 104.4792 20.682
30.48285 104.1241 20.85761
29.95423 103.4703 20.8936
34.47493 105.2242 19.9612
33.72317 104.9394 20.1728
32.94241 104.7063 20.40821
30.87844 103.5518 20.89661
47.89764 121.8973 19.3931
36.65252 105.563 19.5572
35.87187 105.3158 19.789
35.11197 105.0379 20.0054
32.42985 104.1282 20.78689
37.6709 105.5281 19.49581
34.5442 104.5461 20.4264
33.7614 104.3113 20.66209
37.07408 105.0752 19.9373
36.27839 104.8495 20.1802
35.51371 104.5769 20.3997
33.76128 103.6425 20.82581
38.08657 105.0524 19.8812
34.98902 104.0112 20.7861
36.73217 104.3064 20.53449
35.40904 103.4163 20.8103
37.37057 104.1273 20.58
38.3204 104.2079 20.5731
48.62296 116.7612 20.1532
43.7471 105.5114 19.18829
42.50058 105.2069 19.5809
48.98136 115.7341 20.423
45.23878 105.6276 19.31661
43.36488 104.7936 19.81329
42.56487 104.5425 20.0514
44.57252 104.6004 19.97141
43.81415 104.2793 20.17641
50.50665 156.6406 8.785406
49.97681 157.0577 8.892903
48.80143 157.7621 8.985885
48.16163 158.058 8.979002
47.47545 158.3047 8.925209
51.23402 155.8657 8.877316
49.43345 157.3857 9.309689
46.80253 158.4921 9.208808
50.75146 156.2657 9.360502
50.26743 156.7335 9.515712
48.85785 157.6764 9.691814
48.21514 157.9672 9.680699
47.53649 158.2204 9.633491
46.13451 158.6852 9.497682
51.24981 155.7419 9.545187
49.75503 157.0951 9.964298
46.89131 158.4357 9.94421
44.32162 159.1383 9.597102
42.40512 159.5789 9.283403
50.77688 156.1513 10.0377
50.3048 156.6309 10.20441
49.20962 157.4178 10.377
48.61879 157.7634 10.4182
47.93753 158.0109 10.36639
46.21365 158.6166 10.22189
38.91013 160.299 9.028802
49.80406 157.0038 10.6641
47.28969 158.2209 10.6728
44.77961 158.9754 10.37859
44.0289 159.1622 10.265
42.49488 159.5116 10.01191
41.73206 159.6959 9.89289
40.17327 160.0412 9.629199
50.58018 156.2918 10.8126
49.26146 157.328 11.07871
48.65833 157.6581 11.1058
48.00967 157.9396 11.0867
46.63287 158.4216 10.9701
45.89945 158.6181 10.8685
39.39659 160.1397 9.821692
38.56957 160.274 9.649584
37.30914 160.4637 9.377489
50.0898 156.6758 11.2829
47.37048 158.1571 11.40069
45.21119 158.7876 11.13541
44.50535 159.018 11.0647
42.59012 159.45 10.7458
41.83178 159.6367 10.62981
40.24164 159.9466 10.333
51.46991 155.129 11.07269
51.02202 155.6361 11.26511
50.58638 156.1549 11.469
49.56627 157.0202 11.7167
49.00634 157.3962 11.7876
48.38812 157.7086 11.79841
46.69546 158.3362 11.67809
45.97997 158.5499 11.5934
43.7886 159.1606 11.305
39.49689 160.0752 10.55529
38.68496 160.2225 10.3965
36.57233 160.528 9.932289
50.13148 156.5772 11.9756
47.76005 157.9359 12.1224
45.29183 158.7177 11.85929
44.54824 158.9066 11.74941
43.06662 159.2994 11.5412
42.29219 159.4659 11.40691
41.52973 159.6484 11.2868
37.05421 160.4382 10.39721
50.60759 156.0349 12.14121
49.61781 156.9309 12.4187
49.05173 157.2984 12.4821
48.43547 157.611 12.4936
47.09297 158.1211 12.4063
46.41922 158.3767 12.36219
43.8438 159.0603 12.0009
39.59381 160.0074 11.2857
38.3559 160.207 11.02721
50.15017 156.4527 12.64411
47.79098 157.8188 12.7995
45.72583 158.5359 12.62089
45.00112 158.7412 12.5277
43.15152 159.228 12.26539
42.38511 159.4009 12.1379
41.6215 159.5802 12.0154
40.84364 159.7487 11.8812
38.83585 160.1232 11.49541
51.28048 155.1385 12.50819
50.87127 155.6854 12.739
49.66514 156.8368 13.1161
49.08352 157.1853 13.1622
48.51219 157.5457 13.21919
47.16966 158.0518 13.1293
46.47569 158.2837 13.0634
44.31035 158.9063 12.791
40.10787 159.8808 12.10871
38.02555 160.1895 11.6561
36.34924 160.4468 11.29761
50.42143 156.1113 13.2495
47.86107 157.7443 13.51711
45.80241 158.4626 13.3412
45.0665 158.6541 13.2354
43.60403 159.0562 13.0394
42.84981 159.2381 12.9216
42.05637 159.3834 12.76731
41.31156 159.5818 12.6633
39.33795 159.981 12.3044
38.51676 160.1161 12.1348
37.2463 160.2891 11.84861
49.96049 156.5216 13.7463
49.42732 156.9224 13.842
48.84217 157.2655 13.88341
47.22766 157.9623 13.8332
46.54088 158.2002 13.7733
44.36793 158.8092 13.4897
40.55778 159.6929 12.8712
37.71906 160.1948 12.30749
36.43881 160.3641 12.0158
50.66504 155.74 13.8266
48.23946 157.515 14.2299
45.84803 158.3564 14.0302
45.13179 158.567 13.9431
43.67103 158.9673 13.74651
42.91686 159.1475 13.6276
42.16218 159.3306 13.5103
41.39641 159.5056 13.3844
39.80163 159.8033 13.078
39.01282 159.967 12.9373
36.91853 160.2736 12.4796
51.09502 155.149 13.9456
50.21176 156.1585 14.3312
49.70914 156.5924 14.4582
49.14524 156.9574 14.52059
47.61244 157.7379 14.55119
46.60535 158.1158 14.48261
44.42561 158.7124 14.1886
40.65343 159.6257 13.6016
38.21037 160.0372 13.10311
35.68983 160.4131 12.5567
50.6764 155.6089 14.48841
48.57609 157.2423 14.90101
45.9026 158.2597 14.7282
45.202 158.485 14.65581
43.71436 158.8538 14.43
42.98286 159.0557 14.33239
42.21001 159.2185 14.19611
41.46933 159.4174 14.0938
39.88625 159.7233 13.79649
39.08529 159.873 13.64281
47.25608 157.6889 15.1513
44.47729 158.6092 14.8815
40.72672 159.536 14.3101
50.20795 155.9363 15.3006
48.85773 156.9107 15.5161
46.24228 157.9826 15.39739
43.37831 158.826 15.05029
42.65375 159.0352 14.9597
39.96719 159.6396 14.5114
37.53314 160.0645 14.02451
50.64053 155.3523 15.4251
49.35644 156.4015 15.7105
48.13669 157.0276 15.7382
47.50895 157.323 15.7347
45.46759 158.0496 15.5698
44.75761 158.2651 15.48801
41.51385 159.2194 15.0943
40.78416 159.4304 15.0032
49.80774 155.8395 15.8554
43.62495 158.4442 15.6214
42.92571 158.6776 15.55471
42.20825 158.8948 15.4716
48.18206 156.4368 16.10851
47.55252 156.7304 16.1034
46.21566 157.2386 16.0166
45.56207 157.5113 15.99021
44.21242 158.0179 15.8983
40.29594 159.2495 15.475
39.54758 159.4462 15.3688
37.98918 159.789 15.1036
37.21141 159.9676 14.9762
35.94973 160.1511 14.6996
50.14523 155.0768 16.20469
46.69391 156.7021 16.1866
44.71567 157.5048 16.09159
42.34831 158.4014 15.9358
41.64345 158.6333 15.86639
50.53529 154.444 16.2837
49.36446 155.1248 16.36271
42.83072 157.8626 16.1056
39.71111 158.9727 15.8534
37.45923 159.5723 15.5387
36.69493 159.7656 15.4252
51.61487 153.0809 16.0996
51.17413 153.589 16.29491
41.23026 158.0514 16.09821
40.22668 158.4615 16.05181
38.81283 158.9402 15.9215
38.11764 159.195 15.8701
35.83848 159.7889 15.54311
33.81633 160.1921 15.1716
31.18089 160.4311 14.87131
50.87218 153.1006 16.62319
29.81304 160.4771 14.8432
51.19502 152.3846 16.6264
34.28284 159.4446 15.9438
33.51704 159.6506 15.83811
31.263 159.6917 15.89991
30.43804 159.8576 15.7494
51.28067 149.4217 17.311
52.62477 142.1017 18.13299
52.29998 141.5687 18.4248
52.59299 139.4637 18.62209
33.03796 145.3054 18.5399
31.50503 145.7523 18.3511
31.47965 145.0623 18.6339
53.22546 134.6017 18.97479
35.36856 142.9222 18.8235
35.01919 141.9548 18.4497
34.60576 141.4356 18.3504
35.67933 140.8744 19.0639
34.8878 141.0642 18.9395
34.44886 140.4397 19.13531
53.24933 131.2886 19.4098
52.58744 130.8806 19.67771
52.90793 128.6902 19.82749
53.3935 126.0833 19.7554
53.15894 124.3009 19.99871
53.45281 123.4073 19.87601
53.69858 121.7494 19.6079
53.40065 121.2228 19.9123
53.52255 119.3142 19.81261
52.88102 118.9355 20.1061
53.44042 117.7421 19.86999
23.76609 131.2834 19.80279
13.87537 130.8421 19.37691
43.01858 105.9072 19.6032
44.05883 105.3015 19.90461
45.15201 104.7784 20.27721
41.89911 105.5753 19.77699
42.04402 105.0004 20.1891
41.2374 105.2177 20.078
43.14897 104.4813 20.5679
39.04489 105.4791 19.93201
38.29626 105.7891 19.89999
40.93074 104.6831 20.37461
42.78501 103.8592 20.7888
41.63388 104.267 20.6945
40.01286 104.6984 20.4678
40.14569 104.104 20.86329
37.72268 104.7876 20.55001
36.0448 104.3434 20.84641
36.71084 103.8572 21.1087
18.84349 104.4218 20.6941
16.13349 105.0245 20.2372
13.91164 105.5948 19.9127
11.9412 107.0717 20.26331
14.60378 105.0696 20.1575
13.01578 105.7481 20.10361
12.35186 106.2338 20.2139
15.80996 104.5121 20.543
14.2453 104.5198 20.42759
13.07312 105.0518 20.4084
12.34418 105.4668 20.4517
14.77961 103.8141 20.50411
12.11322 37.7038 14.28191
12.75273 37.49149 14.30271
9.841739 39.10159 14.1108
13.4026 37.39058 14.6185
9.088891 39.84921 14.09731
10.34702 38.7656 14.63189
10.89555 38.40991 14.7784
11.47929 38.11159 14.8748
12.07409 37.83151 14.9554
12.70833 37.613 14.9819
14.08974 37.34689 14.88409
14.83437 37.29212 14.7657
15.58061 37.236 14.64779
9.799051 39.21562 14.79519
13.35951 37.51629 15.2944
16.69833 37.2413 14.785
9.300791 39.74741 14.8873
10.31753 38.9029 15.2962
10.8633 38.5448 15.44509
11.44515 38.2454 15.5428
12.04451 37.97462 15.61549
12.67237 37.74779 15.64951
14.02846 37.44658 15.58309
14.77003 37.38918 15.46719
15.51332 37.33089 15.35181
17.41839 37.23761 15.0139
18.2092 37.2351 14.8468
8.000731 41.50712 14.24041
8.398939 40.88651 14.6154
9.789751 39.38379 15.43229
13.3121 37.6352 15.9762
16.25115 37.3595 15.5528
18.95885 37.26902 15.04151
9.05421 40.15421 15.3982
10.29502 39.05161 15.9507
10.83546 38.68672 16.10569
11.4034 38.367 16.22129
11.99693 38.08912 16.3006
12.63205 37.87588 16.32299
13.9774 37.56189 16.26829
14.6904 37.46318 16.1892
15.44968 37.43138 16.0506
16.99194 37.39019 15.7517
17.75818 37.35559 15.6137
19.69076 37.27522 15.2605
20.48936 37.27191 15.09229
21.26478 37.23081 14.95711
9.51492 39.74371 15.98399
13.25418 37.73793 16.67231
16.17008 37.436 16.27319
18.49123 37.36921 15.82691
22.0213 37.26291 15.1516
23.58981 37.1862 14.87339
10.0148 39.40272 16.50999
11.10271 38.6874 16.80791
11.96681 38.23098 16.9616
12.59108 38.00269 16.9975
13.93369 37.68861 16.9436
14.64765 37.59342 16.8617
15.40763 37.56451 16.7208
16.92401 37.48848 16.4531
17.69243 37.4594 16.3106
19.23635 37.39827 16.02609
20.00508 37.35661 15.89281
20.80342 37.3527 15.7251
22.76175 37.27 15.3681
25.1453 37.18039 14.9254
9.26332 40.14068 16.5033
10.55907 39.13768 16.97009
16.13902 37.58749 16.9274
18.42595 37.47588 16.52161
21.54075 37.36161 15.9409
23.51021 37.28601 15.5763
27.11464 37.15979 14.8999
28.73139 37.0931 14.60389
11.40354 38.74349 17.4618
12.30094 38.34178 17.56799
12.91489 38.09839 17.61729
13.58029 37.93358 17.59719
14.27312 37.8091 17.5416
14.96988 37.68771 17.48269
16.87188 37.61028 17.13381
17.6305 37.56892 17.0025
19.17041 37.50601 16.7202
19.92518 37.44628 16.6032
20.69716 37.40718 16.46719
22.28882 37.38307 16.14509
24.65801 37.28699 15.7103
25.44273 37.2391 15.5781
9.07932 40.64911 16.92551
15.71435 37.7342 17.66921
18.36485 37.58859 17.21091
21.46555 37.46232 16.6421
23.03746 37.40319 16.3501
23.83584 37.38409 16.1938
26.22431 37.2897 15.75361
27.04582 37.2832 15.5829
27.83258 37.22539 15.4577
28.63577 37.18521 15.3159
29.46316 37.17168 15.1492
30.27647 37.13479 15.00281
31.10323 37.1105 14.84419
10.08922 39.8927 17.65049
14.63981 37.972 18.1024
16.82614 37.74192 17.8059
17.57837 37.69269 17.68159
19.11175 37.62438 17.4048
19.87589 37.5801 17.2744
20.66484 37.56689 17.1156
22.23059 37.5097 16.82349
24.6023 37.42247 16.3815
25.38032 37.3674 16.25619
31.86256 37.10642 15.06501
8.686939 41.4462 17.1782
9.392391 40.7181 17.5673
10.71261 39.75721 17.99769
11.27582 39.43279 18.11779
11.83405 39.10121 18.2444
16.11013 37.9399 18.1919
21.41693 37.60072 17.30979
22.98939 37.54579 17.0146
23.76569 37.49811 16.8841
26.14864 37.40232 16.4462
26.95148 37.37258 16.2966
27.75731 37.34227 16.14689
28.57555 37.32362 15.98599
29.36571 37.26339 15.86189
30.18567 37.23722 15.7061
31.01091 37.21302 15.54781
34.31401 37.0683 14.94941
35.60038 37.05179 14.68691
12.54409 39.10431 18.4704
13.14573 38.8413 18.5368
13.78197 38.63119 18.55671
14.43953 38.45271 18.5485
15.13792 38.33442 18.48711
17.25808 38.0001 18.28199
18.33776 37.8518 18.16131
19.08408 37.78728 18.04961
19.84406 37.73858 17.92339
20.61626 37.70339 17.7846
22.16854 37.63088 17.5067
24.51718 37.51802 17.08871
25.30805 37.48252 16.9461
31.79475 37.2419 15.73879
32.60995 37.19588 15.5988
9.290989 41.3629 17.87081
9.846929 41.02068 18.00571
15.92153 38.44019 18.6212
21.37265 37.74499 17.97211
22.92664 37.66822 17.69709
23.71008 37.63198 17.5565
26.09074 37.53831 17.11749
26.87663 37.4881 16.9868
27.66504 37.43672 16.8565
28.48851 37.42679 16.68789
29.28208 37.37321 16.55811
30.10306 37.3502 16.3998
30.927 37.32621 16.24159
33.4 37.2256 15.78791
34.2286 37.18727 15.6393
35.07592 37.16712 15.4733
8.462541 42.61928 17.49609
8.92687 42.1175 17.769
10.43953 40.8318 18.3991
11.01627 40.52608 18.5025
11.59947 40.2314 18.59641
12.19351 39.95409 18.67501
13.02733 39.449 18.87141
14.66644 38.99419 18.8584
17.0267 38.4379 18.7667
17.72228 38.30551 18.7163
19.51054 38.03431 18.5353
20.23825 37.93811 18.45109
22.14391 37.80451 18.1431
24.47535 37.6726 17.74291
25.25717 37.62641 17.61011
31.71206 37.35869 16.4297
32.52644 37.31351 16.2892
15.75178 38.96859 19.0255
16.40365 38.77508 19.02969
18.86586 38.3487 18.81991
21.02962 38.03202 18.5925
22.89155 37.82871 18.3454
23.66328 37.77801 18.21809
26.00885 37.64238 17.8176
26.80187 37.60349 17.67709
27.61061 37.5809 17.52111
28.41366 37.54612 17.3753
29.21433 37.50338 17.2359
30.02664 37.47132 17.0862
30.84277 37.43931 16.9356
33.30426 37.32999 16.4908
34.14864 37.3131 16.32299
34.97907 37.274 16.17461
9.168371 42.70151 18.0443
21.81632 38.11582 18.7422
31.61028 37.45129 17.14259
32.45351 37.44441 16.9676
22.62402 38.22558 18.8681
23.34471 38.10649 18.8024
24.08232 38.00761 18.71831
24.84678 37.94172 18.60381
25.59502 37.85031 18.5118
26.37116 37.79229 18.38901
29.15279 37.64182 17.9062
29.96146 37.6068 17.75951
30.76122 37.55539 17.6268
33.2236 37.45299 17.1767
34.06833 37.4385 17.0069
34.89206 37.39279 16.8648
27.55081 37.82599 18.4918
28.35335 37.79291 18.34489
31.54626 37.59172 17.8121
32.38475 37.5806 17.64121
20.66525 39.06029 19.42759
23.13508 38.58467 19.2525
23.85072 38.4567 19.1946
26.80988 38.0443 18.86819
29.51312 37.7868 18.48171
30.31157 37.73778 18.34739
33.1437 37.577 17.8616
33.97129 37.5432 17.71001
34.78798 37.49081 17.57429
27.99714 38.0859 18.9637
28.76649 38.00791 18.8571
31.08721 37.76558 18.541
31.91927 37.75059 18.37441
25.13178 38.7532 19.461
25.87753 38.6573 19.3728
26.59366 38.51848 19.32269
29.96534 38.0505 18.9494
33.10147 37.74797 18.50369
33.91969 37.70389 18.36161
27.4271 38.6399 19.43449
28.52273 38.4491 19.342
31.56519 38.05881 18.98141
32.3507 37.9829 18.8698
34.74236 37.77327 18.5143
26.84429 39.06768 19.6218
29.74563 38.52498 19.4043
30.50824 38.4297 19.31211
28.04885 39.1316 19.697
33.65229 38.23858 19.1621
30.01291 39.08949 19.6886
32.96249 38.5524 19.45669
31.61453 39.09921 19.71919
32.34229 38.95041 19.674
6.879419 55.3702 13.3202
34.37231 38.93759 19.6298
6.82378 56.0846 13.18229
6.968161 54.88171 14.0434
8.338721 52.6998 16.88781
21.37899 51.50031 16.89101
21.4204 52.29371 16.6739
22.16073 51.62891 17.3885
13.61355 56.37639 16.07449
21.30149 52.94018 16.97979
21.76061 52.37579 17.30009
15.11084 56.25751 16.2228
21.08883 53.9891 16.6275
22.34497 52.73362 17.28999
12.60451 56.89471 16.66569
13.31236 56.72698 16.63879
15.84188 56.21012 16.48171
16.56904 56.06382 16.4349
20.69576 54.76501 16.5162
21.93502 53.47218 17.2099
33.56157 48.92319 18.09869
18.03775 55.88009 16.6372
18.7569 55.71421 16.60659
19.47724 55.548 16.5759
20.13285 55.27689 16.6368
21.51796 54.2044 17.13609
13.17122 57.35409 16.96389
13.86576 57.1604 16.9592
16.35202 56.562 16.8717
21.11466 54.96272 17.0399
34.2379 50.61381 17.4607
34.74832 50.1328 17.7083
14.72005 57.32598 17.03379
15.41577 57.12899 17.0312
18.58867 56.29279 16.9734
19.26837 56.06108 16.99989
19.95987 55.8471 17.0108
21.68497 55.30091 17.0473
16.2336 57.22519 17.1651
16.94459 57.04942 17.1436
17.6178 56.80969 17.1774
20.73396 55.85708 17.21809
25.61858 55.0037 16.8073
34.73138 52.06981 17.0357
34.68132 51.4188 17.52909
34.86203 52.93971 16.74281
35.58003 52.24421 17.485
25.90306 55.72539 17.35119
26.70884 55.66212 17.2259
29.05214 55.34052 16.9638
34.6513 54.05449 16.72109
35.16705 52.97338 17.41251
32.99649 54.8959 16.8308
33.73893 54.81812 17.10981
34.36507 54.47509 17.2303
35.02232 54.174 17.31321
28.60043 56.2331 17.5383
29.71223 55.97698 17.49071
31.62468 55.62162 17.34571
32.39198 55.47737 17.2886
33.63369 55.48599 17.39689
34.37755 55.3022 17.3743
12.59773 65.3189 15.7406
14.57305 65.33491 16.0665
16.49615 65.06931 15.85259
13.91423 65.7175 16.30361
17.25183 65.02037 16.1074
15.47948 65.64402 16.40359
16.21983 65.48559 16.3629
17.03664 65.54409 16.52499
14.26198 66.59491 16.7185
15.86413 66.57999 16.7673
16.5258 66.27961 16.8486
48.60983 41.88212 8.992412
49.03015 42.44681 9.236613
47.3729 38.19072 14.32989
48.42123 39.01099 14.34211
44.84343 37.05069 14.2312
45.49406 37.32031 14.3613
46.15422 37.57628 14.5021
46.77919 37.8707 14.60899
47.88589 38.6219 14.6805
48.90021 39.4808 14.65891
47.31908 38.271 14.98641
43.19825 36.91598 14.3422
44.00781 37.01331 14.6259
45.44364 37.40101 15.0189
46.10506 37.65421 15.1619
47.84571 38.68451 15.35159
48.35689 39.10761 15.34579
48.83917 39.5655 15.31019
42.30627 36.91988 14.33271
44.7205 37.2273 15.16979
46.68205 38.01229 15.57621
47.27258 38.34271 15.6503
49.24319 40.12319 15.5511
50.86443 43.9583 14.2569
40.55884 36.85658 14.0053
41.41652 36.91661 14.3278
43.53604 37.06791 15.12339
47.79223 38.76322 16.00921
48.52821 39.43219 15.97
44.27138 37.25781 15.68891
45.3481 37.54439 15.9858
46.01503 37.78961 16.13511
46.92434 38.25768 16.2701
42.21512 37.06618 15.2999
43.05039 37.13792 15.60731
48.21671 39.30121 16.6285
48.89854 40.03408 16.5344
37.82865 36.8674 13.9548
39.56459 36.9918 14.6062
40.44302 37.03361 14.94659
41.32616 37.06401 15.2948
43.84511 37.263 16.2305
44.92959 37.54159 16.53461
46.54469 38.21012 16.8578
47.3993 38.73809 16.93969
49.28884 40.60649 16.76221
50.9979 47.06549 14.1618
38.64729 37.00408 14.5819
42.55338 37.2205 16.08009
45.58247 37.81398 17.024
47.8507 39.236 17.2308
48.57384 39.9177 17.1799
35.97454 36.8857 13.9016
36.81828 36.98739 14.197
39.07911 37.05489 15.09371
40.82224 37.15091 15.7625
41.68825 37.19559 16.0963
43.35887 37.3353 16.713
44.5067 37.54392 17.07899
47.00442 38.70832 17.51199
51.09372 48.60642 14.13279
37.6845 37.07942 14.86658
39.93507 37.14018 15.7624
46.06684 38.28671 17.7014
47.44353 39.22021 17.79089
48.16362 39.90438 17.7375
38.55912 37.15479 15.54809
41.17202 37.2973 16.5514
42.03659 37.3395 16.8859
43.64603 37.5401 17.4462
45.05421 37.9489 17.817
34.08553 36.94259 14.17399
34.93672 37.0464 14.4715
36.27324 37.12922 14.9796
37.15563 37.18569 15.3141
39.40042 37.2582 16.20159
42.77707 37.52812 17.45431
48.11064 40.4953 18.1331
38.05618 37.23591 16.01919
40.66137 37.39261 17.0121
41.5109 37.45341 17.33079
44.17588 37.9683 18.16511
45.38964 38.59349 18.3452
32.65056 36.98611 14.28051
33.5053 37.09399 14.57729
36.66888 37.24699 15.80201
39.77736 37.38081 17.0139
44.67012 38.4218 18.49651
45.81802 39.11998 18.61211
47.05671 40.21841 18.56039
47.47692 40.7482 18.46249
47.9086 41.26611 18.3753
31.69258 37.00202 14.23759
37.541 37.3297 16.4788
38.41013 37.38909 16.8064
40.95817 37.59619 17.7499
41.76741 37.69781 18.0312
43.1979 38.0966 18.4164
46.29454 40.09991 18.66701
32.99603 37.17198 15.0474
36.15927 37.33232 16.2682
39.22684 37.517 17.4372
42.37715 38.03071 18.47189
44.01309 38.6911 18.80791
45.06905 39.49931 18.8293
37.03335 37.4152 16.9457
37.91048 37.46789 17.27999
40.39226 37.75268 18.15649
41.15732 37.90509 18.3936
43.21944 38.5988 18.88811
