-9.167695 -66.568932 157.553482
6.002919 -55.781425 151.509750
24.389257 -66.039291 160.036041
4.740587 -8.625111 120.599213
-33.939812 -27.183167 102.471802
6.269613 -58.597301 153.232178
-13.103894 -73.594879 153.302429
-21.088161 -22.604652 112.482468
-35.655357 -25.369619 104.514542
9.086948 -19.888891 129.517105
-35.589382 -61.453991 152.065933
30.315313 -21.974037 117.665054
10.381355 -70.146866 160.222260
75.056023 -34.580135 145.392578
-53.418392 -19.994556 108.341339
4.183327 -12.488229 123.416351
68.427238 -33.616993 136.662643
-83.818108 -14.454654 118.862358
12.949941 -16.717943 127.484146
-3.105312 -37.224407 137.230209
-33.671036 -66.890640 153.115219
3.056108 -51.431141 147.580811
-28.029329 -70.642380 150.865326
-15.590253 -21.827969 115.557571
69.705811 -42.436516 149.140610
-33.717907 -13.082207 106.487648
31.579021 -16.749828 114.581001
13.340289 -11.098642 123.553947
-69.601097 -14.940381 113.863083
-28.096886 -26.872194 106.613419
-6.219878 -21.230474 128.067642
-78.830658 -27.772341 127.619858
14.717196 -58.284016 155.109283
-27.131195 -14.882750 108.204437
-39.119972 -21.043339 106.743172
-58.048691 -24.863485 104.272285
-23.786776 -64.187927 154.401199
3.082452 -57.405998 150.357285
-25.946110 -9.919265 106.267563
70.791740 -32.476051 137.539719
40.328732 -14.368152 110.717430
2.237743 -48.587456 145.879196
3.936349 -20.833641 129.698303
1.922625 -38.151749 141.146255
-73.162079 -22.859119 116.108025
33.028339 -11.992087 111.801308
-1.378906 -51.834324 143.058350
14.481287 -80.146355 143.943985
69.388641 -29.399176 131.089279
8.055919 -50.684189 149.650055
9.362073 -63.105141 157.344391
8.153913 -74.455338 154.055237
-34.922832 -61.005783 151.462128
12.099052 -56.001656 153.469986
-17.242496 -15.740810 113.164772
-76.365486 -27.712059 126.748695
72.332680 -24.948210 128.609924
-70.389023 -28.203367 119.555542
-46.923313 -60.205482 149.270538
44.816395 -33.594284 141.803482
-9.209432 -15.563537 123.470345
-1.188135 -71.117157 159.469345
40.832993 -57.401817 156.618073
-5.546737 -11.089992 121.628250
24.186644 -10.216093 114.236153
14.265694 -56.651707 154.055450
29.996601 -27.102617 121.178726
-10.665668 -73.763947 153.713867
20.932528 -56.481792 154.498856
37.266415 -19.650703 116.838486
-33.323967 -9.963372 104.655121
-22.327862 -26.561554 110.833549
-8.336155 -11.966123 122.017891
-13.261808 -64.479378 148.818420
4.567122 -45.071465 145.604553
-40.295433 -56.101849 140.391281
-0.383999 -66.612740 158.162506
34.080303 -36.479641 118.046684
31.119604 -23.229225 118.600189
0.557472 -19.708385 128.461548
46.454624 -56.301224 156.543442
-58.517166 -19.394732 109.672882
3.321697 -22.607023 130.883118
23.185049 -29.636911 121.879166
14.817074 -18.692427 127.793213
34.847900 -10.081620 110.553658
-68.893288 -22.300358 110.875206
-28.645050 -28.810160 103.127968
47.703506 -37.422115 145.015396
-20.954439 -72.363983 152.096725
-2.173955 -32.217667 136.265945
3.986432 -13.515398 124.097015
-46.918274 -10.755259 109.491852
63.857956 -39.712059 141.092331
75.416771 -32.306839 144.444763
23.219402 -60.418472 157.126541
15.442121 -81.079567 142.172134
31.652035 -14.660807 113.451576
9.128735 -65.655922 158.937164
41.997845 -56.656494 156.328644
18.141693 -61.712132 157.471115
-16.896935 -63.876102 148.025589
-15.139536 -18.723457 115.458549
-25.202673 -23.576904 110.133881
21.622873 -28.404789 121.503708
-41.848724 -18.806618 107.612831
33.022556 -27.193409 123.404495
-3.828073 -69.936821 159.540527
-10.983097 -63.470264 145.730072
-29.645304 -18.589975 109.005119
-12.488108 -12.657774 119.964943
23.766544 -74.128563 150.359253
-53.383389 -27.655853 99.789284
-20.880785 -71.194977 154.120514
-1.600380 -69.881615 159.770325
-4.589022 -67.138939 158.469711
-25.866110 -29.735184 103.968384
-19.711889 -17.661257 111.764595
7.690568 -60.859406 155.290024
30.959354 -28.566442 123.140327
12.609246 -15.716007 126.817696
19.459538 -75.466499 149.965820
16.136045 -80.793381 142.427811
-56.939972 -18.047132 110.534218
-5.232481 -8.262177 119.533844
-74.788757 -14.377628 114.989204
14.114745 -12.603791 124.591560
46.493343 -70.488319 140.578293
-38.412674 -17.646673 107.596024
-38.318821 -23.095966 106.062241
27.636419 -65.763710 159.783691
-3.008725 -81.467285 142.751511
71.184601 -28.267080 132.023682
5.292900 -75.928459 152.032364
-7.744367 -83.170036 139.079712
-29.610960 -78.794197 135.862854
6.297670 -65.770103 158.185120
-41.115814 -18.003925 107.751602
27.059530 -67.280563 159.400879
-33.247192 -66.859680 153.382080
85.544739 -21.356314 138.319992
-51.391327 -11.180265 112.530838
37.290115 -60.548378 158.350708
6.619654 -13.411273 124.314117
34.398853 -7.723862 109.287994
25.377426 -17.487881 115.526398
-5.066671 -19.420086 127.610321
5.675562 -76.519287 151.037354
33.574738 -38.785511 113.796288
-56.668484 -21.148296 107.779457
2.235007 -62.413445 152.542816
11.802199 -67.679710 160.329468
-15.557431 -17.716610 114.944000
-18.228416 -79.251175 141.940536
12.908527 -44.760376 147.313339
-23.073908 -67.372086 156.546646
-53.620152 -24.725563 103.512413
-68.886681 -11.874864 114.750168
-72.919128 -16.583536 113.932785
-26.441706 -61.575012 145.378372
-2.443141 -63.664131 147.454041
37.929878 -25.646904 126.285202
-1.609302 -79.925667 145.368286
-21.165056 -72.380569 151.957932
-41.697067 -10.557130 105.859756
28.693689 -64.286324 159.634048
-42.934612 -18.845877 107.686417
-20.628326 -21.810839 112.643761
37.508286 -62.004986 158.600723
-73.199471 -14.064870 114.750473
3.563118 -67.402519 159.469574
22.921701 -38.493908 115.330978
-35.765442 -18.061335 107.773170
32.174129 -30.246031 125.873222
-9.097918 -14.288230 122.977898
13.851598 -19.726398 129.056091
59.396523 -41.346573 146.231049
-0.024300 -84.436035 138.235046
-27.182680 -61.353924 145.255600
16.899639 -69.329994 160.103180
-71.422104 -20.084124 112.481331
26.318048 -37.068356 115.778168
-3.778330 -29.091490 133.607147
-56.963070 -25.623405 103.198837
-41.802620 -15.193008 107.914856
-33.822365 -25.019579 105.624146
5.926743 -45.495388 146.265564
17.822037 -76.917091 148.151627
15.242252 -51.423016 150.937042
-75.338463 -23.878775 119.141357
-39.801250 -62.509384 151.957962
-1.402478 -82.034134 141.965179
38.562271 -36.941456 122.314781
-29.283173 -72.508575 146.848633
69.222855 -32.584503 136.064026
-17.399923 -25.254587 114.864777
-18.149345 -64.991241 155.177658
-34.099979 -65.890816 153.577118
26.488071 -29.271843 121.874390
-79.646965 -15.562842 116.256485
11.621729 -66.977661 160.046600
2.609801 -27.350048 134.209122
-28.041857 -11.562364 106.246536
5.946900 -36.549831 140.831238
-14.480159 -28.436115 117.132156
54.510468 -46.720737 151.516434
36.572491 -25.735394 124.823486
36.402439 -8.967957 109.355957
19.752449 -74.594475 151.183563
-60.682190 -12.561368 114.255325
43.024220 -61.010792 157.459595
-11.648531 -67.520576 158.190048
-56.408035 -27.204330 101.169746
49.211338 -41.042374 147.548676
30.948576 -32.182919 123.528450
-17.388172 -21.659201 114.377007
-35.653488 -21.948156 106.944366
29.083307 -35.038506 118.562431
23.274076 -75.583076 148.353622
78.295609 -12.247225 121.429382
37.531628 -8.661392 108.612022
-42.324524 -13.154420 107.576332
29.544554 -18.902920 115.722473
24.658390 -30.605536 122.463699
-35.714581 -28.088093 100.204514
-18.961554 -67.009941 157.133774
-26.199579 -31.128851 101.551178
-1.634417 -31.451298 136.154221
-24.634935 -21.735697 110.708733
2.574326 -44.688351 144.502426
-10.790622 -70.884842 158.306671
-74.169754 -11.833141 115.241119
-5.124181 -64.002319 146.943451
38.518970 -28.706579 134.693771
5.271707 -8.603401 120.636871
-25.135826 -20.983221 110.481606
-4.962368 -23.672886 130.181046
7.514285 -74.746025 153.694504
7.090507 -44.248383 145.830460
37.702515 -23.702394 121.786789
-2.196202 -32.465996 136.358948
4.639221 -56.340096 151.002151
-59.321350 -17.105005 111.532433
-29.227945 -73.089722 145.894943
16.439503 -55.887638 153.790405
27.401331 -25.927845 119.862427
14.634046 -8.734635 121.999168
81.514755 -13.632168 126.993889
-50.793221 -10.902156 112.212379
-20.659792 -78.846207 141.375198
10.650341 -80.402039 144.282547
-64.551376 -16.277374 112.494698
-19.003891 -75.434303 147.965851
-79.682312 -16.564346 116.603477
14.817678 -48.297230 149.641815
10.195919 -19.596058 129.409164
17.173374 -69.329048 160.069946
-41.287491 -22.169081 106.007042
-7.434049 -15.991094 124.654076
-63.685207 -13.442931 113.875717
-70.878403 -13.217231 114.628632
-21.313471 -72.974518 150.889084
40.926865 -29.295622 137.586090
-14.117218 -69.495888 158.173904
69.841965 -31.071804 134.580368
25.256895 -26.005165 119.673531
10.189793 -78.000710 148.172226
6.265745 -80.404678 144.708160
73.116486 -25.882944 131.320465
8.840389 -63.356255 157.374207
34.468777 -13.247080 112.572868
-0.994804 -28.711636 134.760071
40.625622 -26.630608 133.385132
-72.003822 -27.003109 119.676323
-14.267974 -73.088516 153.659317
-27.293587 -16.691769 109.001663
15.021000 -9.491175 122.522812
13.004867 -17.728067 128.188080
6.509706 -23.487720 131.844070
16.444065 -77.484222 147.646927
-56.513500 -55.876350 145.111923
12.845469 -77.728790 148.096527
34.045776 -33.671585 122.850372
15.548142 -80.784012 142.573196
-38.151917 -65.386314 151.863480
49.390095 -49.761143 152.927414
-10.702654 -11.811034 121.002884
-31.577032 -71.578499 146.715515
-3.352302 -22.354343 130.008057
46.313610 -34.266438 142.855972
8.442619 -39.624035 143.069260
-25.615011 -12.497737 107.325172
5.663830 -35.341858 140.007385
62.228161 -48.008045 152.087158
8.176639 -41.083927 143.956955
-83.147713 -20.604643 122.866035
25.170158 -27.792160 120.820221
-8.074819 -15.512465 124.098038
2.847870 -66.529602 158.498474
-28.876324 -18.817354 109.168633
-5.696713 -66.721741 157.917175
21.703936 -13.167883 116.727180
5.936218 -22.510902 131.079330
53.371925 -44.815304 150.224060
2.934304 -33.479752 138.512253
58.257656 -44.688351 150.286850
-20.907759 -17.971426 111.292915
6.687359 -39.437847 142.772125
-83.017319 -22.566883 123.810577
-32.684647 -18.712729 108.365334
30.784355 -24.778780 119.624016
-11.669687 -78.530785 145.651871
-2.110560 -41.098289 139.393326
-4.890080 -82.132790 141.412689
-26.040504 -73.079750 148.023636
1.115431 -17.173286 126.555389
-72.454002 -18.088688 113.270958
14.384018 -67.393539 160.348770
4.055369 -70.757111 159.896103
71.500847 -29.230265 133.884659
-31.117516 -11.169207 105.610306
-12.082892 -14.429001 120.592491
-82.944168 -16.158445 119.868820
0.771322 -19.951395 128.648544
-71.171036 -19.569448 112.429558
-10.095141 -16.369326 122.988808
3.458811 -47.063393 145.975830
14.161832 -66.922913 160.200516
-23.655102 -12.156266 107.976616
41.238220 -57.616337 156.944016
-82.132942 -20.567410 122.854813
-35.787479 -24.048054 105.781120
31.777225 -21.404976 117.437561
-27.302074 -21.335936 109.646614
-12.200850 -75.301849 150.783524
-28.949354 -25.323095 107.490585
7.148211 -73.296013 155.961319
47.676037 -51.483246 153.913712
-66.870392 -13.314101 114.126518
-36.712486 -64.550110 152.860748
-3.456844 -11.261889 121.859818
-23.322317 -80.273170 137.583420
-28.196331 -72.111290 148.264862
-73.579117 -12.817827 115.077682
-41.463230 -13.637433 107.422821
33.122078 -29.919497 126.947617
-48.267311 -60.038582 148.656372
-24.492407 -67.423904 156.231186
22.939995 -13.654181 115.693451
-57.147751 -23.256788 105.754456
19.115063 -57.939610 155.253479
-85.190659 -15.500705 119.541710
19.944923 -75.764534 149.421753
-2.707771 -12.761018 123.019539
17.471888 -80.206985 143.075455
0.956048 -55.455898 147.290771
-33.093399 -20.282215 108.124489
23.693071 -60.642735 157.283279
-32.644859 -15.616616 107.801254
-12.263116 -72.971504 154.556656
-29.658012 -74.013268 144.040268
41.454388 -19.790863 115.524483
-73.171158 -24.087015 117.512413
10.322368 -25.091993 133.386642
-68.925362 -23.057734 111.144409
10.886271 -10.429124 122.709343
54.931026 -49.609833 153.273636
-53.625340 -20.261625 108.153580
14.116650 -60.174313 156.195343
-15.729242 -78.775925 143.803909
52.281433 -50.883987 153.849380
-1.714858 -36.875141 138.537109
19.670872 -74.888824 150.736938
12.162880 -63.951771 158.298508
28.945272 -33.096531 121.629173
-3.025736 -30.040413 134.628525
24.056166 -58.755230 156.179855
-79.363586 -16.555033 116.310883
-21.031382 -72.659813 151.572083
-37.241791 -62.880806 152.727890
-68.491989 -15.152405 113.587685
67.860214 -42.714352 149.565430
-54.926048 -22.396139 106.271477
57.846077 -42.776978 148.592163
-6.695527 -29.038105 130.402313
-60.133537 -14.321623 113.352219
11.964236 -42.157871 145.304489
27.432158 -24.391447 118.895561
73.335342 -24.868286 130.140945
-50.961315 -12.441180 112.072243
-27.874260 -18.518278 109.387703
14.773368 -51.198250 150.757904
-10.005918 -78.137154 146.851639
28.655130 -23.577158 118.523056
22.373964 -77.332298 146.032196
-22.540970 -17.012321 110.312523
5.602776 -37.048023 141.105103
6.290964 -53.385490 150.460724
19.637032 -74.006958 152.111053
21.164314 -57.887737 155.397446
-4.700427 -10.800779 121.485222
-21.880159 -14.406968 109.576126
64.615463 -43.024342 150.049561
7.886108 -13.615932 124.596771
13.591544 -62.985447 157.869034
-28.035105 -21.367308 109.393219
59.575535 -47.794186 152.486725
-10.334896 -10.518472 120.543427
13.079537 -21.507177 130.617203
40.095703 -19.564823 116.079933
-69.123108 -16.445902 113.163261
67.781731 -39.013706 147.635071
-20.702545 -64.793877 155.170807
30.265230 -23.517776 118.676056
-54.750103 -15.651856 111.928741
2.736588 -52.655365 147.875214
10.528601 -31.508108 137.936600
-12.577070 -9.333404 118.999359
-64.055344 -12.695762 114.215736
-4.810560 -64.190033 147.570816
-5.106448 -19.672874 127.758324
-71.027206 -23.816545 114.814484
-0.150007 -11.895679 122.552589
1.178030 -40.873070 142.061325
19.547716 -60.976177 157.154495
-5.675149 -63.643631 145.458954
-28.322374 -11.832780 106.317528
-33.650501 -19.527996 108.091522
2.360400 -38.375755 141.429535
17.967117 -78.727890 145.146805
1.657632 -34.990379 139.291153
-35.357944 -13.662964 106.661964
-62.910267 -16.471359 112.208786
-77.018181 -20.224037 116.801704
4.942335 -47.706001 147.044266
-19.124413 -74.271378 149.807205
-24.023643 -23.780167 110.731842
51.832245 -53.058899 155.059708
-2.107246 -76.946770 150.228119
-10.312589 -18.163759 123.045647
16.813534 -71.330635 157.132309
-58.851093 -20.183853 109.009254
-61.393814 -26.269789 104.106003
34.496983 -22.071131 118.418091
-38.522499 -10.949817 105.087807
-5.215278 -26.435318 131.251663
-43.349174 -58.644440 149.758087
-73.842186 -12.828176 115.101982
14.372068 -76.566177 149.545944
5.320406 -41.416576 143.843719
52.176098 -51.367336 154.130844
1.145480 -57.588375 148.472015
4.757591 -38.771961 142.173676
-44.044533 -21.747002 106.258232
-81.135002 -19.059753 121.468811
45.899563 -62.047951 153.353287
-15.139086 -21.035707 115.742653
6.373744 -75.049217 153.276443
0.484349 -41.154030 141.812653
-41.550041 -19.054569 107.531097
88.946793 -11.697392 132.322266
-38.435532 -65.143028 151.940125
66.204529 -34.998142 136.110703
45.784321 -58.511078 157.049637
2.969432 -28.077282 134.787415
10.340222 -32.497307 138.558731
-78.821877 -22.675680 123.182907
4.453582 -52.299583 148.900070
-0.328161 -44.393063 142.233749
7.245365 -64.585876 157.599686
4.673257 -32.442429 137.993362
-57.798351 -12.446920 114.195427
1.442421 -30.591869 136.383057
-24.628569 -28.017426 107.850197
-8.123342 -18.299210 125.389343
6.239906 -37.756226 141.624283
19.429447 -68.304108 160.211624
9.801924 -41.999481 144.681564
42.417896 -22.792477 120.414482
53.125519 -37.322651 143.877319
5.573066 -70.726868 159.981033
4.500612 -66.705231 158.949692
9.128382 -30.819633 137.299271
2.899365 -73.327568 156.223038
6.715207 -51.936283 149.860199
-1.604388 -17.527502 126.675987
-12.122259 -74.126312 152.730759
-33.103111 -24.987009 105.937050
-3.439648 -35.511929 136.463547
-34.734051 -15.957021 107.632454
-64.636429 -22.704521 108.349838
25.801897 -8.322448 112.711769
-68.707405 -18.980309 111.776886
-23.979637 -27.179705 109.205177
12.793895 -63.238621 157.934494
73.200508 -26.625931 132.432800
-3.446115 -18.854324 127.507896
-60.957195 -14.099048 113.481316
51.907963 -43.157101 149.063293
-44.555271 -20.462868 106.993469
-62.935619 -20.324018 109.640182
29.471573 -32.246632 123.057205
-34.210941 -18.516127 108.035706
-6.088718 -69.503708 159.358322
7.582788 -55.698139 152.191223
35.074284 -56.795490 146.497040
-80.081459 -28.797388 127.752274
-61.781693 -13.876708 113.617256
-65.480202 -17.078070 112.141556
19.085722 -56.763760 154.530243
-22.442463 -76.589424 144.315460
6.092470 -39.941963 143.007797
1.410233 -14.879113 125.440811
-20.413313 -82.153374 135.994293
-26.352158 -17.940786 109.635086
22.616602 -27.870045 121.003540
-16.113342 -66.258530 156.896378
-11.377231 -70.393425 158.474243
10.838099 -57.449100 154.190659
38.215076 -24.662895 124.089638
-21.910591 -14.924463 109.743988
-30.609884 -19.921209 108.795601
15.845760 -61.766933 157.316071
12.062977 -51.982491 151.040070
9.779575 -20.365946 129.898010
29.290735 -30.169346 123.317909
74.522575 -31.100164 143.275269
11.974027 -7.813165 120.917679
-20.612131 -16.929232 111.075447
-68.872383 -17.965292 112.325378
5.794694 -53.891319 150.438583
-33.367580 -75.928169 137.710052
-82.851089 -24.526167 124.580872
-24.456686 -29.090595 106.486237
-21.510826 -75.327339 146.936264
39.710754 -29.880066 136.594070
63.598404 -44.032452 150.553268
8.887854 -35.967674 140.721786
-58.171669 -20.679394 108.459671
-17.229813 -72.681976 153.271225
4.984939 -64.945587 156.721588
-26.468981 -24.680231 109.081696
-36.499989 -62.385445 152.709900
31.236431 -15.722002 113.909370
-36.312908 -16.534372 107.600243
6.676114 -76.812111 150.474289
40.616158 -60.266083 158.023331
-37.622253 -57.647507 141.981232
-36.278858 -24.069067 105.616356
-32.122173 -27.088205 103.694946
-42.299374 -17.013979 108.039459
-66.697647 -20.962563 110.172760
12.382689 -11.904859 124.022469
-40.432980 -19.273397 107.384598
49.032909 -34.942795 142.967453
-51.097149 -57.035233 147.559769
-55.331348 -19.023211 109.507034
21.220667 -30.959002 122.848869
-47.931572 -20.061071 107.627396
-19.858093 -13.798189 110.865517
-41.313606 -10.025960 105.352936
26.895262 -66.759506 159.758713
1.694674 -40.113308 142.010025
30.956854 -37.214531 115.342674
38.238571 -22.173656 119.587532
-81.359863 -13.870950 116.774391
-13.265888 -20.677137 117.458038
55.020927 -53.768993 154.654282
-20.027256 -25.395529 112.896950
10.479543 -56.757912 153.675201
50.351398 -50.218056 153.247849
-10.569745 -13.080921 121.575432
-58.124958 -27.249775 101.675690
23.416906 -31.920090 122.965935
-40.432095 -22.657822 105.883926
32.583500 -29.705067 126.186607
0.387235 -30.626074 136.361862
-46.343082 -16.382915 109.141411
39.464943 -23.127405 121.516823
24.997824 -8.614584 113.395027
10.673327 -29.534513 136.593796
49.550983 -35.177448 143.060150
-25.870314 -20.756763 110.200645
-37.451130 -62.179909 152.489777
25.908537 -72.740105 151.535446
2.323451 -47.614540 145.530548
32.323250 -12.279346 112.198273
-47.878471 -15.664425 109.833366
7.728668 -72.128281 157.792435
-33.282349 -59.191299 143.095947
-65.069237 -23.490940 108.088264
65.237389 -46.931984 152.015671
11.922535 -75.940544 151.103165
24.665030 -63.421432 159.087219
-27.911377 -64.242439 154.620972
-40.240150 -56.536671 141.158051
8.883815 -61.969540 156.409363
-17.698200 -18.081272 113.183159
34.157291 -17.431440 115.237755
-44.373653 -16.055887 108.683243
31.126894 -36.643036 116.300713
12.804886 -11.120022 123.525383
-40.080147 -21.600969 106.412804
-3.431470 -29.815115 134.233551
72.480652 -27.178034 132.195053
30.544468 -38.650928 112.898216
-45.901405 -55.768131 146.772568
38.766479 -35.799126 124.483040
17.269552 -66.626907 160.223206
-83.401176 -20.861275 122.914116
47.522163 -54.841423 155.812683
4.927936 -75.343987 152.979355
3.817579 -18.079697 127.419670
-47.268227 -11.537205 109.930817
13.825651 -80.441864 143.591583
64.003868 -37.802689 138.128143
7.750999 -7.986845 120.502289
-15.014061 -66.021790 156.628906
-17.752522 -9.818248 114.076271
-2.843967 -68.471550 159.499313
1.924312 -55.120926 148.218704
24.551983 -22.180706 117.466377
27.789721 -19.484938 115.988922
-6.305784 -29.011642 130.828140
17.860186 -9.382629 121.505196
-2.698622 -67.546753 158.985092
11.671629 -59.769981 155.700882
45.935844 -33.536179 142.388992
47.913830 -39.140354 145.954361
-61.866447 -18.998014 110.436630
-74.775375 -26.547794 121.680222
77.613739 -27.974314 141.824249
4.112336 -67.161194 159.354233
10.153799 -47.032856 147.853348
-48.199532 -24.005367 104.097321
7.658681 -72.421272 157.308823
-38.804249 -19.472210 107.327637
-6.134537 -8.812149 119.871864
49.663235 -43.707420 149.260696
-14.887056 -62.871376 144.899368
-25.972492 -81.141380 134.428329
-10.326427 -70.864922 158.442551
31.869328 -22.173075 117.998520
72.731476 -27.903809 133.557587
1.924007 -70.049133 160.007248
5.527140 -33.393673 138.689255
4.637278 -25.048840 132.754562
14.522577 -81.054520 142.492310
18.076532 -30.505589 123.876595
-11.070789 -64.051071 147.622528
-5.118229 -77.337257 149.203949
18.649309 -20.985918 122.068810
-26.126377 -20.251348 110.088509
67.733757 -39.990406 148.418106
44.762920 -56.814659 156.774887
3.502518 -60.434647 152.425949
34.273685 -57.062546 146.501480
9.059293 -75.034866 153.076065
32.685604 -38.839184 113.192085
13.851903 -53.356522 152.026627
38.602089 -41.223690 114.852707
-59.084873 -14.280754 113.334244
-61.092346 -25.212881 104.888977
40.682331 -25.472626 129.072906
-2.541505 -26.301605 132.784363
-65.389320 -16.053844 112.696144
-5.480147 -24.701405 130.252029
4.617283 -62.442940 154.604675
83.703339 -22.705917 138.711060
-58.202457 -13.226666 113.835548
-2.006513 -9.413479 120.551445
8.719040 -68.216888 160.305969
-79.870773 -29.275372 128.028763
7.665462 -73.288185 155.969437
24.440170 -59.452480 156.611282
9.866982 -22.366442 131.371017
40.087391 -29.598730 136.987427
-1.430818 -24.273207 131.646713
-23.908613 -15.782928 109.303062
4.784667 -62.661404 154.883743
-68.491959 -16.932419 112.758171
-18.374788 -77.162880 145.399078
-72.990547 -28.224106 121.986092
21.174105 -63.036152 158.574097
46.472099 -31.062752 140.249512
-20.742788 -14.355860 110.284790
44.974445 -28.883308 138.385178
64.250252 -44.999046 151.011993
-50.501068 -27.839109 98.998894
7.537395 -13.883194 124.843826
12.523709 -46.726822 147.841248
4.865420 -64.496857 156.288849
-6.492173 -19.481876 127.074654
12.511612 -10.106533 122.714294
-21.431362 -65.465538 155.938904
10.283510 -21.599974 130.881760
-25.259726 -60.572422 142.242966
3.996913 -9.682745 121.291420
-48.749416 -56.702698 148.110962
52.920052 -49.182148 152.867386
10.195015 -39.809902 143.377045
-24.398476 -18.889618 110.449028
0.269554 -51.660809 145.094101
-6.889966 -9.866793 120.648666
-23.509073 -69.383583 155.767166
0.759884 -52.823402 146.068909
17.823790 -13.510271 122.782021
-1.385231 -19.028454 127.781883
-5.403142 -18.428038 126.899170
13.247862 -74.492302 153.031433
-29.836416 -77.317741 138.174286
-16.639748 -14.678905 113.704521
8.103674 -61.070869 155.605804
-5.136278 -25.431267 130.900772
-4.644043 -82.124809 141.460892
8.341504 -22.172203 131.093079
36.702988 -24.744646 122.999123
-1.781757 -81.426765 142.997894
73.375046 -28.105392 134.631500
24.759726 -75.041328 148.590164
50.879475 -46.584206 151.096909
-3.353051 -14.563196 124.343796
-26.172050 -66.283859 155.794983
27.596869 -30.245214 122.692749
-79.420837 -29.253212 128.275314
-4.487191 -27.640055 132.391525
-8.909737 -81.081215 142.339188
23.380131 -68.310417 159.494461
-82.665161 -25.744274 125.120071
34.151653 -11.948226 111.807632
75.256989 -24.483807 132.103424
-80.864311 -21.015965 122.935242
-41.653767 -60.916737 151.186081
-8.607180 -71.610863 157.986984
16.078634 -12.020956 123.644936
-49.267143 -15.970891 110.127495
-14.923600 -20.767752 115.882950
-30.776299 -63.622917 153.986038
64.722488 -36.318489 136.401901
23.467491 -72.072227 153.628006
46.547859 -55.821636 156.285080
-20.305122 -69.472000 156.871094
14.732864 -81.361504 141.956894
-20.621469 -79.433655 140.497253
61.853424 -49.004223 152.392746
-72.952316 -18.864733 113.318756
11.444179 -66.517273 159.780640
4.937209 -69.742981 160.201279
11.626272 -29.014502 136.132065
33.126640 -29.662443 126.910896
78.390297 -26.937698 141.290695
63.635063 -45.256977 151.176910
-18.459867 -81.994476 137.243637
34.756710 -61.790592 158.805878
33.646255 -15.889776 114.230652
11.102795 -9.393409 121.992249
35.565311 -33.840618 123.948608
0.776792 -49.428417 144.898895
44.533798 -29.137804 138.803757
-61.899811 -28.623308 103.276459
-1.498574 -66.850204 158.424713
-57.345638 -21.692305 107.397324
-31.144909 -65.269257 154.577515
-24.440424 -77.377975 141.699432
-8.366598 -16.032015 124.230461
-20.047834 -25.137409 112.931679
-25.621939 -80.494843 135.770752
16.935579 -74.829956 151.664322
1.684405 -44.984188 144.072266
-20.661072 -25.689308 112.356247
47.833866 -32.516914 141.057053
-31.646957 -16.349981 108.175903
-46.938591 -19.507092 107.815941
5.785228 -36.068935 140.489212
33.922592 -36.206272 118.424500
-79.942902 -13.066692 115.988022
8.892529 -38.641678 142.456879
35.635551 -26.770929 125.884315
-54.249603 -23.687876 104.814941
65.516884 -44.737457 150.628143
-13.509577 -27.345156 118.190971
-2.555927 -14.532291 124.373489
-11.452220 -13.376365 121.013367
13.805959 -77.444839 148.325775
-6.029474 -23.729443 129.388809
-23.280756 -69.372696 155.845581
0.595088 -55.251328 146.805313
-40.037106 -11.525009 105.804489
-63.160370 -18.016439 111.314453
-10.554463 -70.875961 158.362778
23.146769 -31.671383 122.925720
-29.346443 -76.970360 139.085983
15.249775 -55.447174 153.415543
4.826353 -43.128399 144.670364
2.714558 -55.052425 148.933884
-54.995037 -27.164816 100.834137
16.519449 -63.616154 158.475876
4.964240 -13.986553 124.455223
-41.956078 -22.976070 105.621185
28.074812 -74.285408 148.234283
-18.006224 -76.542953 146.593246
17.584742 -61.958382 157.580658
22.456467 -57.857033 155.462433
-9.731853 -67.935181 158.612946
61.872551 -38.672466 137.349777
23.514498 -20.399887 117.086456
-25.493689 -64.646843 155.042816
11.134836 -39.056923 142.908585
33.861950 -34.521832 121.272667
-20.129398 -16.650303 111.231194
6.042683 -33.376152 138.734818
-10.227524 -77.260925 148.191193
-35.729282 -14.965713 107.212303
39.814938 -18.801491 115.295273
8.262191 -61.531033 155.930771
27.732845 -21.294964 117.057373
47.608524 -32.274765 140.919205
-77.845222 -23.874578 123.578247
35.130707 -34.153603 122.967171
3.068439 -12.787237 123.536476
3.610910 -54.268318 149.270828
32.875183 -60.649841 158.114685
10.436758 -30.775633 137.375824
7.575080 -60.164139 154.821548
-36.987423 -28.687681 98.997467
10.707520 -39.793285 143.425934
-83.685074 -15.690323 119.674973
2.015024 -22.654995 130.787827
-65.912415 -24.024153 108.423286
12.419791 -69.624809 160.271500
-19.625341 -14.821709 111.119667
-10.223102 -80.848625 142.333267
-30.858435 -19.931526 108.725670
32.528175 -70.418816 151.424408
51.357819 -36.854164 144.110840
-11.586653 -73.808067 153.399109
-22.393137 -23.960691 111.616531
-64.971283 -11.718121 114.628258
29.332180 -29.913559 123.184517
71.835815 -23.735437 125.842171
5.545542 -12.178584 123.368454
11.270861 -68.167473 160.411606
33.985706 -11.429926 111.456070
-24.284145 -14.509912 108.580276
-45.912487 -20.510767 107.093735
-59.742798 -17.634432 111.193504
13.039772 -64.625511 158.805450
-22.072044 -24.983309 111.577019
36.821915 -57.083858 148.838898
15.218237 -79.873528 144.079071
-84.547668 -16.713776 120.345680
14.000406 -59.476734 155.739624
-40.949673 -15.162077 107.718864
34.216770 -34.778625 121.103203
-7.975354 -64.835564 149.303070
-50.830997 -21.468687 106.716553
-64.187447 -20.882301 109.486412
26.634365 -19.524441 116.097969
-58.423103 -13.490120 113.710602
29.446722 -19.424311 116.031265
50.881435 -50.204159 153.274200
-30.190500 -71.432495 148.024078
-30.437847 -27.270288 104.457779
-18.514547 -67.463921 157.376572
-27.476000 -24.205269 108.773186
-4.782194 -19.157019 127.530334
-17.917276 -62.280521 143.775955
75.602119 -32.803394 144.684784
30.253519 -19.393612 116.110962
-3.381724 -83.914429 138.720016
11.439825 -78.607948 146.989258
-42.729973 -57.529873 148.303726
-1.222518 -24.513842 131.845978
13.243549 -66.241714 159.807877
9.739054 -67.956047 160.323502
33.331406 -63.750248 159.231232
42.094509 -61.249031 157.778900
-75.477180 -23.146305 118.480652
-12.785645 -79.500740 143.625992
0.725885 -55.957939 147.256210
3.946954 -25.816811 133.277679
-14.919484 -19.226662 115.679749
7.374480 -48.799351 148.435623
-45.741982 -61.117855 149.666245
56.790466 -39.697704 145.137161
36.263851 -57.340027 148.910416
35.287743 -29.748978 129.827835
9.099268 -36.204376 140.897781
-18.825144 -18.134390 112.460518
50.803864 -37.344467 144.800217
-56.041443 -14.675413 112.741013
-33.857121 -20.054893 107.943764
-25.385551 -15.327750 108.756241
24.660124 -27.553671 120.680870
-75.457458 -12.387987 115.333748
-10.066401 -83.295929 138.172180
45.388084 -54.889149 155.772736
-78.297012 -23.153477 123.191795
33.288906 -37.092964 116.542870
-10.223888 -81.754715 140.858688
-51.039066 -20.692617 107.416641
-77.403519 -27.005999 126.739670
-31.672089 -11.450495 105.700310
-61.256538 -22.602266 107.367828
-8.311383 -15.522670 124.002235
-83.328644 -19.874146 122.386208
3.748054 -24.335423 132.155045
-35.904114 -24.581316 105.304878
-83.484398 -13.945177 118.388985
15.432878 -15.624147 125.788048
26.787119 -62.900932 158.997375
27.342108 -64.545258 159.742172
11.507239 -50.809502 150.289688
-25.893051 -67.480476 155.860825
6.879887 -38.464046 142.133224
-17.249809 -74.432182 150.383682
-0.129804 -17.975084 127.135246
1.955458 -41.802887 142.954102
-19.057575 -28.719772 112.792656
-35.103809 -24.811222 105.362083
-0.339252 -25.225758 132.464951
-46.403255 -57.567341 148.837830
-41.578274 -18.796776 107.598885
-24.186886 -65.522209 155.832169
81.589485 -27.612944 141.140594
-52.258892 -20.214388 107.973839
21.076065 -63.502693 158.870407
-12.403929 -28.563997 119.096397
25.037024 -28.561239 121.251572
45.141491 -29.123375 138.664566
-73.824280 -15.857045 114.389435
40.625645 -54.660721 146.603592
-16.434904 -79.136597 142.813919
-16.666956 -20.599379 114.529747
48.670315 -36.654400 144.604721
-60.742409 -27.570387 102.687012
6.314687 -38.723957 142.258209
-25.849529 -61.164276 144.235764
-66.220482 -24.284782 108.666512
-50.124027 -58.682518 147.908508
-67.073494 -13.829070 113.968727
1.287942 -50.597790 145.814438
72.633331 -34.150223 145.167908
-16.033895 -82.730637 137.102417
18.153595 -54.897987 153.341003
3.522822 -57.135456 150.557831
0.728171 -66.373833 157.912079
30.161942 -65.755867 159.409958
28.478985 -32.832993 122.096153
-5.002038 -29.166912 132.514893
-2.122999 -22.556730 130.348068
10.633294 -66.764114 159.890259
-28.153473 -60.304367 143.249817
5.136646 -40.937485 143.567352
10.208014 -75.923759 151.475632
-28.129221 -12.342162 106.652573
26.881874 -9.849865 113.715904
-19.263702 -83.252968 134.958908
38.097481 -24.178602 122.942429
-21.061651 -20.031012 112.065727
23.479712 -37.370888 116.704720
1.603227 -62.946201 152.182465
47.565430 -54.600494 155.691269
-16.290195 -28.812101 115.207748
-0.122824 -40.949245 141.261215
8.734686 -52.563148 150.862762
-24.497614 -66.228424 156.100540
-7.916317 -75.379669 151.865860
-70.139626 -14.960608 113.954948
-37.912601 -20.475452 107.147644
-18.660830 -66.539467 156.934357
-0.469011 -31.397823 136.618240
24.988909 -28.817156 121.405373
-79.408188 -29.009304 128.173676
-39.210293 -55.913857 139.245300
-45.433037 -57.777283 148.994873
-8.048162 -15.257665 123.986984
-60.668644 -27.832699 102.419159
18.586002 -31.256180 124.060539
82.145508 -22.492477 138.985901
-32.285980 -20.768595 108.186882
25.709667 -38.483551 113.827065
-11.238897 -30.550632 119.901962
-7.786540 -72.166267 157.151215
-25.029688 -63.977497 154.289230
10.158736 -51.325367 150.432678
-2.366820 -68.694595 159.627472
1.052426 -82.280830 141.750839
20.702192 -8.242192 118.918251
-25.975447 -10.439575 106.436562
8.421635 -11.041377 122.802170
8.626797 -51.613422 150.341293
24.619364 -30.861053 122.593391
-53.364967 -56.190121 146.536758
-45.756340 -21.286554 106.612328
-41.934505 -18.033642 107.821182
-31.826649 -65.541214 154.363129
76.457397 -33.800205 144.732025
-27.617369 -19.797644 109.600471
-24.457373 -81.598511 134.648010
-20.845987 -23.108643 112.637764
-8.757771 -77.782509 147.735016
-7.184183 -74.480209 153.402039
-3.737520 -82.399162 141.144211
-50.984913 -12.186551 112.125679
35.554893 -62.021259 158.823654
68.870987 -39.710163 148.329498
-12.880551 -66.422417 157.169342
4.998487 -74.174660 154.816849
27.027063 -72.492249 151.373535
-2.271063 -33.209892 136.660965
3.232913 -76.842049 150.596161
-68.959282 -23.308821 111.335670
9.220597 -34.248409 139.621750
37.137508 -19.139265 116.402878
-75.857437 -18.702190 114.750854
-25.784164 -16.888220 109.398758
9.989875 -26.592089 134.466064
50.498577 -51.893196 154.297165
18.647490 -53.703987 152.622116
-85.112885 -14.504737 118.977623
-29.534191 -28.312870 103.325630
-80.985992 -18.318155 120.634865
-22.698332 -70.177681 154.908875
-23.850748 -22.994064 110.954956
-63.267807 -20.077297 109.896561
-4.426922 -24.895794 131.108536
5.175252 -68.290871 160.101944
14.270060 -63.435310 158.190598
26.797176 -32.882317 122.156036
42.954826 -63.836319 153.472076
-81.976685 -13.892303 117.276764
20.569641 -74.030701 151.752396
-31.263487 -14.531256 107.527283
9.061679 -64.735580 158.323166
53.208767 -54.770374 155.158493
51.487411 -42.682487 148.735062
11.149177 -75.637901 151.738998
-6.461547 -64.017502 147.046265
-79.058502 -16.545593 116.082764
80.293129 -25.604244 140.740143
20.450357 -23.310677 119.672699
-78.355743 -24.608669 124.883186
-16.808048 -9.260229 115.312401
25.651617 -63.633591 159.273041
-10.305024 -16.634653 122.840012
73.103256 -28.869177 135.282700
20.468771 -57.431156 155.107559
32.804615 -26.709471 122.493530
7.110986 -45.690960 146.655609
24.340942 -22.192287 117.289574
-62.603230 -23.945677 106.608253
-21.985388 -81.677185 135.954544
2.006938 -61.511044 151.623489
-62.299355 -13.897146 113.603378
-18.099138 -81.355095 138.503998
39.369705 -62.760212 158.045517
72.902916 -25.152298 129.867828
9.766529 -21.619616 130.820007
12.498272 -24.026991 132.477386
-30.456179 -79.791046 133.580093
52.609726 -38.290722 145.146103
45.353703 -32.564941 141.733948
76.504913 -33.292587 144.590790
25.430901 -69.244049 157.073364
-23.189198 -70.505028 154.091263
-6.678611 -72.413986 156.943558
-48.949646 -21.402191 106.622658
-25.766987 -72.760170 148.754074
74.240761 -32.847485 144.610840
-65.796051 -18.367716 111.475464
-44.928940 -57.767117 148.989792
-3.322946 -31.049160 134.835648
19.466675 -57.461285 154.977097
72.750961 -29.885548 136.128967
11.939554 -52.698460 151.445435
49.030502 -33.478115 141.559494
-41.758934 -16.736668 107.974594
6.743255 -37.738388 141.698273
28.547260 -29.192131 122.273026
-56.188614 -13.914091 113.213348
-16.564087 -83.070236 136.341187
-14.752469 -16.388039 115.658127
-58.899754 -12.236080 114.389015
50.579231 -38.807365 146.081207
12.759793 -57.863270 154.696426
-37.814770 -57.002846 140.783920
64.292084 -37.539326 138.086151
6.877512 -44.014610 145.664841
14.370714 -15.654696 126.458603
51.230843 -52.112766 154.498108
38.745220 -55.452328 146.641434
55.699356 -40.892853 147.086151
-5.554725 -23.203403 129.505157
30.573029 -78.591278 140.302872
-54.522762 -29.297750 98.155037
-7.324042 -81.314064 142.317734
-25.731030 -10.429363 106.525452
3.780545 -43.898640 144.728836
-26.166401 -63.554123 153.813004
-32.460312 -26.290936 104.787910
-31.909367 -18.940193 108.505196
-2.647292 -32.738739 136.157852
30.687634 -11.284612 112.697906
-69.635986 -27.956879 118.472588
-29.860401 -16.536215 108.540794
-7.497661 -71.858864 157.768646
-78.851089 -13.777629 115.812202
11.029757 -61.886356 156.937424
-77.678520 -15.242299 115.404633
-55.020264 -16.946507 111.106453
-15.131537 -68.556274 158.050003
-32.694572 -17.938932 108.294495
21.221790 -62.802441 158.429153
-25.634615 -12.757290 107.426323
-85.880600 -11.796857 117.245903
-18.194082 -19.389755 113.203476
3.491530 -65.469566 156.604828
9.339823 -34.977695 140.105209
25.338230 -61.303249 157.851395
-53.974918 -23.678951 104.776176
11.785967 -34.879845 140.697479
-7.546524 -69.786293 159.163559
-35.435818 -14.438750 107.049454
-23.994884 -27.978882 108.447487
-19.455658 -70.514603 155.940430
-37.872204 -17.884300 107.611572
20.476097 -76.074554 148.760941
31.878294 -32.966942 122.640839
19.062054 -8.821503 120.426529
-49.525486 -19.078327 108.512695
79.764351 -25.624041 140.667236
-11.145756 -67.510406 158.212616
-69.972351 -11.413126 114.888542
-72.468102 -22.849783 115.310616
-11.135852 -73.783249 153.585098
-76.986176 -26.518032 125.910095
-82.303864 -22.290268 123.976242
13.601047 -54.784340 152.840179
-59.986408 -24.130896 105.610878
-45.297802 -61.092770 149.871735
-17.241846 -15.998610 113.195114
-29.816963 -23.004406 108.322464
2.166689 -64.704697 154.436386
-40.302380 -13.852506 107.115814
6.425573 -47.161255 147.250259
30.072315 -28.613972 122.571991
-74.599014 -13.361920 115.118843
-79.058022 -16.044390 115.989761
47.237247 -53.652699 155.120453
32.931419 -8.312241 109.485603
-0.429312 -29.674421 135.542145
-1.161266 -9.122628 120.423843
-55.344070 -12.351358 113.788422
31.424086 -64.015388 159.388794
-4.255414 -20.389729 128.495743
-43.534889 -15.511724 108.454224
75.422035 -18.645678 124.454132
10.874138 -61.426849 156.608429
-20.050314 -81.512550 137.262833
-52.057388 -19.946978 108.183212
24.027771 -67.782173 159.795715
-6.567333 -20.240973 127.389069
-48.139030 -24.266006 103.901047
-43.418095 -17.053822 108.239594
2.260375 -57.714184 149.765137
-49.216251 -20.367405 107.503983
7.182502 -28.916161 135.812027
-80.745857 -28.831606 127.331207
-29.399786 -76.378433 140.051956
60.352287 -44.407459 149.871735
-6.586542 -23.008141 128.572845
-0.275814 -84.442780 138.197540
9.693082 -65.173836 158.766678
26.580887 -7.767325 112.072075
9.896252 -49.904686 149.569244
-84.654579 -14.983125 119.311493
4.629007 -50.609726 148.229523
-26.854355 -65.361565 155.433121
7.504305 -69.941170 160.272064
-3.621973 -8.196249 119.570076
-16.902918 -74.696594 150.137787
-0.551484 -45.147858 142.202301
-31.852898 -71.898209 145.971115
36.701759 -9.221226 109.339920
-37.990665 -13.250668 106.413704
-78.620918 -23.158667 123.513382
34.457455 -63.011478 159.002777
-28.789141 -65.658195 155.184204
31.539845 -7.839668 109.384811
-82.339188 -15.890260 119.364655
-36.044601 -17.297821 107.706001
47.807545 -35.694649 143.976654
12.630975 -66.954361 160.124603
-24.367987 -70.310715 153.774170
-45.578781 -58.937885 149.679718
38.374748 -28.466948 134.349838
1.283796 -39.644775 141.624405
-13.489573 -78.634514 144.881302
1.235573 -18.929411 127.967003
-0.318385 -44.146797 142.178009
-23.542759 -25.841986 110.289093
-13.490058 -12.962174 118.924667
30.925772 -61.399994 158.416718
3.497222 -73.028687 156.688583
-6.404423 -79.789650 144.845871
23.330393 -61.116726 157.581009
8.586864 -55.179874 152.254044
-0.076141 -21.484062 129.723557
-30.197453 -10.095303 105.081238
5.109362 -32.918919 138.316315
-13.504754 -10.398773 118.659569
-70.446167 -12.189527 114.828598
-12.606112 -9.847158 119.152672
-8.703628 -17.568810 124.621475
-4.769735 -22.163874 129.434250
-63.525589 -14.454091 113.369392
31.007547 -59.755913 157.410446
-83.712044 -15.939067 119.849991
-83.602776 -20.377825 122.577995
31.033056 -31.102995 124.629311
-34.945927 -23.225468 106.509819
-20.902132 -66.827820 156.828613
20.131668 -61.896328 157.769943
21.797361 -71.145531 155.777206
-16.365324 -78.829826 143.368454
-70.489510 -20.818281 111.925018
-33.154232 -62.989582 153.413895
10.400563 -19.839540 129.618286
12.841331 -58.799568 155.272263
-23.753063 -13.712267 108.509277
-57.132729 -25.099453 103.812309
-28.234453 -27.147943 106.190315
9.181781 -12.288759 123.866776
0.949388 -12.871030 123.407036
23.161739 -20.148010 117.261589
36.750942 -11.591168 110.898750
55.439793 -54.237030 154.972824
-29.017076 -65.430321 155.074661
31.689224 -64.011024 159.386795
-26.166105 -13.037609 107.430893
-32.719501 -9.419930 104.351418
40.202271 -22.852974 121.047775
-67.788795 -17.926796 112.130585
27.375715 -60.083378 157.258926
6.313086 -59.767303 153.952988
1.307619 -39.399189 141.529633
3.676698 -47.050484 146.100922
-41.641106 -62.114742 151.304199
-23.683865 -63.973938 154.048798
-48.681175 -20.348091 107.486145
-4.466253 -12.321457 122.579384
-9.631483 -10.744660 120.892029
72.860794 -39.136967 147.464325
5.604324 -60.283428 153.806580
3.172237 -54.539536 149.062897
79.614250 -29.944496 142.507782
-18.820704 -66.089249 156.589920
5.530173 -13.709424 124.357574
2.506447 -9.230000 120.830391
11.522165 -66.051437 159.525131
-9.753038 -74.592934 152.628082
1.168624 -22.934519 130.940567
69.062065 -34.296803 138.402237
-16.980415 -77.664276 145.142151
12.493442 -74.196930 153.614090
-27.053944 -72.293701 148.726120
-73.823967 -13.079585 115.063927
19.067171 -58.175312 155.401093
-64.206207 -13.463475 113.879822
-9.876632 -73.442200 154.386261
64.481216 -35.155518 133.711075
8.990721 -20.395391 129.840500
-38.863331 -21.033287 106.783470
34.706203 -16.110277 114.418274
-72.231094 -15.545337 114.145103
15.253141 -11.280585 123.578117
55.365513 -48.875572 152.844772
65.923050 -45.965717 151.044098
-34.543354 -65.916176 153.375671
16.840977 -14.564498 124.073517
-38.824947 -21.292189 106.679504
-3.636672 -64.561806 148.742584
-20.356474 -68.980240 156.970856
13.260436 -7.759953 121.145584
-29.241312 -70.757217 149.849503
2.316334 -75.375267 153.002563
-20.621649 -23.097406 112.785622
-62.549278 -16.969507 111.871613
24.662073 -65.308441 159.939148
78.651100 -14.050762 123.924301
-20.852808 -82.187065 135.732071
-3.717558 -23.118244 130.385086
18.450878 -65.428497 159.750092
1.969976 -70.541046 159.933014
50.217815 -39.058952 146.306763
16.814953 -52.567238 151.777267
3.996953 -63.644039 155.010574
41.295040 -24.281263 124.712189
14.164488 -16.678154 127.132240
-9.618035 -8.953978 119.807449
8.107099 -45.656601 146.813217
22.468102 -80.029167 141.879990
-24.079689 -17.590216 110.114700
36.136433 -59.868874 157.864029
21.473795 -34.037392 123.227760
-30.743561 -24.618532 107.070648
47.888958 -35.448353 143.764160
-64.691811 -21.156208 109.449966
38.231560 -7.575362 107.441528
11.865254 -48.896030 149.127258
13.603084 -13.643907 125.359016
4.681725 -24.798256 132.601074
36.683430 -57.309681 149.196365
-6.153924 -18.712149 126.773087
5.115003 -67.137505 159.437515
-31.960129 -66.771461 154.127258
-26.812330 -12.029915 106.731964
6.655647 -63.005386 156.208557
5.681409 -82.521523 141.391769
-14.506987 -20.745123 116.271629
-51.549068 -57.058224 147.377472
27.683413 -68.754440 156.677872
4.197720 -50.636677 147.971375
3.394853 -68.565453 160.057678
0.989298 -71.908920 158.506683
21.831459 -23.761959 120.462372
-21.412056 -79.194740 140.506668
30.796339 -22.213198 117.889664
-25.353357 -27.791716 107.525734
-21.664642 -14.655484 109.791229
-72.858078 -11.780750 115.136276
26.369226 -25.708834 119.635178
-38.906902 -20.774305 106.906448
9.391031 -12.535704 124.070930
20.107738 -60.729477 157.040649
42.932785 -27.965950 137.262405
-26.602604 -17.951082 109.571220
-40.286331 -64.507011 151.289001
-48.761826 -25.076553 103.327782
51.704197 -39.755283 146.724899
-28.436312 -62.295826 151.964584
25.300087 -28.551565 121.286346
44.169876 -57.062973 156.928757
14.393643 -67.154091 160.298965
38.660717 -11.528418 109.633446
-29.669559 -10.073813 105.123695
-3.395411 -82.998444 140.207016
13.816751 -12.614705 124.661324
-0.955000 -79.308380 146.431549
-31.998976 -21.275089 108.191666
3.569440 -9.186764 120.898384
-63.124512 -13.675079 113.746933
3.334767 -63.925774 154.715988
31.603956 -31.602654 124.634201
-55.359688 -21.886627 106.874031
13.743855 -64.837914 159.032303
-44.458897 -13.744990 108.667725
58.177467 -44.930637 150.486694
41.186153 -59.525333 157.871033
-20.920925 -67.539711 156.973190
61.429443 -41.810593 146.042526
-50.492008 -26.491037 100.883392
-39.279034 -55.292332 137.594193
15.025282 -48.529190 149.815842
-37.540920 -28.444689 99.005714
3.155883 -25.844318 133.246613
-59.589748 -17.114882 111.559792
-9.014850 -13.521953 122.632523
53.871807 -43.830448 149.622635
-61.314728 -24.432459 105.697433
48.750416 -36.408459 144.395889
-0.605958 -38.771042 140.129700
62.757553 -37.914280 136.552612
-3.541747 -64.159195 147.667786
-15.360587 -29.792217 115.808113
12.928028 -20.756680 130.210419
71.208290 -29.497501 133.929169
-3.867025 -83.933182 138.597351
77.982811 -29.721066 142.962860
-15.760009 -66.928925 157.448822
50.819187 -52.843822 154.883743
27.430241 -80.229095 139.511963
1.039020 -48.435913 144.791031
-56.757721 -22.719402 106.237419
16.235334 -78.388809 146.179642
28.360033 -28.947403 122.014229
-51.503727 -58.027489 147.348038
24.983042 -24.737968 118.798721
-34.598801 -23.735575 106.299759
14.612808 -69.861862 160.002182
51.515499 -47.292442 151.569504
47.388695 -35.215309 143.632248
-16.036745 -63.463078 146.914871
-21.318176 -72.096039 152.404312
-40.069595 -17.191442 107.720016
23.161873 -28.110130 121.047180
-4.886469 -75.560928 152.101379
3.383184 -27.322136 134.286377
-20.053205 -27.218142 112.325890
3.125533 -68.807037 160.115051
74.417496 -25.793011 132.798416
7.338178 -54.046642 151.252914
-55.579411 -22.943176 105.786079
17.049086 -53.980850 152.690125
9.360031 -54.672089 152.235580
-40.406162 -12.054483 106.253357
33.712563 -36.220188 118.247414
-49.947544 -57.940331 148.077728
2.272666 -55.568188 148.760895
7.576815 -49.029991 148.626694
1.483006 -12.850045 123.427193
16.245735 -7.637696 121.226532
-57.566303 -19.879587 109.088982
57.536972 -50.280815 153.591095
-57.633411 -19.622791 109.322502
2.555661 -73.622032 155.769165
-8.396915 -9.416109 120.253563
-37.658504 -56.795258 140.211380
-14.599572 -83.833405 136.026810
20.315996 -17.880009 118.722107
58.774399 -45.638111 151.046371
10.367272 -83.432098 139.537720
39.778481 -28.865471 136.333359
0.977170 -66.367508 157.936844
-55.353397 -24.516615 104.040092
16.919203 -54.694698 153.102600
15.841181 -56.375053 154.029800
19.595970 -56.750195 154.571915
17.006380 -8.382115 121.479141
-49.312824 -15.715073 110.265892
9.455955 -75.626312 152.061279
32.719715 -57.801918 147.084259
-32.442493 -11.222616 105.530769
39.218983 -18.558805 115.352356
-48.742043 -20.089943 107.683273
-35.235935 -28.065590 100.430779
-39.167210 -13.810135 106.873611
39.893597 -29.611841 136.792358
49.214695 -35.910458 143.908035
-9.053463 -68.619293 158.950195
-25.491045 -74.778526 145.622894
-54.227943 -56.725800 146.084824
-37.019859 -61.025249 151.725235
