-0.0056435 0.186075 -0.0299777
-0.0058935 0.186575 -0.029986
-0.0061435 0.187075 -0.0299863
-0.0063935 0.187325 -0.0298813
-0.00652465 0.187325 -0.0297725
-0.0063935 0.187575 -0.0299697
-0.006636 0.187575 -0.0297725
-0.0066435 0.187825 -0.0298591
-0.0066435 0.187591 -0.0297725
-0.0068935 0.188825 -0.0300074
-0.0071435 0.189075 -0.0298889
-0.00727822 0.189075 -0.0297725
-0.00603909 0.170075 -0.0295225
-0.0053935 0.170075 -0.0297509
-0.0058935 0.170473 -0.0295225
-0.0056435 0.170825 -0.029569
-0.0056435 0.171208 -0.0295225
-0.00551823 0.171575 -0.0295225
-0.0053935 0.171936 -0.0295225
-0.00522839 0.172575 -0.0295225
-0.0046435 0.172825 -0.0296894
-0.0051435 0.172895 -0.0295225
-0.0050072 0.173325 -0.0295225
-0.0048935 0.173692 -0.0295225
-0.00471063 0.174325 -0.0295225
-0.0046435 0.174544 -0.0295225
-0.0043935 0.174575 -0.0296038
-0.00448956 0.175075 -0.0295225
-0.0041435 0.175325 -0.0296336
-0.0043935 0.175496 -0.0295225
-0.0036435 0.175825 -0.0297627
-0.0036435 0.176075 -0.0297485
-0.00421317 0.176325 -0.0295225
-0.00417765 0.176575 -0.0295225
-0.00415979 0.176825 -0.0295225
-0.0036435 0.176825 -0.0297306
-0.00415353 0.177075 -0.0295225
-0.0036435 0.177075 -0.02973
-0.0036435 0.177325 -0.0297297
-0.0041435 0.177467 -0.0295225
-0.0041393 0.177575 -0.0295225
-0.0036435 0.177575 -0.0297301
-0.0036435 0.177825 -0.0297316
-0.0036435 0.178575 -0.0297312
-0.0036435 0.178825 -0.0297311
-0.00410337 0.179325 -0.0295225
-0.0036435 0.179325 -0.0297413
-0.0038935 0.179825 -0.0296648
-0.0038935 0.180325 -0.0297061
-0.00432143 0.180575 -0.0295225
-0.0043935 0.180825 -0.0295245
-0.00439676 0.180825 -0.0295225
-0.0043935 0.180813 -0.0295225
-0.0038935 0.180825 -0.0297604
-0.0043935 0.181075 -0.0295641
-0.0041435 0.181575 -0.0297688
-0.0043935 0.181825 -0.0296866
-0.0046435 0.182325 -0.029643
-0.0050277 0.182825 -0.0295225
-0.0046435 0.182825 -0.0297497
-0.0048935 0.183075 -0.0296734
-0.0051354 0.183075 -0.0295225
-0.0051435 0.183325 -0.0295837
-0.0051435 0.183094 -0.0295225
-0.0048935 0.183325 -0.0297329
-0.0051435 0.183575 -0.0296462
-0.0051435 0.184075 -0.0297644
-0.0053935 0.184325 -0.0296724
-0.0053935 0.184575 -0.029736
-0.0056435 0.184825 -0.0296396
-0.00579954 0.184825 -0.0295225
-0.0058935 0.185075 -0.0295275
-0.00590003 0.185075 -0.0295225
-0.0058935 0.185059 -0.0295225
-0.0058935 0.185325 -0.029599
-0.0061435 0.186325 -0.0297438
-0.00652831 0.186575 -0.0295225
-0.00662578 0.186825 -0.0295225
-0.0066435 0.187075 -0.0295895
-0.0066435 0.186869 -0.0295225
-0.0066435 0.187575 -0.0297664
-0.0068935 0.187825 -0.0296547
-0.00728448 0.188325 -0.0295225
-0.00737799 0.188575 -0.0295225
-0.0073935 0.188825 -0.0295914
-0.0073935 0.188616 -0.0295225
-0.00778019 0.189575 -0.0295225
-0.0061435 0.170075 -0.029486
-0.0066435 0.170274 -0.0292725
-0.0063935 0.170325 -0.0293628
-0.0063935 0.17099 -0.0292725
-0.00627263 0.171325 -0.0292725
-0.0058935 0.171325 -0.0294171
-0.0061435 0.171705 -0.0292725
-0.0058935 0.172075 -0.0293272
-0.00598473 0.172325 -0.0292725
-0.0058935 0.172708 -0.0292725
-0.00572125 0.173325 -0.0292725
-0.0056435 0.173575 -0.0292734
-0.005646 0.173575 -0.0292725
-0.0056435 0.173583 -0.0292725
-0.0053935 0.173825 -0.0293353
-0.00549527 0.174075 -0.0292725
-0.0053935 0.174325 -0.029277
-0.00529412 0.174575 -0.0292725
-0.0048935 0.175075 -0.0293472
-0.00496146 0.175325 -0.0292725
-0.0048935 0.175537 -0.0292725
-0.0046435 0.175575 -0.0293962
-0.0043935 0.175575 -0.0295151
-0.0043935 0.175825 -0.0294895
-0.0047399 0.176075 -0.0292725
-0.0043935 0.176075 -0.0294604
-0.0043935 0.176325 -0.0294336
-0.0046435 0.17652 -0.0292725
-0.0041435 0.179075 -0.0294962
-0.0041435 0.179575 -0.0295164
-0.0043935 0.179825 -0.0293949
-0.00460437 0.180075 -0.0292725
-0.0046435 0.180325 -0.029273
-0.0046441 0.180325 -0.0292725
-0.0046435 0.180321 -0.0292725
-0.0043935 0.180325 -0.0294453
-0.0046435 0.180575 -0.0293133
-0.0046435 0.180825 -0.0293623
-0.00482963 0.181075 -0.0292725
-0.0048935 0.181325 -0.0292771
-0.0048997 0.181325 -0.0292725
-0.0048935 0.181301 -0.0292725
-0.0048935 0.181575 -0.0293231
-0.0048935 0.182325 -0.0294874
-0.0051435 0.182575 -0.0293753
-0.00528093 0.182575 -0.0292725
-0.005381 0.182825 -0.0292725
-0.0053935 0.183075 -0.0293422
-0.0053935 0.182853 -0.0292725
-0.0051435 0.183075 -0.0295173
-0.0053935 0.183325 -0.0294136
-0.0056435 0.183575 -0.0292867
-0.0053935 0.183575 -0.029481
-0.0056435 0.183825 -0.0293565
-0.0056435 0.184075 -0.029426
-0.0058935 0.184325 -0.0292864
-0.00600014 0.184575 -0.0292725
-0.0058935 0.184825 -0.0294464
-0.0061435 0.185575 -0.0294898
-0.00661815 0.186075 -0.0292725
-0.0066435 0.186325 -0.0293419
-0.0066435 0.186825 -0.0295078
-0.0068935 0.187075 -0.0293848
-0.00702941 0.187075 -0.0292725
-0.00713911 0.187325 -0.0292725
-0.0071435 0.187575 -0.0293608
-0.0072557 0.187575 -0.0292725
-0.0071435 0.187335 -0.0292725
-0.00737135 0.187825 -0.0292725
-0.0073935 0.188075 -0.0293454
-0.0073935 0.188575 -0.0295093
-0.0076435 0.188825 -0.0293849
-0.00778267 0.188825 -0.0292725
-0.00788864 0.189075 -0.0292725
-0.0078935 0.189325 -0.0293539
-0.0078935 0.189087 -0.0292725
-0.00726398 0.170325 -0.0290225
-0.0068935 0.170325 -0.0291665
-0.0069729 0.171075 -0.0290225
-0.0068935 0.171309 -0.0290225
-0.0066435 0.171325 -0.0291233
-0.0068883 0.171325 -0.0290225
-0.00673259 0.171825 -0.0290225
-0.0066435 0.172188 -0.0290225
-0.00647463 0.173075 -0.0290225
-0.0063935 0.173468 -0.0290225
-0.0056435 0.173825 -0.0292466
-0.00623804 0.174075 -0.0290225
-0.00605275 0.174575 -0.0290225
-0.0058935 0.174802 -0.0290225
-0.0056435 0.174825 -0.029101
-0.00587884 0.174825 -0.0290225
-0.0053935 0.174825 -0.0291867
-0.0053935 0.175325 -0.029061
-0.00522073 0.175825 -0.0290225
-0.0051435 0.176045 -0.0290225
-0.0048935 0.176075 -0.0291772
-0.0048935 0.176325 -0.0291337
-0.00498697 0.176575 -0.0290225
-0.0046435 0.176575 -0.029266
-0.00493815 0.176825 -0.0290225
-0.0049039 0.177075 -0.0290225
-0.0046435 0.177825 -0.0291901
-0.0046435 0.179075 -0.0291652
-0.0046435 0.179325 -0.0291737
-0.0046435 0.179575 -0.0291954
-0.004862 0.179575 -0.0290225
-0.0046435 0.179825 -0.029222
-0.00489159 0.179825 -0.0290225
-0.0048935 0.180075 -0.0290403
-0.00491247 0.180075 -0.0290225
-0.0048935 0.179845 -0.0290225
-0.0048935 0.180325 -0.0290692
-0.00507693 0.180825 -0.0290225
-0.0051435 0.181325 -0.0290865
-0.0053935 0.182325 -0.029115
-0.0053935 0.182825 -0.0292633
-0.0056435 0.183075 -0.0291431
-0.0062714 0.184575 -0.0290225
-0.00637335 0.184825 -0.0290225
-0.0063935 0.185075 -0.0291002
-0.0063935 0.184873 -0.0290225
-0.0066435 0.185825 -0.0291485
-0.00678037 0.185825 -0.0290225
-0.00688725 0.186075 -0.0290225
-0.0068935 0.186325 -0.0291155
-0.0068935 0.186089 -0.0290225
-0.0071435 0.187325 -0.0292688
-0.0073935 0.187575 -0.0291579
-0.0077778 0.188075 -0.0290225
-0.00787452 0.188325 -0.0290225
-0.0078935 0.188575 -0.0290898
-0.0078935 0.188374 -0.0290225
-0.0098935 0.189075 -0.0290706
-0.0096435 0.189016 -0.0290225
-0.0096435 0.189075 -0.029031
-0.00822719 0.189075 -0.0290225
-0.0081435 0.188928 -0.0290225
-0.0078935 0.189075 -0.0292683
-0.0103935 0.189325 -0.0290321
-0.0081435 0.189325 -0.029161
-0.00837094 0.189325 -0.0290225
-0.0105193 0.189575 -0.0290225
-0.0098935 0.189575 -0.0291491
-0.0096435 0.189575 -0.0291035
-0.0083935 0.189575 -0.0290891
-0.0083935 0.189364 -0.0290225
-0.0106233 0.189825 -0.0290225
-0.0098935 0.189825 -0.0291956
-0.0096435 0.189825 -0.0291456
-0.0093935 0.189825 -0.0290619
-0.0106435 0.189872 -0.0290225
-0.0078935 0.170075 -0.0287777
-0.0077475 0.170575 -0.0287725
-0.0076435 0.170893 -0.0287725
-0.00751406 0.171325 -0.0287725
-0.0068935 0.171325 -0.0290203
-0.00744756 0.171575 -0.0287725
-0.0068935 0.171575 -0.0289892
-0.0073935 0.17179 -0.0287725
-0.0071435 0.171825 -0.0288641
-0.00720263 0.172825 -0.0287725
-0.0071435 0.173075 -0.0287747
-0.00695798 0.174325 -0.0287725
-0.0068935 0.174562 -0.0287725
-0.0066435 0.174575 -0.0288452
-0.00688977 0.174575 -0.0287725
-0.0067907 0.174825 -0.0287725
-0.0058935 0.174825 -0.0290176
-0.0066435 0.175046 -0.0287725
-0.0063935 0.175075 -0.0288189
-0.0058935 0.175075 -0.0289465
-0.00629958 0.175325 -0.0287725
-0.0058935 0.175325 -0.0288673
-0.0056435 0.175575 -0.0288738
-0.0058935 0.17561 -0.0287725
-0.0053935 0.175825 -0.0289194
-0.00551011 0.176075 -0.0287725
-0.0053935 0.176306 -0.0287725
-0.0051435 0.176325 -0.0289567
-0.00538544 0.176325 -0.0287725
-0.00522718 0.176825 -0.0287725
-0.0051435 0.177215 -0.0287725
-0.0048935 0.177325 -0.0290051
-0.0048935 0.177825 -0.0289711
-0.0048935 0.178075 -0.0289558
-0.0048935 0.178325 -0.0289466
-0.0048935 0.178575 -0.028946
-0.0048935 0.179325 -0.0289695
-0.0048935 0.179575 -0.0289946
-0.00510127 0.179575 -0.0287725
-0.0048935 0.179825 -0.0290208
-0.00520501 0.180325 -0.0287725
-0.0052735 0.180575 -0.0287725
-0.0053935 0.181075 -0.028802
-0.0053935 0.181825 -0.0289838
-0.00604089 0.183075 -0.0287725
-0.00612409 0.183325 -0.0287725
-0.0061435 0.183575 -0.0288299
-0.00654607 0.184575 -0.0287725
-0.0066435 0.184825 -0.0287827
-0.00665549 0.184825 -0.0287725
-0.0066435 0.184798 -0.0287725
-0.0066435 0.185075 -0.0288811
-0.00676999 0.185075 -0.0287725
-0.0068762 0.185325 -0.0287725
-0.0068935 0.185575 -0.0288401
-0.0068935 0.18537 -0.0287725
-0.0068935 0.186075 -0.029017
-0.0071435 0.186325 -0.028899
-0.00728938 0.186325 -0.0287725
-0.0073935 0.186575 -0.0287734
-0.00739462 0.186575 -0.0287725
-0.0073935 0.186572 -0.0287725
-0.0073935 0.186825 -0.0288714
-0.00750814 0.186825 -0.0287725
-0.00762266 0.187075 -0.0287725
-0.0098935 0.187325 -0.0287769
-0.00991659 0.187325 -0.0287725
-0.0098935 0.187298 -0.0287725
-0.0096435 0.187311 -0.0287725
-0.0096435 0.187325 -0.0287747
-0.00963621 0.187325 -0.0287725
-0.0076435 0.187325 -0.0288531
-0.00774549 0.187325 -0.0287725
-0.0076435 0.187121 -0.0287725
-0.0098935 0.187575 -0.0288167
-0.0101232 0.187575 -0.0287725
-0.00949951 0.187575 -0.0287725
-0.00786518 0.187575 -0.0287725
-0.0101435 0.187825 -0.0288147
-0.0102554 0.187825 -0.0287725
-0.0101435 0.187598 -0.0287725
-0.0096435 0.187825 -0.0288465
-0.0093935 0.187765 -0.0287725
-0.00937138 0.187825 -0.0287725
-0.0078935 0.187825 -0.0288427
-0.00800607 0.187825 -0.0287725
-0.0103921 0.188075 -0.0287725
-0.00928072 0.188075 -0.0287725
-0.0078935 0.188075 -0.0289276
-0.0081363 0.188075 -0.0287725
-0.0103935 0.188325 -0.0288218
-0.0103935 0.188078 -0.0287725
-0.0081435 0.188325 -0.0288413
-0.0081435 0.188089 -0.0287725
-0.0078935 0.188325 -0.029007
-0.0091435 0.188575 -0.0287826
-0.0081435 0.188575 -0.0289159
-0.0106865 0.188825 -0.0287725
-0.0106435 0.188696 -0.0287725
-0.0101435 0.188825 -0.0290097
-0.0091435 0.188825 -0.0288123
-0.00891973 0.188825 -0.0287725
-0.00886475 0.188825 -0.0287725
-0.0086435 0.188649 -0.0287725
-0.0106435 0.189075 -0.0288575
-0.0093935 0.189075 -0.0289324
-0.0088935 0.189075 -0.0288217
-0.0083935 0.189075 -0.0289436
-0.0106435 0.189325 -0.0289114
-0.0086435 0.189325 -0.0289286
-0.0083935 0.189325 -0.0290115
-0.0106435 0.189575 -0.0289605
-0.0091435 0.189575 -0.0289432
-0.0086435 0.189575 -0.0289942
-0.0106435 0.189825 -0.0290119
-0.0083935 0.170212 -0.0285225
-0.00819887 0.171075 -0.0285225
-0.0081435 0.171315 -0.0285225
-0.0078935 0.171325 -0.0286208
-0.00814107 0.171325 -0.0285225
-0.0079572 0.172575 -0.0285225
-0.0078935 0.172987 -0.0285225
-0.00771147 0.174575 -0.0285225
-0.0068935 0.174575 -0.0287714
-0.0068935 0.174825 -0.0287456
-0.0076435 0.17495 -0.0285225
-0.0071435 0.175325 -0.0286287
-0.0066435 0.175325 -0.0287151
-0.00748766 0.175575 -0.0285225
-0.0066435 0.175575 -0.0286507
-0.0061435 0.175575 -0.0287166
-0.0073935 0.175814 -0.0285225
-0.0071435 0.175825 -0.028561
-0.00738682 0.175825 -0.0285225
-0.0068935 0.175825 -0.0285705
-0.0066435 0.175825 -0.0285708
-0.0063935 0.175825 -0.0285833
-0.0058935 0.175825 -0.0286889
-0.0068935 0.17603 -0.0285225
-0.0066435 0.175966 -0.0285225
-0.0063935 0.175976 -0.0285225
-0.0061435 0.17606 -0.0285225
-0.0058935 0.176075 -0.0285872
-0.00612175 0.176075 -0.0285225
-0.00582039 0.176325 -0.0285225
-0.0053935 0.176325 -0.0287668
-0.0056435 0.176575 -0.0285309
-0.00565914 0.176575 -0.0285225
-0.0053935 0.176575 -0.0286973
-0.0056435 0.176601 -0.0285225
-0.0053935 0.176825 -0.0286285
-0.00543505 0.177075 -0.0285225
-0.00528285 0.179325 -0.0285225
-0.00534903 0.179825 -0.0285225
-0.0053907 0.180075 -0.0285225
-0.0053935 0.180325 -0.0285759
-0.00544296 0.180325 -0.0285225
-0.0053935 0.180089 -0.0285225
-0.0053935 0.180825 -0.0287301
-0.00557609 0.180825 -0.0285225
-0.0056435 0.181075 -0.0285257
-0.00564643 0.181075 -0.0285225
-0.0056435 0.181065 -0.0285225
-0.0056435 0.181325 -0.0286007
-0.0061152 0.182575 -0.0285225
-0.0061435 0.182825 -0.0285821
-0.00653858 0.183825 -0.0285225
-0.00662811 0.184075 -0.0285225
-0.0066435 0.184325 -0.0285948
-0.0066435 0.184116 -0.0285225
-0.0066435 0.184575 -0.0286879
-0.0068935 0.185325 -0.0287569
-0.0096435 0.185575 -0.0285328
-0.00971065 0.185575 -0.0285225
-0.0093935 0.185558 -0.0285225
-0.0093935 0.185575 -0.0285238
-0.00938942 0.185575 -0.0285225
-0.0071435 0.185575 -0.0286251
-0.00726896 0.185575 -0.0285225
-0.0098935 0.185825 -0.0285272
-0.00933369 0.185825 -0.0285225
-0.00737548 0.185825 -0.0285225
-0.0093935 0.186075 -0.0285714
-0.0073935 0.186075 -0.0285924
-0.0073935 0.185868 -0.0285225
-0.0073935 0.186325 -0.0286792
-0.00758957 0.186325 -0.0285225
-0.0091435 0.186386 -0.0285225
-0.00908589 0.186575 -0.0285225
-0.00775987 0.186575 -0.0285225
-0.0076435 0.186442 -0.0285225
-0.0103935 0.186825 -0.0285285
-0.0096435 0.186825 -0.0286978
-0.0093935 0.186825 -0.0286515
-0.00903006 0.186825 -0.0285225
-0.0078935 0.186825 -0.0285496
-0.00797778 0.186825 -0.0285225
-0.0078935 0.186724 -0.0285225
-0.0076435 0.186825 -0.0286595
-0.0096435 0.187075 -0.0287354
-0.00898109 0.187075 -0.0285225
-0.0078935 0.187075 -0.0286193
-0.0076435 0.187075 -0.0287553
-0.0105681 0.187325 -0.0285225
-0.0101435 0.187325 -0.0287241
-0.00832287 0.187325 -0.0285225
-0.0106435 0.187575 -0.0285268
-0.0106498 0.187575 -0.0285225
-0.0106435 0.187553 -0.0285225
-0.0101435 0.187575 -0.0287681
-0.0093935 0.187575 -0.0287439
-0.0088935 0.187575 -0.0285433
-0.0078935 0.187575 -0.0287565
-0.0106435 0.187825 -0.0285795
-0.0103935 0.187825 -0.0287172
-0.0086435 0.187825 -0.0285564
-0.0083935 0.187825 -0.0286176
-0.0106435 0.188075 -0.0286376
-0.0108107 0.188075 -0.0285225
-0.0103935 0.188075 -0.0287719
-0.0088935 0.188075 -0.0286289
-0.0086435 0.188075 -0.0286224
-0.0081435 0.188075 -0.0287693
-0.0106435 0.188325 -0.0286946
-0.0108923 0.188325 -0.0285225
-0.0088935 0.188325 -0.0286664
-0.0086435 0.188325 -0.0286881
-0.0083935 0.188325 -0.0287482
-0.0108935 0.188575 -0.0285755
-0.0108935 0.188329 -0.0285225
-0.0088935 0.188575 -0.0287169
-0.0088935 0.188825 -0.0287674
-0.0108935 0.189075 -0.0286942
-0.0108935 0.189325 -0.0287527
-0.0111435 0.189575 -0.0286105
-0.0113172 0.189825 -0.0285225
-0.0088935 0.170288 -0.0282725
-0.0086435 0.170325 -0.0283902
-0.0087351 0.171075 -0.0282725
-0.00869154 0.171325 -0.0282725
-0.0081435 0.171325 -0.0285215
-0.0081435 0.171575 -0.0284994
-0.0086435 0.171648 -0.0282725
-0.0081435 0.172075 -0.0284718
-0.0078935 0.173325 -0.0285054
-0.00846982 0.173825 -0.0282725
-0.00845001 0.174075 -0.0282725
-0.0078935 0.174075 -0.028489
-0.00842659 0.174325 -0.0282725
-0.0083935 0.174641 -0.0282725
-0.0073935 0.175825 -0.0285214
-0.0073935 0.176075 -0.0284914
-0.0071435 0.176075 -0.0285201
-0.0066435 0.176075 -0.0284849
-0.0061435 0.176075 -0.0285159
-0.0078935 0.176325 -0.028375
-0.0076435 0.176325 -0.0284291
-0.0071435 0.176325 -0.0284714
-0.0066435 0.176325 -0.0284056
-0.0058935 0.176325 -0.0284887
-0.0076435 0.176575 -0.0284115
-0.0073935 0.176575 -0.0284294
-0.0068935 0.176575 -0.0283848
-0.00820495 0.176825 -0.0282725
-0.0076435 0.176825 -0.0283867
-0.0073935 0.176825 -0.0283928
-0.0071435 0.176825 -0.0283662
-0.0061435 0.176761 -0.0282725
-0.0056435 0.176825 -0.0284531
-0.00818212 0.177075 -0.0282725
-0.0078935 0.177075 -0.0283301
-0.0073935 0.177075 -0.0283535
-0.00700147 0.177075 -0.0282725
-0.0058935 0.176984 -0.0282725
-0.0081435 0.177322 -0.0282725
-0.0078935 0.177325 -0.0283085
-0.00814271 0.177325 -0.0282725
-0.0076435 0.177325 -0.0283215
-0.0073935 0.177325 -0.0283028
-0.0071435 0.177227 -0.0282725
-0.0056435 0.177325 -0.0283015
-0.0053935 0.177325 -0.0284941
-0.0078935 0.177575 -0.0282869
-0.0073935 0.17748 -0.0282725
-0.0056435 0.177446 -0.0282725
-0.0053935 0.177825 -0.028411
-0.00554003 0.177825 -0.0282725
-0.0053935 0.178575 -0.0283569
-0.0053935 0.179325 -0.0283872
-0.00552429 0.179575 -0.0282725
-0.0053935 0.180075 -0.0285193
-0.00572933 0.180575 -0.0282725
-0.00579677 0.180825 -0.0282725
-0.0061435 0.182325 -0.0284008
-0.00654203 0.183075 -0.0282725
-0.0091435 0.183325 -0.0282773
-0.00663185 0.183325 -0.0282725
-0.0066435 0.183575 -0.0283459
-0.0066435 0.183356 -0.0282725
-0.0096435 0.183825 -0.0282781
-0.0093935 0.184075 -0.0283444
-0.00894454 0.184075 -0.0282725
-0.0066435 0.184075 -0.0285088
-0.0098935 0.184325 -0.0282824
-0.0091435 0.184325 -0.0283524
-0.0088935 0.184263 -0.0282725
-0.0088935 0.184325 -0.0282771
-0.0068935 0.184325 -0.0283801
-0.00702392 0.184325 -0.0282725
-0.0100261 0.184575 -0.0282725
-0.0088935 0.184575 -0.0282988
-0.00713267 0.184575 -0.0282725
-0.0101409 0.184825 -0.0282725
-0.0091435 0.184825 -0.028405
-0.00878783 0.184825 -0.0282725
-0.0071435 0.184825 -0.0283564
-0.00726388 0.184825 -0.0282725
-0.0071435 0.184599 -0.0282725
-0.0101435 0.185075 -0.0283184
-0.0101435 0.184831 -0.0282725
-0.0073935 0.185075 -0.0282758
-0.0073998 0.185075 -0.0282725
-0.0073935 0.185065 -0.0282725
-0.0101435 0.185325 -0.0283619
-0.0096435 0.185325 -0.028505
-0.0093935 0.185325 -0.0285034
-0.0073935 0.185325 -0.0283552
-0.0104196 0.185575 -0.0282725
-0.0103935 0.185497 -0.0282725
-0.0101435 0.185575 -0.0284051
-0.0098935 0.185575 -0.0284911
-0.0087143 0.185575 -0.0282725
-0.00771001 0.185575 -0.0282725
-0.0103935 0.185825 -0.0283358
-0.0091435 0.185825 -0.0284598
-0.0078935 0.185825 -0.0282731
-0.00789579 0.185825 -0.0282725
-0.0078935 0.185823 -0.0282725
-0.0076435 0.185825 -0.0283663
-0.0101435 0.186075 -0.0284931
-0.0091435 0.186075 -0.0284778
-0.0088935 0.186075 -0.0283643
-0.0086435 0.186075 -0.0282787
-0.0078935 0.186075 -0.0283262
-0.010656 0.186325 -0.0282725
-0.0103935 0.186325 -0.0284289
-0.0091435 0.186325 -0.0285126
-0.0088935 0.186325 -0.0283913
-0.0081435 0.186156 -0.0282725
-0.0076435 0.186325 -0.0284922
-0.0103935 0.186575 -0.0284783
-0.0088935 0.186575 -0.0284222
-0.0086435 0.186575 -0.0283312
-0.0083935 0.186411 -0.0282725
-0.0083935 0.186575 -0.0283026
-0.0081435 0.186575 -0.0283739
-0.0086435 0.186825 -0.0283688
-0.0081435 0.186825 -0.0284513
-0.0106435 0.187075 -0.0284316
-0.0086435 0.187075 -0.0284132
-0.0083935 0.187075 -0.0284233
-0.0106435 0.187325 -0.028479
-0.0088935 0.187325 -0.0285062
-0.0086435 0.187325 -0.0284506
-0.0083935 0.187325 -0.0284857
-0.0108935 0.187575 -0.0283466
-0.0086435 0.187575 -0.0284938
-0.0108935 0.188325 -0.0285216
-0.0111435 0.188575 -0.0283688
-0.0113237 0.188825 -0.0282725
-0.0113897 0.189075 -0.0282725
-0.0113935 0.189325 -0.0283296
-0.0113935 0.189089 -0.0282725
-0.0134493 0.189575 -0.0282725
-0.0115487 0.189575 -0.0282725
-0.0116319 0.189825 -0.0282725
-0.0116435 0.189858 -0.0282725
-0.0091435 0.170325 -0.0281399
-0.00919953 0.171325 -0.0280225
-0.0091675 0.171575 -0.0280225
-0.0091435 0.171797 -0.0280225
-0.0088935 0.171825 -0.0281427
-0.0086435 0.173075 -0.0282207
-0.0086435 0.173325 -0.0282133
-0.0086435 0.175075 -0.0281676
-0.0083935 0.175325 -0.0282428
-0.0083935 0.175575 -0.0282322
-0.0083935 0.175825 -0.0282279
-0.0086435 0.176075 -0.0281496
-0.0066435 0.176825 -0.0282578
-0.0063935 0.176825 -0.0282283
-0.0086435 0.177075 -0.0281428
-0.0068935 0.177075 -0.0282381
-0.0081435 0.177325 -0.0282724
-0.0071435 0.177325 -0.0282435
-0.0066435 0.177325 -0.0280857
-0.0061435 0.177325 -0.0280849
-0.0058935 0.177325 -0.028167
-0.0081435 0.177575 -0.0282621
-0.0073935 0.177575 -0.0282505
-0.0068935 0.177575 -0.0280752
-0.00666073 0.177575 -0.0280225
-0.0066435 0.177562 -0.0280225
-0.0063935 0.177461 -0.0280225
-0.0061435 0.177563 -0.0280225
-0.0058935 0.177575 -0.02812
-0.00613624 0.177575 -0.0280225
-0.0086435 0.177825 -0.0281513
-0.0081435 0.177825 -0.0282537
-0.0078935 0.177825 -0.0282677
-0.0076435 0.177825 -0.0282497
-0.0073935 0.177825 -0.0281891
-0.0071435 0.177825 -0.0280879
-0.0068935 0.177747 -0.0280225
-0.0058935 0.177825 -0.0280807
-0.0086435 0.178075 -0.0281485
-0.0081435 0.178075 -0.0282419
-0.0078935 0.178075 -0.0282488
-0.0076435 0.178075 -0.028215
-0.00714602 0.178075 -0.0280225
-0.0071435 0.178071 -0.0280225
-0.0058935 0.177998 -0.0280225
-0.0056435 0.178075 -0.0281492
-0.00583598 0.178075 -0.0280225
-0.0086435 0.178325 -0.0281443
-0.0081435 0.178325 -0.0282268
-0.0076435 0.178325 -0.0281759
-0.0073935 0.178325 -0.0280683
-0.00727355 0.178325 -0.0280225
-0.00577118 0.178325 -0.0280225
-0.0086435 0.178575 -0.0281431
-0.0078935 0.178575 -0.0281978
-0.0076435 0.178575 -0.0281272
-0.0073935 0.178575 -0.0280248
-0.00738833 0.178575 -0.0280225
-0.0056435 0.178575 -0.0281005
-0.0086435 0.178825 -0.0281457
-0.00747295 0.178825 -0.0280225
-0.0073935 0.17859 -0.0280225
-0.0057239 0.178825 -0.0280225
-0.0086435 0.179075 -0.028142
-0.0081435 0.179075 -0.0281844
-0.0076435 0.179075 -0.0280603
-0.0056435 0.179075 -0.0280985
-0.0086435 0.179325 -0.0281336
-0.0083935 0.179325 -0.0281597
-0.00766422 0.179325 -0.0280225
-0.0076435 0.179283 -0.0280225
-0.00574309 0.179325 -0.0280225
-0.0081435 0.179575 -0.0281291
-0.0078935 0.179575 -0.0280698
-0.00778858 0.179575 -0.0280225
-0.00577122 0.179575 -0.0280225
-0.0086435 0.179825 -0.0281203
-0.0081435 0.179825 -0.0281014
-0.0078935 0.179825 -0.0280295
-0.00580677 0.179825 -0.0280225
-0.0086435 0.180075 -0.0281179
-0.0083935 0.180075 -0.028127
-0.0081435 0.180075 -0.0280895
-0.00800273 0.180075 -0.0280225
-0.00584858 0.180075 -0.0280225
-0.0086435 0.180325 -0.0281157
-0.0058935 0.180325 -0.0280261
-0.00589717 0.180325 -0.0280225
-0.0058935 0.180307 -0.0280225
-0.0088935 0.180575 -0.0280931
-0.0083935 0.180575 -0.0281096
-0.0081435 0.180575 -0.0280475
-0.0058935 0.180575 -0.0280917
-0.00596185 0.180575 -0.0280225
-0.0088935 0.180825 -0.0281057
-0.0081435 0.180825 -0.0280345
-0.0088935 0.181075 -0.0281166
-0.0083935 0.181075 -0.0280985
-0.0091435 0.181325 -0.0280938
-0.0086435 0.181325 -0.0281237
-0.0083935 0.181325 -0.0280832
-0.00824413 0.181325 -0.0280225
-0.0061435 0.181217 -0.0280225
-0.0086435 0.181575 -0.0281237
-0.00832521 0.181575 -0.0280225
-0.00626416 0.181575 -0.0280225
-0.0093935 0.181825 -0.0280776
-0.00956165 0.181825 -0.0280225
-0.0083935 0.181825 -0.0280461
-0.0093935 0.182075 -0.0280993
-0.00964072 0.182075 -0.0280225
-0.0088935 0.182075 -0.0281565
-0.0083935 0.182075 -0.0280405
-0.0063935 0.18193 -0.0280225
-0.0096435 0.182325 -0.0280583
-0.0096435 0.182081 -0.0280225
-0.0093935 0.182325 -0.0281308
-0.0086435 0.182325 -0.0281199
-0.0083935 0.182325 -0.028025
-0.00654956 0.182325 -0.0280225
-0.0091435 0.182575 -0.0282016
-0.0086435 0.182575 -0.0281238
-0.00842116 0.182575 -0.0280225
-0.0083935 0.182367 -0.0280225
-0.0066435 0.182575 -0.0280286
-0.00665301 0.182575 -0.0280225
-0.0066435 0.182556 -0.0280225
-0.0088935 0.182825 -0.0282097
-0.00845923 0.182825 -0.0280225
-0.0066435 0.182825 -0.0281043
-0.00675927 0.182825 -0.0280225
-0.0086435 0.183075 -0.0281394
-0.0066435 0.183075 -0.0281833
-0.0098935 0.183325 -0.0281183
-0.0093935 0.183325 -0.0282612
-0.00696139 0.183325 -0.0280225
-0.0068935 0.183156 -0.0280225
-0.0066435 0.183325 -0.0282621
-0.0098935 0.183575 -0.0281599
-0.0088935 0.183575 -0.0282424
-0.00842225 0.183575 -0.0280225
-0.0068935 0.183575 -0.0281372
-0.00705735 0.183575 -0.0280225
-0.0098935 0.183825 -0.0281994
-0.0086435 0.183825 -0.0281309
-0.00845943 0.183825 -0.0280225
-0.0071435 0.183825 -0.0280317
-0.00715989 0.183825 -0.0280225
-0.0071435 0.183791 -0.0280225
-0.0098935 0.184075 -0.0282402
-0.0088935 0.184075 -0.0282581
-0.008449 0.184075 -0.0280225
-0.0071435 0.184075 -0.0281033
-0.00728754 0.184075 -0.0280225
-0.0101435 0.184325 -0.0281784
-0.0073935 0.18425 -0.0280225
-0.0101435 0.184575 -0.0282237
-0.0071435 0.184575 -0.0282647
-0.0105719 0.184825 -0.0280225
-0.0101435 0.184825 -0.0282714
-0.0083935 0.184825 -0.0280729
-0.00819991 0.184825 -0.0280225
-0.0078935 0.184825 -0.0280412
-0.0076435 0.184825 -0.0281025
-0.0073935 0.184825 -0.028201
-0.0106435 0.185075 -0.0280229
-0.010644 0.185075 -0.0280225
-0.0106435 0.185073 -0.0280225
-0.0103935 0.185075 -0.0281892
-0.0086435 0.185075 -0.0282238
-0.0081435 0.185075 -0.0280768
-0.0076435 0.185075 -0.0281699
-0.0106435 0.185325 -0.0280738
-0.0083935 0.185325 -0.0281423
-0.0078935 0.185325 -0.0281559
-0.0086435 0.185575 -0.0282411
-0.0081435 0.185575 -0.0281625
-0.0078935 0.185575 -0.0282112
-0.0086435 0.185825 -0.0282552
-0.0083935 0.185825 -0.0281808
-0.0081435 0.185825 -0.0282083
-0.0106435 0.186075 -0.0282331
-0.0083935 0.186075 -0.0282171
-0.0081435 0.186075 -0.0282524
-0.0083935 0.186325 -0.0282596
-0.0108935 0.186575 -0.0281425
-0.0108935 0.186825 -0.0281956
-0.0110903 0.186825 -0.0280225
-0.0111435 0.187075 -0.0280256
-0.0111473 0.187075 -0.0280225
-0.0111435 0.18706 -0.0280225
-0.0111435 0.187325 -0.0280788
-0.0115567 0.188575 -0.0280225
-0.0136435 0.188735 -0.0280225
-0.0116402 0.188825 -0.0280225
-0.0138935 0.18888 -0.0280225
-0.0116435 0.189075 -0.0280828
-0.0117632 0.189075 -0.0280225
-0.0116435 0.188834 -0.0280225
-0.0113935 0.189075 -0.028269
-0.0136435 0.189325 -0.0282139
-0.0118935 0.189325 -0.0280275
-0.0119074 0.189325 -0.0280225
-0.0118935 0.189305 -0.0280225
-0.0116435 0.189325 -0.0281451
-0.0138935 0.189575 -0.0282424
-0.0133935 0.189575 -0.0282692
-0.0128935 0.189575 -0.0281046
-0.0126435 0.189575 -0.0280298
-0.0118935 0.189575 -0.0280867
-0.0141435 0.189825 -0.02823
-0.0126435 0.189825 -0.0280848
-0.0116435 0.189825 -0.0282647
-0.0146435 0.190075 -0.0280805
-0.0143935 0.190075 -0.0282056
-0.0093935 0.170325 -0.0279997
-0.00970997 0.171075 -0.0277725
-0.00968236 0.171325 -0.0277725
-0.00965901 0.171575 -0.0277725
-0.0096435 0.171791 -0.0277725
-0.0093935 0.171825 -0.0278984
-0.00964083 0.171825 -0.0277725
-0.0091435 0.174575 -0.0279533
-0.0091435 0.174825 -0.0279493
-0.0091435 0.175575 -0.0279415
-0.0091435 0.175825 -0.0279442
-0.0091435 0.176575 -0.0279458
-0.0091435 0.176825 -0.0279473
-0.00960495 0.177575 -0.0277725
-0.0091435 0.177575 -0.0279701
-0.0066435 0.177575 -0.028018
-0.0063935 0.177575 -0.0279823
-0.0061435 0.177575 -0.0280192
-0.00962332 0.177825 -0.0277725
-0.0068935 0.177825 -0.0279956
-0.0066435 0.177825 -0.0279292
-0.0061435 0.177825 -0.0279632
-0.0071435 0.178075 -0.0280213
-0.0063935 0.178075 -0.0278607
-0.0058935 0.178075 -0.0279931
-0.00965181 0.178325 -0.0277725
-0.0068935 0.178325 -0.0278421
-0.0063935 0.178325 -0.0278134
-0.0061435 0.178325 -0.0278518
-0.00967607 0.178575 -0.0277725
-0.0071435 0.178575 -0.0278821
-0.0066435 0.178469 -0.0277725
-0.0061435 0.178575 -0.02782
-0.00631138 0.178575 -0.0277725
-0.0091435 0.178825 -0.028003
-0.0071435 0.178825 -0.0278225
-0.00622748 0.178825 -0.0277725
-0.0091435 0.179075 -0.0280084
-0.00714741 0.179075 -0.0277725
-0.0071435 0.179064 -0.0277725
-0.00620572 0.179075 -0.0277725
-0.0091435 0.179325 -0.0280089
-0.0076435 0.179325 -0.0280134
-0.0073935 0.179325 -0.0278584
-0.00724822 0.179325 -0.0277725
-0.00621854 0.179325 -0.0277725
-0.0093935 0.179575 -0.0279232
-0.00624083 0.179575 -0.0277725
-0.0093935 0.179825 -0.0279286
-0.0091435 0.179825 -0.0280095
-0.0076435 0.179825 -0.0278964
-0.0073935 0.179713 -0.0277725
-0.0061435 0.179825 -0.0278086
-0.00622753 0.179825 -0.0277725
-0.0058935 0.179825 -0.0279541
-0.0091435 0.180075 -0.0280157
-0.0076435 0.180075 -0.0278477
-0.00752826 0.180075 -0.0277725
-0.0061435 0.180075 -0.0278072
-0.00620954 0.180075 -0.0277725
-0.00983121 0.180325 -0.0277725
-0.0093935 0.180325 -0.0279546
-0.0078935 0.180325 -0.0279551
-0.00764712 0.180325 -0.0277725
-0.0076435 0.180317 -0.0277725
-0.0061435 0.180325 -0.0278341
-0.0078935 0.180575 -0.0279172
-0.00765912 0.180575 -0.0277725
-0.0061435 0.180575 -0.0278747
-0.0063058 0.180575 -0.0277725
-0.00766841 0.180825 -0.0277725
-0.0061435 0.180825 -0.0279243
-0.0093935 0.181075 -0.0280095
-0.0081435 0.181075 -0.0280079
-0.00772425 0.181075 -0.0277725
-0.0096435 0.181325 -0.0279479
-0.00780265 0.181325 -0.0277725
-0.00658097 0.181325 -0.0277725
-0.0100909 0.181575 -0.0277725
-0.0096435 0.181575 -0.0279726
-0.0066435 0.181472 -0.0277725
-0.0101435 0.181825 -0.0277738
-0.010146 0.181825 -0.0277725
-0.0101435 0.181813 -0.0277725
-0.0066435 0.181825 -0.0278495
-0.00682994 0.181825 -0.0277725
-0.0101435 0.182075 -0.0278066
-0.0096435 0.182075 -0.0280216
-0.0066435 0.182075 -0.0279126
-0.0098935 0.182325 -0.0279633
-0.0081435 0.182325 -0.0278733
-0.00704609 0.182325 -0.0277725
-0.0081435 0.182575 -0.0278529
-0.00797261 0.182575 -0.0277725
-0.0071435 0.182575 -0.0277728
-0.00714416 0.182575 -0.0277725
-0.0071435 0.182574 -0.0277725
-0.0068935 0.182575 -0.0279072
-0.0083935 0.182825 -0.0279811
-0.0081435 0.182825 -0.0278543
-0.0071435 0.182825 -0.0278272
-0.00728812 0.182825 -0.0277725
-0.0083935 0.183075 -0.0280028
-0.00741392 0.183075 -0.0277725
-0.0068935 0.183075 -0.0280041
-0.0101435 0.183325 -0.0280034
-0.0083935 0.183325 -0.0280073
-0.0081435 0.183325 -0.0278584
-0.00793257 0.183325 -0.0277725
-0.0103935 0.183575 -0.0279036
-0.0083935 0.183575 -0.0280041
-0.0081435 0.183575 -0.0278716
-0.0078935 0.183575 -0.0277975
-0.0076435 0.183575 -0.027801
-0.0073935 0.183575 -0.0278747
-0.0071435 0.183575 -0.0279732
-0.0106435 0.183825 -0.0277823
-0.0083935 0.183825 -0.0279773
-0.0078935 0.183825 -0.0278118
-0.0073935 0.183825 -0.0279231
-0.0103935 0.184075 -0.0279958
-0.0081435 0.184075 -0.0279
-0.0078935 0.184075 -0.0278731
-0.0073935 0.184075 -0.0279767
-0.0106435 0.184325 -0.0278745
-0.0083935 0.184325 -0.0280034
-0.0078935 0.184325 -0.0279205
-0.0076435 0.184325 -0.0279618
-0.0106435 0.184575 -0.0279252
-0.0108362 0.184575 -0.0277725
-0.0081435 0.184575 -0.0279686
-0.0078935 0.184575 -0.0279831
-0.0108935 0.184825 -0.0277784
-0.0109005 0.184825 -0.0277725
-0.0108935 0.184797 -0.0277725
-0.0081435 0.184825 -0.0280063
-0.0108935 0.185075 -0.0278328
-0.0108935 0.185575 -0.0279387
-0.0110798 0.185575 -0.0277725
-0.0108935 0.185825 -0.0279912
-0.0113157 0.186575 -0.0277725
-0.0111435 0.186825 -0.0279734
-0.0116435 0.187743 -0.0277725
-0.0113935 0.187825 -0.0279807
-0.0138596 0.188075 -0.0277725
-0.0136435 0.187933 -0.0277725
-0.0131435 0.188075 -0.027787
-0.0117598 0.188075 -0.0277725
-0.0138935 0.188325 -0.027846
-0.0141171 0.188325 -0.0277725
-0.0138935 0.188098 -0.0277725
-0.0131435 0.188325 -0.027856
-0.0128935 0.188325 -0.0277873
-0.0116435 0.188325 -0.027896
-0.0118716 0.188325 -0.0277725
-0.0143018 0.188575 -0.0277725
-0.0141435 0.188354 -0.0277725
-0.0133935 0.188575 -0.0279744
-0.0126435 0.188561 -0.0277725
-0.0126435 0.188575 -0.0277759
-0.0126224 0.188575 -0.0277725
-0.0118935 0.188575 -0.0278484
-0.0121073 0.188575 -0.0277725
-0.0118935 0.188352 -0.0277725
-0.0144638 0.188825 -0.0277725
-0.0131435 0.188825 -0.0279905
-0.0123935 0.188758 -0.0277725
-0.0121435 0.188825 -0.0278154
-0.0116435 0.188825 -0.0280206
-0.0146258 0.189075 -0.0277725
-0.0141435 0.189075 -0.028007
-0.0128935 0.189075 -0.0279773
-0.0118935 0.189075 -0.0279683
-0.0146435 0.189325 -0.0278502
-0.0147711 0.189325 -0.0277725
-0.0146435 0.189101 -0.0277725
-0.0143935 0.189325 -0.0279806
-0.0126435 0.189325 -0.0279594
-0.0121435 0.189325 -0.0279354
-0.0146435 0.189575 -0.0279284
-0.0148932 0.189575 -0.0277725
-0.0123935 0.189575 -0.0279731
-0.0148935 0.189825 -0.0278493
-0.0148935 0.189576 -0.0277725
-0.0101892 0.170325 -0.0275225
-0.0101715 0.170575 -0.0275225
-0.0101435 0.170917 -0.0275225
-0.0096435 0.171825 -0.0277711
-0.0096435 0.172075 -0.0277623
-0.0096435 0.172325 -0.0277528
-0.0096435 0.172575 -0.0277443
-0.0096435 0.172825 -0.02774
-0.0096435 0.173075 -0.0277391
-0.0096435 0.173325 -0.0277401
-0.0096435 0.173825 -0.0277323
-0.00996363 0.174075 -0.0275225
-0.00994597 0.174325 -0.0275225
-0.00993486 0.174575 -0.0275225
-0.00992665 0.174825 -0.0275225
-0.00993042 0.175075 -0.0275225
-0.00993881 0.175325 -0.0275225
-0.0096435 0.176575 -0.0277161
-0.0096435 0.177325 -0.0277433
-0.0096435 0.178075 -0.0277688
-0.0101154 0.178325 -0.0275225
-0.0063935 0.178575 -0.0277512
-0.0101501 0.178825 -0.0275225
-0.0068935 0.178825 -0.0277355
-0.0066435 0.178825 -0.0276885
-0.01017 0.179075 -0.0275225
-0.0098935 0.179075 -0.0276783
-0.0071435 0.179075 -0.02777
-0.0068935 0.179075 -0.0276696
-0.0063935 0.179075 -0.0276846
-0.0098935 0.179325 -0.0276874
-0.0071435 0.179325 -0.0277067
-0.0066435 0.179325 -0.0276247
-0.0063935 0.179325 -0.0276691
-0.0098935 0.179575 -0.0276966
-0.0071435 0.179575 -0.0276661
-0.0066435 0.179575 -0.0276126
-0.0063935 0.179575 -0.0276594
-0.0073935 0.179825 -0.0277399
-0.0066435 0.179825 -0.0275858
-0.0063935 0.179825 -0.0276788
-0.0098935 0.180075 -0.027722
-0.0073935 0.180075 -0.0276726
-0.0071435 0.180075 -0.0275739
-0.0068935 0.180075 -0.0275467
-0.0063935 0.180075 -0.0276728
-0.0076435 0.180325 -0.0277696
-0.0073935 0.180325 -0.0276278
-0.0071435 0.180325 -0.0275248
-0.0066435 0.180325 -0.0275852
-0.0098935 0.180575 -0.0277618
-0.0076435 0.180575 -0.0277613
-0.0073935 0.180575 -0.0275959
-0.0068935 0.180575 -0.0275345
-0.00711363 0.180575 -0.0275225
-0.0076435 0.180825 -0.0277545
-0.0073935 0.180825 -0.0275766
-0.0068935 0.180825 -0.0275454
-0.00702519 0.180825 -0.0275225
-0.0063935 0.180825 -0.0277625
-0.0101435 0.181075 -0.0276802
-0.0076435 0.181075 -0.027714
-0.0073935 0.181075 -0.0275781
-0.0068935 0.181075 -0.0275803
-0.00708866 0.181075 -0.0275225
-0.0066435 0.181075 -0.0276726
-0.0101435 0.181325 -0.0277133
-0.0076435 0.181325 -0.0276639
-0.0073935 0.181325 -0.0275865
-0.0068935 0.181325 -0.027621
-0.00711314 0.181325 -0.0275225
-0.0066435 0.181325 -0.0277329
-0.0076435 0.181575 -0.0276427
-0.0071435 0.181575 -0.0275738
-0.0103935 0.181825 -0.0276353
-0.0105752 0.181825 -0.0275225
-0.0078935 0.181825 -0.0277563
-0.0076435 0.181825 -0.0276418
-0.0073935 0.181825 -0.0276059
-0.0071435 0.181825 -0.0276164
-0.0068935 0.181825 -0.0277373
-0.0078935 0.182075 -0.0277277
-0.0073935 0.182075 -0.0276121
-0.0071435 0.182075 -0.0276653
-0.0103935 0.182325 -0.027704
-0.0076435 0.182325 -0.0276391
-0.0073935 0.182325 -0.02764
-0.0103935 0.182575 -0.0277417
-0.0078935 0.182575 -0.0277304
-0.0073935 0.182575 -0.0276792
-0.0076435 0.182825 -0.0276806
-0.0108269 0.183075 -0.0275225
-0.0078935 0.183075 -0.0277456
-0.0076435 0.183075 -0.0277198
-0.0108782 0.183325 -0.0275225
-0.0078935 0.183325 -0.0277569
-0.0108935 0.183404 -0.0275225
-0.0106435 0.183575 -0.0277387
-0.0110736 0.184325 -0.0275225
-0.0108935 0.184575 -0.0277249
-0.0115587 0.186325 -0.0275225
-0.0113935 0.186575 -0.0277029
-0.0116406 0.186575 -0.0275225
-0.0116435 0.186825 -0.0275758
-0.0116435 0.186584 -0.0275225
-0.0132703 0.187075 -0.0275225
-0.0138627 0.187325 -0.0275225
-0.0136435 0.18714 -0.0275225
-0.0131435 0.187325 -0.0275836
-0.0141072 0.187575 -0.0275225
-0.0138935 0.18735 -0.0275225
-0.0136435 0.187575 -0.0276597
-0.0131435 0.187575 -0.027658
-0.0128935 0.187575 -0.0276043
-0.0124863 0.187575 -0.0275225
-0.0121435 0.187459 -0.0275225
-0.0141435 0.187614 -0.0275225
-0.0138935 0.187825 -0.0276813
-0.0133935 0.187825 -0.0277558
-0.0131435 0.187825 -0.0277232
-0.0144894 0.188075 -0.0275225
-0.0138935 0.188075 -0.0277651
-0.0126435 0.188075 -0.0276512
-0.0146435 0.188325 -0.0275273
-0.0146517 0.188325 -0.0275225
-0.0146435 0.188311 -0.0275225
-0.0141435 0.188325 -0.0277636
-0.0126435 0.188325 -0.0277097
-0.0121435 0.188325 -0.0276845
-0.0118935 0.188325 -0.0277634
-0.0146435 0.188575 -0.0276046
-0.0147821 0.188575 -0.0275225
-0.0143935 0.188575 -0.0277323
-0.0121435 0.188575 -0.0277584
-0.0146435 0.189075 -0.0277633
-0.0148935 0.189325 -0.0276949
-0.0148935 0.189575 -0.0277723
-0.0104482 0.171575 -0.0272725
-0.0104373 0.171825 -0.0272725
-0.0104253 0.172075 -0.0272725
-0.0104146 0.172325 -0.0272725
-0.010408 0.172575 -0.0272725
-0.0104017 0.172825 -0.0272725
-0.0103935 0.173065 -0.0272725
-0.0101435 0.173075 -0.0274365
-0.0103931 0.173075 -0.0272725
-0.0103844 0.173325 -0.0272725
-0.0103658 0.176075 -0.0272725
-0.0104075 0.176575 -0.0272725
-0.0101435 0.177075 -0.0274641
-0.0101435 0.177575 -0.0274886
-0.0101435 0.178075 -0.0275001
-0.0106494 0.180075 -0.0272725
-0.0071435 0.180575 -0.0275212
-0.0071435 0.180825 -0.0275078
-0.0071435 0.181075 -0.0275103
-0.0106435 0.181325 -0.0274031
-0.0108272 0.181325 -0.0272725
-0.0071435 0.181325 -0.0275144
-0.0108935 0.182575 -0.0273962
-0.0110866 0.182825 -0.0272725
-0.0113052 0.184075 -0.0272725
-0.0114103 0.184575 -0.0272725
-0.0114741 0.184825 -0.0272725
-0.0115426 0.185075 -0.0272725
-0.0116916 0.185575 -0.0272725
-0.0116435 0.185433 -0.0272725
-0.0113935 0.185575 -0.0274888
-0.0116435 0.185825 -0.027352
-0.0117808 0.185825 -0.0272725
-0.0118849 0.186075 -0.0272725
-0.0118935 0.186325 -0.0273305
-0.0118935 0.186093 -0.0272725
-0.0136435 0.186575 -0.0273383
-0.0138519 0.186575 -0.0272725
-0.0131435 0.186575 -0.0273744
-0.0128935 0.186575 -0.0273296
-0.0126435 0.186575 -0.027275
-0.0116435 0.186575 -0.0275205
-0.0138935 0.186614 -0.0272725
-0.0133935 0.186825 -0.027457
-0.0131435 0.186825 -0.0274416
-0.0118935 0.186825 -0.027446
-0.0131435 0.187075 -0.0275101
-0.0118935 0.187075 -0.027505
-0.014477 0.187325 -0.0272725
-0.0143935 0.187194 -0.0272725
-0.0138935 0.187325 -0.0275141
-0.0126435 0.187325 -0.0274643
-0.0146308 0.187575 -0.0272725
-0.0141435 0.187575 -0.0275093
-0.0123935 0.187575 -0.0275127
-0.0146435 0.187825 -0.0273502
-0.0146435 0.187596 -0.0272725
-0.0143935 0.187825 -0.0274843
-0.0103935 0.173075 -0.0272723
-0.0103935 0.173325 -0.0272662
-0.0103935 0.173575 -0.0272587
-0.010698 0.174325 -0.0270225
-0.0106894 0.174575 -0.0270225
-0.010683 0.174825 -0.0270225
-0.0106846 0.175075 -0.0270225
-0.0103935 0.175825 -0.027248
-0.0108612 0.177575 -0.0270225
-0.0108726 0.177825 -0.0270225
-0.0108806 0.178075 -0.0270225
-0.0109032 0.178575 -0.0270225
-0.0109265 0.178825 -0.0270225
-0.011099 0.180825 -0.0270225
-0.0108935 0.181075 -0.0271932
-0.0111401 0.181075 -0.0270225
-0.0111435 0.181325 -0.0270526
-0.0111435 0.181093 -0.0270225
-0.0111435 0.182075 -0.0271386
-0.0113448 0.182575 -0.0270225
-0.0113935 0.183575 -0.0271209
-0.0115771 0.183825 -0.0270225
-0.0116435 0.18412 -0.0270225
-0.0113935 0.184325 -0.0272395
-0.011781 0.184575 -0.0270225
-0.011871 0.184825 -0.0270225
-0.0118935 0.185075 -0.0270664
-0.0119989 0.185075 -0.0270225
-0.0118935 0.184879 -0.0270225
-0.0116435 0.185075 -0.0272037
-0.0121377 0.185325 -0.0270225
-0.0116435 0.185325 -0.0272513
-0.0128935 0.185575 -0.0270485
-0.0126589 0.185575 -0.0270225
-0.0121435 0.185575 -0.0270714
-0.0121435 0.185335 -0.0270225
-0.0131435 0.185825 -0.0271371
-0.0126435 0.185582 -0.0270225
-0.0126435 0.185825 -0.027078
-0.0123935 0.185626 -0.0270225
-0.0133935 0.186075 -0.0272099
-0.0126435 0.186075 -0.0271426
-0.0121435 0.186075 -0.0271803
-0.0118935 0.186075 -0.0272683
-0.0136435 0.186325 -0.0272493
-0.0126435 0.186325 -0.0272084
-0.0121435 0.186325 -0.0272403
-0.0144236 0.186575 -0.0270225
-0.0143935 0.186525 -0.0270225
-0.0138935 0.186575 -0.0272591
-0.0123935 0.186575 -0.0272568
-0.0141435 0.186825 -0.0272542
-0.0146435 0.187575 -0.0272653
-0.0111946 0.170575 -0.0267725
-0.0111827 0.170825 -0.0267725
-0.0108935 0.171075 -0.0269757
-0.0111435 0.171277 -0.0267725
-0.0108935 0.171325 -0.0269627
-0.0110885 0.176325 -0.0267725
-0.0111496 0.176825 -0.0267725
-0.0111758 0.177075 -0.0267725
-0.0108935 0.177325 -0.0269884
-0.0111435 0.179325 -0.0268984
-0.0111435 0.179575 -0.02691
-0.0111435 0.180075 -0.0269398
-0.0111435 0.180325 -0.0269523
-0.0113563 0.180325 -0.0267725
-0.0111435 0.180575 -0.0269664
-0.0113935 0.180752 -0.0267725
-0.0111435 0.181075 -0.0270199
-0.0113935 0.181325 -0.0268444
-0.0115866 0.182075 -0.0267725
-0.0113935 0.182325 -0.0269509
-0.0116435 0.182575 -0.0267918
-0.0117308 0.182825 -0.0267725
-0.0113935 0.182825 -0.0270106
-0.0116435 0.183075 -0.0268597
-0.0116435 0.183325 -0.0268995
-0.0119363 0.183575 -0.0267725
-0.0118935 0.183436 -0.0267725
-0.0116435 0.183575 -0.0269385
-0.0118935 0.184075 -0.0268673
-0.0118935 0.184575 -0.0269604
-0.0128935 0.184825 -0.0268732
-0.0118935 0.184825 -0.0270106
-0.0121435 0.185075 -0.0269676
-0.0133935 0.185325 -0.0269617
-0.0128935 0.185325 -0.0269897
-0.0121435 0.185325 -0.0270204
-0.0141652 0.185575 -0.0267725
-0.0141435 0.185546 -0.0267725
-0.0138935 0.185575 -0.0268833
-0.0126435 0.185575 -0.0270208
-0.0123935 0.185575 -0.0270106
-0.0143578 0.185825 -0.0267725
-0.0143935 0.185872 -0.0267725
-0.0141435 0.186075 -0.0269787
-0.0143935 0.186325 -0.0269478
-0.0114512 0.170825 -0.0265225
-0.0113935 0.171075 -0.02656
-0.0114306 0.171075 -0.0265225
-0.011407 0.171325 -0.0265225
-0.0113935 0.1715 -0.0265225
-0.0111435 0.172325 -0.026717
-0.0113653 0.172325 -0.0265225
-0.0113644 0.175825 -0.0265225
-0.0111435 0.176075 -0.0267065
-0.0116197 0.179325 -0.0265225
-0.0116546 0.179825 -0.0265225
-0.0116742 0.180075 -0.0265225
-0.0113935 0.180075 -0.0267308
-0.0116435 0.181075 -0.0266267
-0.0116435 0.181575 -0.0266859
-0.0116435 0.181825 -0.02671
-0.0116435 0.182075 -0.0267333
-0.0128935 0.183325 -0.026523
-0.0128958 0.183325 -0.0265225
-0.0128935 0.183323 -0.0265225
-0.0126435 0.183184 -0.0265225
-0.0118935 0.183325 -0.026757
-0.0131435 0.183575 -0.0265277
-0.0131579 0.183575 -0.0265225
-0.0131435 0.183554 -0.0265225
-0.0128935 0.183575 -0.0265748
-0.0121435 0.183575 -0.0266831
-0.0131435 0.183825 -0.0265894
-0.0128935 0.183825 -0.0266259
-0.0133935 0.183881 -0.0265225
-0.0128935 0.184075 -0.0266805
-0.0121435 0.184075 -0.0267593
-0.0131435 0.184325 -0.0267222
-0.0128935 0.184325 -0.0267417
-0.0123935 0.184325 -0.0267411
-0.0133935 0.184575 -0.0267355
-0.0141052 0.184825 -0.0265225
-0.0136435 0.184825 -0.0267205
-0.0141435 0.184873 -0.0265225
-0.0138935 0.185075 -0.0267077
-0.0143935 0.185575 -0.026653
-0.0117009 0.170825 -0.0262725
-0.0116723 0.171075 -0.0262725
-0.0116435 0.171384 -0.0262725
-0.0116238 0.171825 -0.0262725
-0.0113935 0.172075 -0.0264933
-0.0116258 0.172075 -0.0262725
-0.0116307 0.172325 -0.0262725
-0.0116407 0.172575 -0.0262725
-0.0113935 0.172825 -0.0265015
-0.011637 0.172825 -0.0262725
-0.0116303 0.173075 -0.0262725
-0.0113935 0.173325 -0.026491
-0.0116296 0.173325 -0.0262725
-0.0116323 0.173575 -0.0262725
-0.0116238 0.174575 -0.0262725
-0.0116313 0.174825 -0.0262725
-0.0116467 0.175325 -0.0262725
-0.0116595 0.175575 -0.0262725
-0.0113935 0.175575 -0.0264871
-0.0118663 0.177825 -0.0262725
-0.0118916 0.178075 -0.0262725
-0.0118935 0.178325 -0.0262843
-0.0118935 0.178101 -0.0262725
-0.0119298 0.178575 -0.0262725
-0.0116435 0.178825 -0.0264812
-0.0116435 0.179075 -0.0264937
-0.0118935 0.180325 -0.0263979
-0.0118935 0.180575 -0.0264207
-0.0122834 0.180825 -0.0262725
-0.0118935 0.180825 -0.0264475
-0.0123787 0.181075 -0.0262725
-0.0118935 0.181075 -0.0264774
-0.0123935 0.181119 -0.0262725
-0.0121435 0.181325 -0.026388
-0.0127265 0.181825 -0.0262725
-0.0128818 0.182075 -0.0262725
-0.0128935 0.182325 -0.0263163
-0.0130191 0.182325 -0.0262725
-0.0128935 0.182092 -0.0262725
-0.0123935 0.182325 -0.0264297
-0.0121435 0.182325 -0.0265078
-0.0128935 0.182575 -0.0263645
-0.0128935 0.182825 -0.026414
-0.0123935 0.182825 -0.026497
-0.0131435 0.183075 -0.0263998
-0.0131435 0.183325 -0.026464
-0.0137431 0.183575 -0.0262725
-0.0133935 0.183575 -0.0264333
-0.0138935 0.183825 -0.0262748
-0.0138976 0.183825 -0.0262725
-0.0138935 0.183818 -0.0262725
-0.0138935 0.184075 -0.0263564
-0.0141435 0.184575 -0.0264081
-0.011963 0.170825 -0.0260225
-0.0119335 0.171075 -0.0260225
-0.0118935 0.171519 -0.0260225
-0.0118891 0.171575 -0.0260225
-0.0116435 0.171575 -0.0262603
-0.0118796 0.171825 -0.0260225
-0.0118794 0.172075 -0.0260225
-0.0118826 0.172325 -0.0260225
-0.011887 0.172575 -0.0260225
-0.0118858 0.172825 -0.0260225
-0.0118864 0.173075 -0.0260225
-0.0118935 0.173658 -0.0260225
-0.0118912 0.173825 -0.0260225
-0.0118867 0.174075 -0.0260225
-0.0116435 0.174325 -0.0262511
-0.0118971 0.174575 -0.0260225
-0.0119056 0.174825 -0.0260225
-0.0119135 0.175075 -0.0260225
-0.0119261 0.175325 -0.0260225
-0.0121507 0.177325 -0.0260225
-0.0118935 0.177575 -0.0262339
-0.0118935 0.178075 -0.0262711
-0.0121435 0.178325 -0.0261079
-0.0123581 0.179325 -0.0260225
-0.0123916 0.179575 -0.0260225
-0.0123935 0.179825 -0.0260498
-0.0123935 0.179585 -0.0260225
-0.0125246 0.180075 -0.0260225
-0.0121435 0.180075 -0.0262274
-0.0126411 0.180325 -0.0260225
-0.0126435 0.180575 -0.0260803
-0.0127767 0.180575 -0.0260225
-0.0126435 0.18033 -0.0260225
-0.0123935 0.180575 -0.0261847
-0.0130254 0.181075 -0.0260225
-0.0123935 0.181075 -0.0262671
-0.0131299 0.181325 -0.0260225
-0.0126435 0.181325 -0.0262183
-0.0131435 0.181575 -0.0260662
-0.0131435 0.181356 -0.0260225
-0.0126435 0.181575 -0.0262582
-0.0128935 0.182075 -0.0262692
-0.0131435 0.182325 -0.0262267
-0.0133935 0.182825 -0.026228
-0.0122133 0.170825 -0.0257725
-0.0121805 0.171075 -0.0257725
-0.0121435 0.171444 -0.0257725
-0.0121219 0.173325 -0.0257725
-0.0121346 0.173575 -0.0257725
-0.0121435 0.173825 -0.0257738
-0.0121448 0.173825 -0.0257725
-0.0121435 0.173793 -0.0257725
-0.0121435 0.174075 -0.0257796
-0.0121507 0.174075 -0.0257725
-0.0121435 0.174325 -0.0257867
-0.0121663 0.174575 -0.0257725
-0.0121728 0.174825 -0.0257725
-0.0123461 0.176575 -0.0257725
-0.0125937 0.178325 -0.0257725
-0.0123935 0.179075 -0.0259789
-0.012811 0.179575 -0.0257725
-0.0123935 0.179575 -0.0260213
-0.0128935 0.179825 -0.0257772
-0.0129022 0.179825 -0.0257725
-0.0128935 0.179802 -0.0257725
-0.0126435 0.179825 -0.0259092
-0.0128935 0.180075 -0.0258364
-0.0130116 0.180075 -0.0257725
-0.013136 0.180325 -0.0257725
-0.0126435 0.180325 -0.0260214
-0.0131435 0.180575 -0.0258407
-0.0132575 0.180575 -0.0257725
-0.0131435 0.180339 -0.0257725
-0.0128935 0.180575 -0.0259698
-0.0133756 0.180825 -0.0257725
-0.0133935 0.180865 -0.0257725
-0.0131435 0.181075 -0.0259671
-0.0131435 0.181325 -0.0260163
-0.0133935 0.181575 -0.0259362
-0.0137614 0.181825 -0.0257725
-0.0133935 0.181825 -0.0259951
-0.0138786 0.182075 -0.0257725
-0.0138935 0.182325 -0.0258388
-0.0138935 0.182105 -0.0257725
-0.0138935 0.182825 -0.0259797
-0.0124631 0.170825 -0.0255225
-0.0124293 0.171075 -0.0255225
-0.0123994 0.171325 -0.0255225
-0.0121435 0.173075 -0.0257391
-0.0123721 0.173575 -0.0255225
-0.0123953 0.174075 -0.0255225
-0.0124061 0.174325 -0.0255225
-0.0124182 0.174575 -0.0255225
-0.0124304 0.174825 -0.0255225
-0.0123935 0.176325 -0.0256987
-0.0125914 0.176325 -0.0255225
-0.0128422 0.177825 -0.0255225
-0.0128935 0.178075 -0.0255236
-0.012895 0.178075 -0.0255225
-0.0128935 0.178068 -0.0255225
-0.0126435 0.178075 -0.0257081
-0.0128935 0.178325 -0.0255588
-0.0131435 0.179825 -0.0256348
-0.0135278 0.180325 -0.0255225
-0.0131435 0.180325 -0.0257684
-0.0133935 0.180575 -0.025687
-0.0136356 0.180575 -0.0255225
-0.0136435 0.180825 -0.0255906
-0.0136435 0.180593 -0.0255225
-0.0133935 0.180825 -0.0257616
-0.0138935 0.182075 -0.0257635
-0.0127235 0.170575 -0.0252725
-0.0126929 0.170825 -0.0252725
-0.0126435 0.17125 -0.0252725
-0.0123935 0.173325 -0.025487
-0.012619 0.173575 -0.0252725
-0.0126268 0.173825 -0.0252725
-0.0126343 0.174075 -0.0252725
-0.0126435 0.174325 -0.0252739
-0.0126449 0.174325 -0.0252725
-0.0126435 0.174291 -0.0252725
-0.0126435 0.174575 -0.0252865
-0.0126746 0.174825 -0.0252725
-0.0128105 0.176075 -0.0252725
-0.0128935 0.176534 -0.0252725
-0.0128935 0.177575 -0.0254423
-0.0131435 0.178075 -0.0253345
-0.0131435 0.178575 -0.0254184
-0.0133196 0.178575 -0.0252725
-0.0131435 0.179075 -0.0254889
-0.0133935 0.179325 -0.0253545
-0.0136435 0.180575 -0.0255172
-0.0128935 0.170946 -0.0250225
-0.0126435 0.172075 -0.0252189
-0.0126435 0.173325 -0.0252394
-0.0128695 0.174075 -0.0250225
-0.0128793 0.174325 -0.0250225
-0.0128925 0.174575 -0.0250225
-0.0128935 0.174825 -0.0250388
-0.0129096 0.174825 -0.0250225
-0.0128935 0.174589 -0.0250225
-0.0128935 0.175075 -0.0250594
-0.0130839 0.176075 -0.0250225
-0.0131392 0.176325 -0.0250225
