197.1294 94.99992 98.39129
197.1294 96.99996 98.39129
197.1294 98.99998 98.39129
197.1294 108.0001 98.39129
197.1294 110.0001 98.39129
197.1294 112.0002 98.39129
197.1294 114.0002 98.39129
197.1294 125.0004 98.39129
197.1294 127.0004 98.39129
197.1294 129.0004 98.39129
197.1294 131.0005 98.39129
197.1294 145.5007 98.39129
197.1294 147.5007 98.39129
197.1403 21.39826 57.1433
197.2686 29.86079 88.6714
197.2686 170.1392 88.6714
197.2704 35.89165 94.0209
197.3028 25.85567 82.67149
197.3065 24.77801 80.2981
197.3071 21.79903 61.88649
197.3195 22.4371 69.0879
197.3337 32.72396 91.6021
197.3849 156.6474 97.51821
197.482 45.5125 98.06821
197.6146 174.5644 81.85561
197.7021 22.95951 73.7358
197.7173 178.0525 63.3316
197.7906 23.47572 76.29161
197.7906 176.5243 76.29161
197.7979 37.6408 95.25281
197.8277 178.6999 55.2974
197.8429 27.47048 85.5878
197.8683 164.0317 94.24871
197.9521 177.667 67.537
197.9674 167.1921 91.8469
197.9833 21.07099 52.17781
198.0143 41.6141 97.1633
198.0221 22.111 65.00091
198.0444 161.4684 95.81231
198.0653 60.99941 98.73231
198.0653 62.99944 98.73231
198.0653 74.49961 98.73231
198.0653 79.49969 98.73231
198.0653 81.49972 98.73231
198.0653 83.49975 98.73231
198.0653 85.49978 98.73231
198.0653 87.49981 98.73231
198.0653 89.49984 98.73231
198.0653 101 98.73231
198.0653 103 98.73231
198.0653 105.0001 98.73231
198.0653 116.0002 98.73231
198.0653 118.0003 98.73231
198.0653 120.0003 98.73231
198.0653 122.0003 98.73231
198.0653 133.0005 98.73231
198.0653 135.0005 98.73231
198.0653 137.0006 98.73231
198.0653 139.0006 98.73231
198.0653 141.0006 98.73231
198.0653 143.0006 98.73231
198.095 20.72964 47.02536
198.1855 22.68503 71.1825
198.1884 21.66419 59.5957
198.1884 178.3358 59.5957
198.2278 152.3451 98.65402
198.2446 154.9501 98.24041
198.3206 178.971 51.2586
198.4902 173.5142 84.0608
198.4994 149.7371 98.89251
198.5018 48.54224 98.8324
198.5063 159.6618 96.8172
198.5404 34.43838 93.35041
198.6303 28.7545 87.59931
198.6303 171.2455 87.59931
198.6407 31.4286 90.71441
198.6713 177.1871 72.21051
198.7068 24.21424 78.88651
198.7107 21.38313 55.6099
198.8589 43.38506 98.0325
198.8612 177.811 65.3071
198.8621 175.9277 78.4499
198.8827 179.1985 47.29963
198.9389 177.4096 69.6827
198.9822 169.2265 90.1109
198.9947 20.9493 49.42001
198.9992 50.49925 99.079
198.9992 52.49928 99.079
198.9992 54.49931 99.079
198.9992 56.49935 99.079
198.9992 58.49938 99.079
198.9992 64.99947 99.079
198.9992 66.9995 99.079
198.9992 68.99953 99.079
198.9992 70.99956 99.079
198.9992 76.49965 99.079
198.9992 91.49987 99.079
198.9992 93.4999 99.079
198.9992 95.49993 99.079
198.9992 97.49996 99.079
198.9992 107.0001 99.079
198.9992 109.0001 99.079
198.9992 111.0002 99.079
198.9992 113.0002 99.079
198.9992 124.0004 99.079
198.9992 126.0004 99.079
198.9992 128.0004 99.079
198.9992 130.0005 99.079
198.9992 145.0007 99.079
198.9992 147.0007 99.079
199.0076 157.8224 97.6983
199.0157 175.219 80.4905
199.0953 22.36016 67.06671
199.154 165.4741 93.59109
199.1866 38.68117 96.25059
199.2353 26.58365 84.36051
199.2451 178.4873 56.84629
199.3046 163.003 95.33541
199.3666 176.8894 74.276
199.3831 21.90272 61.5926
199.3831 178.0973 61.5926
199.3995 46.0308 98.84551
199.4056 178.7094 53.7698
199.465 25.23342 81.642
199.6575 36.21724 94.94451
199.6944 40.49126 97.2735
199.7723 21.64234 58.0828
199.86 33.08164 92.59461
199.8878 178.962 49.75734
199.8985 174.2791 82.7733
199.9173 23.32459 75.38821
199.9309 60.49941 99.4315
199.9309 62.49944 99.4315
199.9309 72.99959 99.4315
199.9309 78.49968 99.4315
199.9309 80.49971 99.4315
199.9309 82.49974 99.4315
199.9309 84.49977 99.4315
199.9309 86.4998 99.4315
199.9309 88.49983 99.4315
199.9309 99.49999 99.4315
199.9309 101.5 99.4315
199.9309 103.5001 99.4315
199.9309 115.0002 99.4315
199.9309 117.0003 99.4315
199.9309 119.0003 99.4315
199.9309 121.0003 99.4315
199.9309 132.0005 99.4315
199.9309 134.0005 99.4315
199.9309 136.0005 99.4315
199.9309 138.0006 99.4315
199.9309 140.0006 99.4315
199.9309 142.0006 99.4315
199.9817 153.9079 99.0677
199.9899 30.24261 89.75169
200.0276 27.76971 86.4657
200.0276 172.2303 86.4657
200.0757 22.61965 69.223
200.083 161.1932 96.6005
200.1003 21.20325 51.9293
200.1813 151.3153 99.4668
200.2185 167.609 92.0569
200.2601 22.18469 64.2671
200.2608 22.89338 71.9741
200.2901 178.2272 59.3191
200.3013 21.37232 54.096
200.3438 170.3606 89.10652
200.3717 156.4343 98.61259
200.4559 176.4316 76.4931
200.4953 47.86127 99.5115
200.5412 177.8561 63.5912
200.6181 164.4515 94.76669
200.6381 44.45344 98.94972
200.6472 20.96823 47.93868
200.7405 177.4785 67.6933
200.7545 24.00625 78.21961
200.78 158.9195 97.883
200.8334 50.01877 99.7754
200.8436 178.5012 55.3431
200.8605 52.99929 99.78971
200.8605 54.99932 99.78971
200.8605 56.99935 99.78971
200.8605 64.49947 99.78971
200.8605 66.4995 99.78971
200.8605 68.49953 99.78971
200.8605 70.49956 99.78971
200.8605 74.99962 99.78971
200.8605 90.49986 99.78971
200.8605 92.49989 99.78971
200.8605 94.49992 99.78971
200.8605 96.49995 99.78971
200.8605 105.5001 99.78971
200.8605 107.5001 99.78971
200.8605 109.5001 99.78971
200.8605 111.5002 99.78971
200.8605 123.0004 99.78971
200.8605 125.0004 99.78971
200.8605 127.0004 99.78971
200.8605 129.0004 99.78971
200.8605 144.0007 99.78971
200.8605 146.0007 99.78971
200.8605 148.0007 99.78971
200.8703 177.0407 72.2172
200.8887 24.65896 80.27811
200.9882 34.80887 94.32501
201.005 178.715 52.262
201.0571 41.96053 98.3201
201.1055 38.10795 96.5447
201.1651 21.85373 59.6491
201.2158 175.631 79.42
201.2232 31.82828 91.75791
201.327 174.9094 81.44501
201.3635 22.43199 66.25911
201.375 29.1719 88.7195
201.3778 21.62634 56.5906
201.4061 25.94032 83.4005
201.4243 26.90655 85.2643
201.4243 173.0935 85.2643
201.5564 178.9497 48.27609
201.5948 168.8138 91.17541
201.6543 177.6089 65.5897
201.6652 178.0135 60.8872
201.6848 177.2114 69.85891
201.7084 21.20261 50.42769
201.7352 46.29754 99.7518
201.7385 171.3767 88.03551
201.7401 166.6119 93.36051
201.7672 163.2455 95.9262
201.7878 58.99938 100.1536
201.7878 60.99941 100.1536
201.7878 72.49958 100.1536
201.7878 76.99965 100.1536
201.7878 78.99968 100.1536
201.7878 80.99971 100.1536
201.7878 82.99974 100.1536
201.7878 84.99977 100.1536
201.7878 86.9998 100.1536
201.7878 98.49998 100.1536
201.7878 100.5 100.1536
201.7878 102.5 100.1536
201.7878 113.5002 100.1536
201.7878 115.5002 100.1536
201.7878 117.5003 100.1536
201.7878 119.5003 100.1536
201.7878 131.0005 100.1536
201.7878 133.0005 100.1536
201.7878 135.0005 100.1536
201.7878 137.0006 100.1536
201.7878 139.0006 100.1536
201.7878 141.0006 100.1536
201.9019 178.2445 57.8378
201.9365 23.17419 73.5601
201.9609 22.14715 62.5725
201.9755 152.8224 99.9852
202.0699 36.16209 95.61951
202.0728 39.75508 97.719
202.0847 176.7139 74.40671
202.109 150.2724 100.2663
202.1335 22.92627 70.9415
202.1828 23.69713 76.7816
202.3016 157.8559 98.81751
202.364 33.49758 93.6196
202.3726 22.69379 68.3447
202.4114 160.9383 97.4782
202.4375 155.3059 99.6626
202.4424 48.92569 100.3544
202.465 21.49023 53.86129
202.465 178.5098 53.86129
202.5548 43.0227 99.2147
202.6229 177.7414 63.3586
202.6238 30.68451 90.84532
202.6278 178.7166 50.7753
202.6509 175.9999 78.0087
202.6833 164.9893 94.9541
202.7128 50.99926 100.5232
202.7128 53.4993 100.5232
202.7128 55.49933 100.5232
202.7128 62.99944 100.5232
202.7128 64.99947 100.5232
202.7128 66.9995 100.5232
202.7128 68.99953 100.5232
202.7128 74.49961 100.5232
202.7128 88.99983 100.5232
202.7128 90.99986 100.5232
202.7128 92.9999 100.5232
202.7128 94.99992 100.5232
202.7128 104.5001 100.5232
202.7128 106.5001 100.5232
202.7128 108.5001 100.5232
202.7128 110.5002 100.5232
202.7128 121.5003 100.5232
202.7128 123.5004 100.5232
202.7128 125.5004 100.5232
202.7128 127.5004 100.5232
202.7128 143.0006 100.5232
202.7128 145.0007 100.5232
202.7128 147.0007 100.5232
202.7886 21.83849 58.1825
202.7892 28.22165 87.6234
202.8214 25.32261 82.08311
202.8418 173.8271 84.01281
203.0057 169.9061 90.2206
203.079 22.3985 64.59021
203.1013 37.70834 96.92951
203.1032 24.34198 79.22161
203.1424 167.8313 92.5612
203.1596 172.2699 86.90371
203.294 178.0285 59.4317
203.3968 21.21096 48.97622
203.4635 176.8476 72.11631
203.5089 175.2835 80.4051
203.5324 177.2598 67.92871
203.5373 178.2549 56.3789
203.5552 26.29688 84.32241
203.6356 57.49936 100.8985
203.6356 59.49939 100.8985
203.6356 70.99956 100.8985
203.6356 76.49965 100.8985
203.6356 78.49968 100.8985
203.6356 80.49971 100.8985
203.6356 82.49974 100.8985
203.6356 84.49977 100.8985
203.6356 86.4998 100.8985
203.6356 96.99996 100.8985
203.6356 98.99998 100.8985
203.6356 101 100.8985
203.6356 112.5002 100.8985
203.6356 114.5002 100.8985
203.6356 116.5003 100.8985
203.6356 118.5003 100.8985
203.6356 129.5004 100.8985
203.6356 131.5005 100.8985
203.6356 133.5005 100.8985
203.6356 135.5005 100.8985
203.6356 137.5006 100.8985
203.6356 139.5006 100.8985
203.6356 149.0007 100.8985
203.6399 44.87455 100.1519
203.6499 40.77286 98.71762
203.6889 23.50537 75.1033
203.7184 47.41288 100.6904
203.7707 163.5321 96.32711
203.7853 22.10742 60.67939
203.8605 178.749 49.15665
203.8688 32.30743 92.8712
203.9115 21.70002 55.477
203.9193 177.5103 64.9369
203.9358 151.716 100.8865
203.9761 166.5571 93.9825
204.0046 159.9153 98.5139
204.0154 21.40531 51.3127
204.0432 34.65119 95.0398
204.0551 29.65589 89.86181
204.0868 176.2273 76.57871
204.1107 178.5127 52.402
204.1443 22.66181 66.6103
204.1693 157.5503 99.58361
204.1917 23.2517 72.4375
204.2257 27.39622 86.46931
204.2612 177.7535 61.9252
204.2728 174.4282 82.71781
204.3068 23.04581 70.3788
204.361 50.01281 101.1835
204.4446 170.8807 89.1979
204.4605 154.1533 100.6916
204.5162 24.04949 77.8024
204.556 52.49928 101.2795
204.556 54.49931 101.2795
204.556 61.49942 101.2795
204.556 63.49945 101.2795
204.556 65.49948 101.2795
204.556 67.49951 101.2795
204.556 72.99959 101.2795
204.556 88.49983 101.2795
204.556 90.49986 101.2795
204.556 92.49989 101.2795
204.556 94.49992 101.2795
204.556 103 101.2795
204.556 105.0001 101.2795
204.556 107.0001 101.2795
204.556 109.0001 101.2795
204.556 120.5003 101.2795
204.556 122.5003 101.2795
204.556 124.5004 101.2795
204.556 126.5004 101.2795
204.556 141.5006 101.2795
204.556 143.5006 101.2795
204.556 145.5007 101.2795
204.6002 173.0364 85.7172
204.6703 168.9225 91.7252
204.7211 22.38896 63.1695
204.7272 38.73956 98.03951
204.7408 165.2106 95.33851
204.7761 36.03143 96.3062
204.7917 42.56004 99.84431
204.9301 175.6353 79.0126
204.9469 21.96488 58
204.9469 178.0351 58
204.9798 24.97037 81.0568
204.9938 25.70434 83.0384
205.0544 176.8541 70.6961
205.0944 161.9161 97.76911
205.1016 31.06522 91.79781
205.18 176.4816 73.98611
205.197 178.258 54.9436
205.474 56.49935 101.6662
205.474 58.49938 101.6662
205.474 69.49954 101.6662
205.474 74.99962 101.6662
205.474 76.99965 101.6662
205.474 78.99968 101.6662
205.474 80.99971 101.6662
205.474 82.99974 101.6662
205.474 84.99977 101.6662
205.474 96.49995 101.6662
205.474 98.49998 101.6662
205.474 100.5 101.6662
205.474 111.0002 101.6662
205.474 113.0002 101.6662
205.474 115.0002 101.6662
205.474 117.0003 101.6662
205.474 128.5004 101.6662
205.474 130.5005 101.6662
205.474 132.5005 101.6662
205.474 134.5005 101.6662
205.474 136.5006 101.6662
205.474 138.5006 101.6662
205.474 147.5007 101.6662
205.4909 149.8153 101.6586
205.5103 28.74715 88.81301
205.569 21.39997 49.83672
205.5714 177.514 63.53351
205.5715 177.1086 67.77201
205.5775 21.69905 54.0457
205.6171 33.3887 94.3339
205.6317 156.4548 100.4931
205.6515 46.05057 101.1935
205.6658 48.55603 101.612
205.6774 26.69912 85.2634
205.7103 174.8945 81.3859
205.7817 178.5097 50.9663
205.7955 22.66104 65.2191
205.8836 23.63237 74.33551
205.9047 171.7332 88.1128
205.9168 23.04306 68.9544
205.9232 22.24421 60.5177
205.9232 177.7558 60.5177
205.9243 23.8962 76.36499
205.9323 40.45307 99.3313
205.9323 159.5469 99.3313
205.9543 170.1109 90.4925
206.0124 51.09266 101.8962
206.0495 152.2093 101.6695
206.0532 173.6729 84.48219
206.0586 167.2769 93.7888
206.0649 163.5628 96.96411
206.0853 176.1527 75.91811
206.2468 43.66324 100.7566
206.3319 29.97101 90.66141
206.3568 34.72712 95.708
206.3897 53.4993 102.0585
206.3897 60.49941 102.0585
206.3897 62.49944 102.0585
206.3897 64.49947 102.0585
206.3897 66.4995 102.0585
206.3897 71.49957 102.0585
206.3897 86.9998 102.0585
206.3897 88.99983 102.0585
206.3897 90.99986 102.0585
206.3897 92.9999 102.0585
206.3897 102.5 102.0585
206.3897 104.5001 102.0585
206.3897 106.5001 102.0585
206.3897 108.5001 102.0585
206.3897 119.0003 102.0585
206.3897 121.0003 102.0585
206.3897 123.0004 102.0585
206.3897 125.0004 102.0585
206.3897 140.5006 102.0585
206.3897 142.5006 102.0585
206.3897 144.5007 102.0585
206.4117 24.63262 79.68469
206.4379 37.07782 97.5206
206.5146 23.36369 71.3977
206.6241 21.9669 56.5932
206.6241 178.0331 56.5932
206.6493 154.5961 101.4226
206.6508 178.2762 53.4359
206.7868 176.4697 72.6177
206.8323 22.54027 63.0321
206.8356 177.2563 65.1645
206.9454 31.46566 92.61701
207.0359 21.68292 52.5411
207.0788 161.5 98.6295
207.0796 27.98368 87.7488
207.0942 175.7116 77.9435
207.1374 26.13287 84.01179
207.1472 175.2252 80.0239
207.1612 25.3917 82.0501
207.2468 177.5067 62.1572
207.283 165.4621 95.7775
207.3029 55.49933 102.4564
207.3029 57.49936 102.4564
207.3029 68.49953 102.4564
207.3029 73.4996 102.4564
207.3029 75.49963 102.4564
207.3029 77.49966 102.4564
207.3029 79.49969 102.4564
207.3029 81.49972 102.4564
207.3029 83.49975 102.4564
207.3029 94.99992 102.4564
207.3029 96.99996 102.4564
207.3029 98.99998 102.4564
207.3029 110.5002 102.4564
207.3029 112.5002 102.4564
207.3029 114.5002 102.4564
207.3029 116.5003 102.4564
207.3029 127.0004 102.4564
207.3029 129.0004 102.4564
207.3029 131.0005 102.4564
207.3029 133.0005 102.4564
207.3029 135.0005 102.4564
207.3029 137.0006 102.4564
207.3029 146.5007 102.4564
207.3029 148.5007 102.4564
207.3895 169.1244 91.99181
207.404 176.736 69.67171
207.4619 41.51838 100.3461
207.4619 158.4816 100.3461
207.4747 172.9209 86.0825
207.5116 174.1774 83.20509
207.5381 23.05246 67.5756
207.5744 49.73665 102.5154
207.609 22.25207 59.1365
207.609 177.7479 59.1365
207.6192 47.26179 102.2145
207.6664 44.78172 101.6366
207.738 38.64807 98.9207
207.8315 178.3924 50.7775
207.8371 24.43122 78.29021
207.9295 24.1075 76.2531
207.9553 29.08709 89.6167
207.9553 170.9129 89.6167
207.9721 151.0074 102.6152
208.0718 22.79862 64.5989
208.1412 23.38224 70.0405
208.1431 21.95816 55.1323
208.1431 178.0418 55.1323
208.1755 163.2258 97.7975
208.2038 35.55208 96.86349
208.2074 33.21589 94.75181
208.2077 23.77794 73.35261
208.2137 51.99928 102.8599
208.2137 59.49939 102.8599
208.2137 61.49942 102.8599
208.2137 63.49945 102.8599
208.2137 65.49948 102.8599
208.2137 70.49956 102.8599
208.2137 85.49978 102.8599
208.2137 87.49981 102.8599
208.2137 89.49984 102.8599
208.2137 91.49987 102.8599
208.2137 101 102.8599
208.2137 103 102.8599
208.2137 105.0001 102.8599
208.2137 107.0001 102.8599
208.2137 118.5003 102.8599
208.2137 120.5003 102.8599
208.2137 122.5003 102.8599
208.2137 124.5004 102.8599
208.2137 139.0006 102.8599
208.2137 141.0006 102.8599
208.2137 143.0006 102.8599
208.4399 176.0421 74.5778
208.4517 154.2187 102.2155
208.485 27.054 86.0302
208.5026 177.2481 63.7276
208.5185 156.6794 101.4608
208.5203 22.55706 61.6869
208.5794 30.49117 91.6843
208.6496 160.4175 99.7519
208.651 21.68768 51.1303
208.6713 167.4096 94.19709
208.7263 175.7394 76.6304
208.7376 176.8805 67.0822
208.9413 177.4878 60.81739
208.9539 42.6038 101.333
209.0064 25.79036 82.9142
209.0592 178.193 52.35231
209.1219 53.99931 103.2691
209.1219 55.99934 103.2691
209.1219 67.49951 103.2691
209.1219 72.49958 103.2691
209.1219 74.49961 103.2691
209.1219 76.49965 103.2691
209.1219 78.49968 103.2691
209.1219 80.49971 103.2691
209.1219 82.49974 103.2691
209.1219 93.4999 103.2691
209.1219 95.49993 103.2691
209.1219 97.49996 103.2691
209.1219 109.0001 103.2691
209.1219 111.0002 103.2691
209.1219 113.0002 103.2691
209.1219 115.0002 103.2691
209.1219 126.5004 103.2691
209.1219 128.5004 103.2691
209.1219 130.5005 103.2691
209.1219 132.5005 103.2691
209.1219 134.5005 103.2691
209.1219 136.5006 103.2691
209.1219 145.0007 103.2691
209.1219 147.0007 103.2691
209.1375 176.3179 71.6498
209.2018 173.5622 84.599
209.2466 172.2709 87.37691
209.2994 39.73983 100.0451
209.3121 175.2666 78.98951
209.3186 22.27019 57.78209
209.3186 177.7298 57.78209
209.3327 174.7662 81.05251
209.3711 164.9578 96.7222
209.4668 50.49804 103.3883
209.4668 149.502 103.3883
209.4681 48.50098 103.1809
209.4701 152.5009 103.0102
209.4737 21.93373 53.5978
209.4843 45.19405 102.4497
209.5933 28.34125 88.50791
209.6845 158.556 101.064
209.6915 25.04758 80.20191
209.7043 37.98565 99.07711
209.7043 162.0144 99.07711
209.7781 169.8512 91.3659
209.79 23.41211 68.70531
209.8207 24.23642 75.34531
209.8527 34.38703 96.24091
209.8547 23.81591 72.03501
209.8603 32.17477 93.95191
209.9461 23.19404 66.60321
210.0277 57.99937 103.6838
210.0277 59.9994 103.6838
210.0277 61.99943 103.6838
210.0277 63.99946 103.6838
210.0277 69.49954 103.6838
210.0277 84.49977 103.6838
210.0277 86.4998 103.6838
210.0277 88.49983 103.6838
210.0277 90.49986 103.6838
210.0277 99.49999 103.6838
210.0277 101.5 103.6838
210.0277 103.5001 103.6838
210.0277 105.5001 103.6838
210.0277 117.0003 103.6838
210.0277 119.0003 103.6838
210.0277 121.0003 103.6838
210.0277 123.0004 103.6838
210.0277 138.5006 103.6838
210.0277 140.5006 103.6838
210.0277 142.5006 103.6838
210.0706 22.98118 64.49211
210.2252 22.57232 60.2417
210.2317 29.64999 90.67951
210.2602 36.06836 97.8024
210.2831 177.9755 53.9628
210.3138 24.58656 77.39471
210.3306 168.3953 93.35001
210.3639 171.4632 88.8734
210.3712 156.2299 102.3007
210.3971 176.8513 65.7437
210.402 26.72757 85.17191
210.5092 174.1114 82.88281
210.5148 177.0636 63.62861
210.5317 176.457 69.0951
210.6557 177.4708 59.37
210.6752 22.15934 55.2092
210.6855 175.4191 76.97091
210.6937 41.04148 101.1964
210.7906 175.8549 73.6651
210.8187 166.8544 95.1938
210.8238 43.07183 102.1865
210.8497 150.8852 103.8569
210.8666 52.15045 104.0743
210.8666 147.8495 104.0743
210.8811 172.8238 86.16631
210.9285 160.4142 100.4575
210.9308 54.49931 104.1041
210.9308 65.99949 104.1041
210.9308 71.49957 104.1041
210.9308 73.4996 104.1041
210.9308 75.49963 104.1041
210.9308 77.49966 104.1041
210.9308 79.49969 104.1041
210.9308 81.49972 104.1041
210.9308 92.49989 104.1041
210.9308 94.49992 104.1041
210.9308 96.49995 104.1041
210.9308 107.5001 104.1041
210.9308 109.5001 104.1041
210.9308 111.5002 104.1041
210.9308 113.5002 104.1041
210.9308 125.0004 104.1041
210.9308 127.0004 104.1041
210.9308 129.0004 104.1041
210.9308 131.0005 104.1041
210.9308 133.0005 104.1041
210.9308 135.0005 104.1041
210.9308 144.5007 104.1041
210.9418 163.7495 98.11909
210.9846 46.96804 103.5119
211.0455 177.7007 56.4685
211.1028 21.94841 52.2267
211.2184 154.3619 103.2482
211.2376 27.73599 87.34161
211.3189 26.08789 83.27641
211.3538 49.25097 104.0933
211.3788 174.8558 79.73421
211.4031 22.84898 61.9013
211.4367 38.867 100.1584
211.4405 170.6172 90.3337
211.4877 24.2945 74.06591
211.5165 22.44525 57.6266
211.5235 23.8655 70.7387
211.5294 33.3411 95.52941
211.5338 31.26135 93.0721
211.5825 158.0576 101.9401
211.6744 44.9396 103.1993
211.6853 25.04107 78.97861
211.8314 56.49935 104.53
211.8314 58.49938 104.53
211.8314 60.49941 104.53
211.8314 62.49944 104.53
211.8314 67.99951 104.53
211.8314 83.49975 104.53
211.8314 85.49978 104.53
211.8314 87.49981 104.53
211.8314 89.49984 104.53
211.8314 98.49998 104.53
211.8314 100.5 104.53
211.8314 102.5 104.53
211.8314 104.5001 104.53
211.8314 115.5002 104.53
211.8314 117.5003 104.53
211.8314 119.5003 104.53
211.8314 121.5003 104.53
211.8314 137.0006 104.53
211.8314 139.0006 104.53
211.8314 141.0006 104.53
211.8471 177.1937 61.0376
211.894 28.94537 89.60891
211.9164 177.9568 52.6045
211.9412 34.95453 97.21911
212.007 169.2511 92.426
212.015 172.0556 87.71941
212.0787 23.18887 64.427
212.0936 24.67447 76.1589
212.2113 23.59143 67.7957
212.2113 176.4086 67.7957
212.2449 175.9877 71.14431
212.2991 36.63024 98.75791
212.2996 25.57146 81.0913
212.3073 22.18038 53.8584
212.3498 177.439 58.0331
212.3532 149.1463 104.7109
212.3895 176.6338 65.6879
212.4422 165.6604 96.7261
212.4595 162.5115 99.46971
212.4709 41.75329 102.1405
212.5064 167.7923 94.3855
212.5126 26.76571 84.9086
212.5126 173.2343 84.9086
212.5319 152.5905 104.2441
212.5363 176.8538 63.5711
212.588 175.3671 75.34739
212.6049 156.431 103.0224
212.7293 52.99929 104.9613
212.7293 64.49947 104.9613
212.7293 69.99955 104.9613
212.7293 71.99958 104.9613
212.7293 73.99961 104.9613
212.7293 75.99964 104.9613
212.7293 77.99967 104.9613
212.7293 79.9997 104.9613
212.7293 91.49987 104.9613
212.7293 93.4999 104.9613
212.7293 95.49993 104.9613
212.7293 106.5001 104.9613
212.7293 108.5001 104.9613
212.7293 110.5002 104.9613
212.7293 112.5002 104.9613
212.7293 123.5004 104.9613
212.7293 125.5004 104.9613
212.7293 127.5004 104.9613
212.7293 129.5004 104.9613
212.7293 131.5005 104.9613
212.7293 133.5005 104.9613
212.7293 143.0006 104.9613
212.7293 145.0007 104.9613
212.7293 147.0007 104.9613
212.735 22.72293 59.31
212.7899 174.0712 82.231
212.8073 177.6753 55.0108
212.8742 159.8687 101.3708
212.9487 174.9499 77.7858
213.0186 46.68434 104.2538
213.1081 171.2459 89.2386
213.1767 24.36438 72.8072
213.2197 30.47947 92.118
213.2239 22.48072 56.2972
213.2259 32.41938 94.7337
213.2916 49.40255 104.9561
213.3984 39.43471 101.0881
213.4211 43.34452 103.2122
213.4512 23.06264 61.8592
213.5527 177.1506 59.7254
213.5581 28.37922 88.47901
213.5975 26.14346 82.6357
213.6114 25.22605 78.2094
213.6245 54.99932 105.3982
213.6245 56.99935 105.3982
213.6245 58.99938 105.3982
213.6245 60.99941 105.3982
213.6245 66.4995 105.3982
213.6245 81.99973 105.3982
213.6245 83.99976 105.3982
213.6245 85.99979 105.3982
213.6245 87.99982 105.3982
213.6245 97.49996 105.3982
213.6245 99.49999 105.3982
213.6245 101.5 105.3982
213.6245 103.5001 105.3982
213.6245 114.5002 105.3982
213.6245 116.5003 105.3982
213.6245 118.5003 105.3982
213.6245 120.5003 105.3982
213.6245 135.5005 105.3982
213.6245 137.5006 105.3982
213.6245 139.5006 105.3982
213.6461 33.95893 96.54559
213.6629 27.49278 86.5145
213.6629 172.5072 86.5145
213.6925 169.9735 91.43111
213.749 174.4486 80.01199
213.8121 24.75644 74.8985
213.889 150.3964 105.248
213.9127 23.6514 66.51731
213.9189 158.2483 102.6072
213.9445 24.0811 69.8826
213.9445 175.9189 69.8826
214.009 35.56861 98.21221
214.009 164.4314 98.21221
214.0152 154.7412 104.186
214.0662 177.397 56.718
214.0705 175.4888 72.9126
214.0953 23.42283 64.4029
214.1057 51.44172 105.5656
214.1519 166.6034 96.0031
214.2071 168.6016 93.4989
214.2463 176.8005 62.2795
214.3192 37.23916 99.72921
214.3903 176.3896 65.6728
214.4537 22.7699 58.0052
214.4561 161.9054 100.4305
214.517 62.99944 105.8407
214.517 68.49953 105.8407
214.517 70.49956 105.8407
214.517 72.49958 105.8407
214.517 74.49961 105.8407
214.517 76.49965 105.8407
214.517 78.49968 105.8407
214.517 89.99985 105.8407
214.517 91.99988 105.8407
214.517 93.99991 105.8407
214.517 105.5001 105.8407
214.517 107.5001 105.8407
214.517 109.5001 105.8407
214.517 111.5002 105.8407
214.517 122.5003 105.8407
214.517 124.5004 105.8407
214.517 126.5004 105.8407
214.517 128.5004 105.8407
214.517 130.5005 105.8407
214.517 132.5005 105.8407
214.517 141.5006 105.8407
214.517 143.5006 105.8407
214.517 145.5007 105.8407
214.5659 25.76738 80.42799
214.6259 29.20513 89.99281
214.6589 174.8517 76.57841
214.6828 148.3438 105.853
214.6985 22.40091 53.9088
214.6985 177.5991 53.9088
214.7224 40.70456 102.2633
214.7709 47.26686 105.1087
214.7709 152.7331 105.1087
214.7729 171.7363 88.0876
214.8378 160.3362 101.64
214.8583 26.76014 84.16189
214.8583 173.2399 84.16189
214.9341 31.6257 93.85921
215.0256 53.55657 106.0968
215.0551 44.74187 104.3695
215.058 173.9072 81.58451
215.1743 23.11987 60.575
215.2802 177.0967 58.4346
215.3301 25.33237 77.01461
215.3425 24.63769 72.42881
215.3671 33.08621 95.78662
215.3791 170.5608 90.37159
215.4056 38.96766 101.3112
215.4068 55.99934 106.2886
215.4068 57.99937 106.2886
215.4068 59.9994 106.2886
215.4068 64.99947 106.2886
215.4068 80.49971 106.2886
215.4068 82.49974 106.2886
215.4068 84.49977 106.2886
215.4068 86.4998 106.2886
215.4068 95.99994 106.2886
215.4068 97.99997 106.2886
215.4068 100 106.2886
215.4068 102 106.2886
215.4068 113.5002 106.2886
215.4068 115.5002 106.2886
215.4068 117.5003 106.2886
215.4068 119.5003 106.2886
215.4068 134.5005 106.2886
215.4068 136.5006 106.2886
215.4068 138.5006 106.2886
215.4177 176.0402 67.37181
215.4507 42.44982 103.4591
215.5156 156.7481 103.878
215.5734 49.33589 105.9282
215.6661 24.16165 68.64171
215.7393 34.624 97.5752
215.7393 165.376 97.5752
215.8227 23.49082 63.1389
215.8524 175.4008 71.6053
215.859 158.9433 102.8064
215.8624 26.32177 81.99941
215.8743 167.4214 95.1975
215.9086 23.92056 66.5347
215.913 169.2796 92.5398
215.9782 176.736 61.0091
215.9866 28.1903 87.69001
216.0551 36.23016 99.21961
216.0551 163.7698 99.21961
216.082 151.355 105.9914
216.0826 27.41832 85.66789
216.0826 172.5817 85.66789
216.1132 174.249 78.7062
216.12 176.3161 64.4189
216.1943 22.82756 56.7218
216.2296 174.9647 74.1313
216.2938 61.99943 106.7419
216.2938 66.9995 106.7419
216.2938 68.99953 106.7419
216.2938 70.99956 106.7419
216.2938 72.99959 106.7419
216.2938 74.99962 106.7419
216.2938 76.99965 106.7419
216.2938 88.49983 106.7419
216.2938 90.49986 106.7419
216.2938 92.49989 106.7419
216.2938 104.0001 106.7419
216.2938 106.0001 106.7419
216.2938 108.0001 106.7419
216.2938 110.0001 106.7419
216.2938 121.5003 106.7419
216.2938 123.5004 106.7419
216.2938 125.5004 106.7419
216.2938 127.5004 106.7419
216.2938 129.5004 106.7419
216.2938 131.5005 106.7419
216.2938 140.5006 106.7419
216.2938 142.5006 106.7419
216.2938 144.5007 106.7419
216.3174 51.42845 106.5924
216.3218 154.7976 104.9999
216.3881 147.6423 106.7193
216.3962 30.30848 91.8466
216.4214 46.11766 105.378
216.5477 162.3625 100.5531
216.6512 177.2094 55.8654
216.7621 25.94937 79.15331
216.9012 40.67317 102.8601
216.9192 23.18819 59.3117
216.9208 25.22335 74.57901
217.0051 53.54372 107.093
217.0592 28.9874 89.2545
217.0592 171.0126 89.2545
217.0739 173.6957 80.82351
217.0834 24.74091 71.23001
217.0962 32.33967 94.9475
217.1588 175.9533 66.14151
217.178 56.5105 107.2008
217.178 59.47569 107.2008
217.178 64.41768 107.2008
217.178 79.24365 107.2008
217.178 82.20884 107.2008
217.178 85.17403 107.2008
217.178 95.05801 107.2008
217.178 99.0116 107.2008
217.178 111.8608 107.2008
217.178 114.826 107.2008
217.178 117.7912 107.2008
217.178 133.6055 107.2008
217.178 137.5591 107.2008
217.19 43.08549 104.3289
217.1977 171.8419 87.2868
217.2011 48.21082 106.3335
217.2148 160.5485 102.1104
217.2235 173.1172 83.3382
217.3352 149.9286 106.8302
217.3565 157.629 103.9987
217.3819 175.5133 69.1347
217.3895 176.8488 58.463
217.4196 38.3704 101.3376
217.4823 33.80046 96.85171
217.4823 166.1995 96.85171
217.5719 23.57028 61.89569
217.6017 168.1117 94.31469
217.6165 169.825 91.5146
217.6562 24.00943 65.308
217.6572 153.3822 106.0067
217.7045 27.25278 84.39481
217.7444 174.3508 76.294
217.7902 22.87631 55.4535
217.8085 35.33644 98.61781
217.8085 164.6636 98.61781
217.8715 176.231 63.1857
217.8782 145.6351 107.5609
217.8915 24.45032 68.311
217.9131 50.33586 107.1318
217.9149 26.55548 81.26861
217.9809 174.8469 72.9548
218.0249 61.45249 107.6435
218.0249 66.39448 107.6435
218.0249 70.34807 107.6435
218.0249 74.30166 107.6435
218.0249 87.15083 107.6435
218.0249 91.10442 107.6435
218.0249 97.0348 107.6435
218.0249 100.9884 107.6435
218.0249 104.942 107.6435
218.0249 108.8956 107.6435
218.0249 119.7679 107.6435
218.0249 122.7332 107.6435
218.0249 126.6867 107.6435
218.0249 130.6403 107.6435
218.0249 135.5823 107.6435
218.0249 139.5359 107.6435
218.0249 143.4895 107.6435
218.0557 176.4664 61.05449
218.0932 29.82259 90.7855
218.1155 45.04458 105.5484
218.3228 175.1084 70.86761
218.405 28.16629 86.87891
218.4137 25.85215 76.75309
218.4859 172.4945 84.8078
218.5109 159.4627 103.1834
218.525 148.4499 107.617
218.5651 155.4864 105.4554
218.5793 162.0414 101.2333
218.5991 31.06443 92.98091
218.6083 173.6684 79.26962
218.6618 176.9733 55.9103
218.6694 55.33695 107.9813
218.6784 41.35865 103.763
218.6804 25.34935 73.4154
218.6856 23.26774 58.0693
218.7426 39.44767 102.4589
218.8458 24.85695 70.0515
218.8717 57.4989 108.0863
218.8717 63.42928 108.0863
218.8717 68.37127 108.0863
218.8717 72.32486 108.0863
218.8717 76.27845 108.0863
218.8717 80.23205 108.0863
218.8717 83.19724 108.0863
218.8717 89.12762 108.0863
218.8717 93.08121 108.0863
218.8717 102.9652 108.0863
218.8717 106.9188 108.0863
218.8717 110.8724 108.0863
218.8717 113.8376 108.0863
218.8717 116.8028 108.0863
218.8717 124.7099 108.0863
218.8717 128.6635 108.0863
218.8717 132.6171 108.0863
218.8717 141.5127 108.0863
218.8763 47.15491 106.6394
218.9312 151.9162 106.9688
219.0074 175.8605 64.7919
219.0563 52.84675 108.0345
219.1489 175.4014 67.95031
219.1644 36.54227 100.0327
219.2305 33.10069 96.04681
219.2305 166.8993 96.04681
219.2481 26.54666 79.73461
219.3014 27.21736 83.0944
219.3102 170.2383 90.4303
219.3266 168.673 93.36111
219.3429 23.66137 60.6732
219.4735 43.47675 105.2104
219.4837 28.93365 88.48891
219.4837 171.0663 88.48891
219.4875 157.5346 104.6477
219.4993 172.8365 82.65981
219.5007 24.10519 63.9794
219.5068 176.5731 58.5305
219.5115 146.7567 108.2897
219.5143 174.2105 75.15271
219.6031 100 108.4687
219.6074 171.7864 86.467
219.6651 24.56432 67.13021
219.6848 34.45918 97.81301
219.6848 165.5408 97.81301
219.7186 59.47569 108.529
219.7186 65.40608 108.529
219.7186 78.25525 108.529
219.7186 85.17403 108.529
219.7186 95.05801 108.529
219.7186 118.7796 108.529
219.7186 121.7448 108.529
219.7186 134.5939 108.529
219.7186 137.5591 108.529
219.744 164.0199 99.535
219.9808 154.1217 106.5199
220.0355 28.02847 85.63651
220.1001 174.9818 69.70571
220.1113 48.66425 107.5957
220.1383 150.3963 107.8791
220.1422 176.1684 61.1393
220.1785 144.7341 108.7523
220.192 26.00083 75.62481
220.3068 161.3524 102.1254
220.3101 30.61851 91.9524
220.3291 37.81832 101.4051
220.39 173.5076 78.1595
220.3907 23.34726 56.8429
220.3912 45.42115 106.4469
220.4023 56.42149 108.8873
220.4518 40.45156 103.5605
220.4617 25.48823 72.27241
220.4617 174.5118 72.27241
220.5115 173.0081 80.678
220.5241 29.74064 90.0678
220.5654 61.45249 108.9718
220.5654 67.38287 108.9718
220.5654 70.34807 108.9718
220.5654 73.31326 108.9718
220.5654 81.22044 108.9718
220.5654 87.15083 108.9718
220.5654 90.11602 108.9718
220.5654 97.0348 108.9718
220.5654 101.9768 108.9718
220.5654 104.942 108.9718
220.5654 107.9072 108.9718
220.5654 111.8608 108.9718
220.5654 114.826 108.9718
220.5654 123.7215 108.9718
220.5654 126.6867 108.9718
220.5654 129.6519 108.9718
220.5654 139.5359 108.9718
220.5654 142.5011 108.9718
220.6133 50.98304 108.4073
220.6297 24.98568 68.89331
220.746 155.9424 105.8771
220.77 53.62699 108.9117
220.7716 31.86727 94.1246
220.8112 158.9407 104.0661
220.9185 35.68257 99.32171
220.9374 175.2768 66.7863
220.9478 175.7571 63.36731
220.9767 167.4741 95.1665
220.9936 148.5073 108.6708
221.0382 26.71625 78.6377
221.042 169.1059 92.34332
221.1334 28.75612 87.28971
221.1352 27.22214 81.1563
221.136 23.76433 59.4713
221.2263 171.8571 85.21421
221.2331 152.5912 107.5581
221.2484 176.4823 57.3188
221.306 174.0571 74.03231
221.3583 33.05507 95.9477
221.4123 58.48729 109.4145
221.4123 63.42928 109.4145
221.4123 75.29006 109.4145
221.4123 79.24365 109.4145
221.4123 83.19724 109.4145
221.4123 92.09282 109.4145
221.4123 99.0116 109.4145
221.4123 109.884 109.4145
221.4123 116.8028 109.4145
221.4123 119.7679 109.4145
221.4123 131.6287 109.4145
221.4123 135.5823 109.4145
221.4569 24.21017 62.5431
221.4601 24.691 65.9698
221.4967 164.8242 98.7688
221.5016 42.29605 105.0407
221.5149 163.2974 100.4664
221.6392 28.01483 84.36571
221.734 170.2416 89.6986
221.761 172.2847 82.89051
221.8007 145.6995 109.4532
221.8031 46.79608 107.4956
221.8903 170.9644 87.7022
221.8991 174.8425 68.5645
221.966 176.0586 59.91619
221.9921 26.16288 74.5178
222.0318 166.0139 97.25079
222.0996 36.95621 100.777
222.1438 154.5163 106.9975
222.193 29.52581 88.9143
222.1937 173.3328 77.0711
222.2266 55.64751 109.7689
222.2471 49.17601 108.5349
222.2471 150.824 108.5349
222.2591 60.46409 109.8573
222.2591 65.40608 109.8573
222.2591 68.37127 109.8573
222.2591 71.33647 109.8573
222.2591 77.26685 109.8573
222.2591 85.17403 109.8573
222.2591 88.13923 109.8573
222.2591 94.06962 109.8573
222.2591 100.9884 109.8573
222.2591 103.9536 109.8573
222.2591 106.9188 109.8573
222.2591 112.8492 109.8573
222.2591 121.7448 109.8573
222.2591 124.7099 109.8573
222.2591 127.6751 109.8573
222.2591 133.6055 109.8573
222.2591 137.5591 109.8573
222.2591 140.5243 109.8573
222.2646 25.64008 71.1504
222.2646 174.3599 71.1504
222.2792 38.6682 102.433
222.3184 172.8204 79.6079
222.3464 160.4486 103.1996
222.4352 25.12715 67.7557
222.4471 52.6703 109.4931
222.4632 157.7047 105.2504
222.4743 44.19233 106.4077
222.4958 31.46015 93.12791
222.6145 142.987 110.0259
222.6404 34.24038 97.57851
222.7418 30.58767 91.2686
222.7418 169.4123 91.2686
222.7474 175.1396 65.6427
222.7573 28.70153 86.0566
222.7605 175.6307 62.2081
222.8502 26.89998 77.56279
222.9504 27.41901 80.0997
222.9516 23.87954 58.2904
222.9739 27.9433 82.61681
222.9801 168.0987 93.8537
223.0424 147.9642 109.6009
223.0621 40.77202 104.2791
223.0785 57.39444 110.2685
223.106 62.44089 110.3001
223.106 73.31326 110.3001
223.106 80.23205 110.3001
223.106 90.11602 110.3001
223.106 96.04641 110.3001
223.106 108.8956 110.3001
223.106 114.826 110.3001
223.106 117.7912 110.3001
223.106 129.6519 110.3001
223.1195 173.8903 72.93341
223.2761 24.33862 61.3875
223.2766 24.83029 64.82991
223.2822 164.0513 99.7259
223.3133 152.8683 108.1002
223.4748 171.5705 84.30611
223.4915 162.4091 101.522
223.5167 171.0111 86.47881
223.5859 172.0717 81.85659
223.6822 45.82819 107.5893
223.6945 32.77233 95.25581
223.7165 50.42457 109.43
223.7198 174.6904 67.44421
223.7382 156.1013 106.5355
223.7512 175.9396 58.7591
223.7624 166.5877 96.2818
223.8142 26.33861 73.4326
223.8371 29.43267 87.7216
223.8673 35.4828 99.15701
223.8878 145.2278 110.4223
223.9263 173.4039 74.7207
223.9528 59.47569 110.7428
223.9528 64.41768 110.7428
223.9528 67.38287 110.7428
223.9528 70.34807 110.7428
223.9528 75.29006 110.7428
223.9528 78.25525 110.7428
223.9528 82.20884 110.7428
223.9528 86.16243 110.7428
223.9528 92.09282 110.7428
223.9528 98.02321 110.7428
223.9528 101.9768 110.7428
223.9528 104.942 110.7428
223.9528 110.8724 110.7428
223.9528 119.7679 110.7428
223.9528 122.7332 110.7428
223.9528 125.6983 110.7428
223.9528 131.6287 110.7428
223.9528 134.5939 110.7428
223.9528 138.5475 110.7428
223.9926 53.77062 110.3118
224.0895 25.80514 70.0498
224.0895 174.1949 70.0498
224.0934 37.08777 101.0208
224.1382 170.0953 88.9442
224.147 172.6182 78.56031
224.1535 48.15473 108.7756
224.2625 25.28144 66.6392
224.3326 150.1912 109.4395
224.3494 159.4647 104.2762
224.3807 43.29464 106.2908
224.4191 141.3987 110.9697
224.4202 30.40354 90.1451
224.4532 100 111.0045
224.5791 174.9897 64.52011
224.5945 175.4918 61.0694
224.6035 26.83455 75.2258
224.6841 172.9019 76.5104
224.7162 143.4219 110.9853
224.7652 28.70982 84.11501
224.7871 27.63072 79.0659
224.7997 61.45249 111.1856
224.7997 72.32486 111.1856
224.7997 84.18564 111.1856
224.7997 88.13923 111.1856
224.7997 94.06962 111.1856
224.7997 106.9188 111.1856
224.7997 112.8492 111.1856
224.7997 115.8144 111.1856
224.7997 127.6751 111.1856
224.7997 136.5707 111.1856
224.8133 28.16865 81.6012
224.8397 31.44163 92.428
224.8397 168.5584 92.428
224.8545 55.56711 110.9327
224.9299 39.1169 103.0964
224.9379 154.4391 107.7581
224.955 173.7097 71.8565
224.9837 33.9582 96.95351
225.0216 165.3712 97.93739
225.1148 24.98222 63.711
225.1166 24.4795 60.2525
225.2229 147.4495 110.5218
225.2847 163.8445 99.9309
225.3284 51.55432 110.2983
225.3434 27.34576 77.0207
225.393 32.37603 94.1564
225.393 167.624 94.1564
225.3965 171.2983 83.369
225.4317 171.8436 80.84559
225.4526 29.45379 86.49899
225.4773 162.2285 101.7749
225.5097 49.58263 109.7195
225.5544 152.2686 108.9803
225.5625 174.5252 66.3454
225.594 44.9602 107.5609
225.6216 57.42215 111.4618
225.6465 63.42928 111.6283
225.6465 66.39448 111.6283
225.6465 69.35967 111.6283
225.6465 74.30166 111.6283
225.6465 77.26685 111.6283
225.6465 80.23205 111.6283
225.6465 90.11602 111.6283
225.6465 96.04641 111.6283
225.6465 102.9652 111.6283
225.6465 108.8956 111.6283
225.6465 117.7912 111.6283
225.6465 120.7564 111.6283
225.6465 123.7215 111.6283
225.6465 129.6519 111.6283
225.6465 132.6171 111.6283
225.6583 26.52828 72.3697
225.6587 156.9329 106.3639
225.6625 41.23434 104.996
225.7721 173.2074 73.6675
225.7724 170.1188 87.7496
225.8178 170.6687 85.63271
225.8614 138.6307 111.7407
225.8727 35.72719 99.344
225.9365 25.98366 68.9711
225.9365 174.0163 68.9711
226.0836 37.3056 101.2535
226.0953 145.6251 111.2289
226.1118 25.44872 65.5443
226.1399 47.1961 108.874
226.1968 59.41426 111.8596
226.2359 53.3655 111.066
226.2377 30.27873 88.6855
226.2641 169.2202 90.14191
226.2707 160.1743 103.8333
226.4327 174.827 63.41881
226.4576 27.04043 74.18671
226.4905 141.6928 111.9193
226.4934 71.33647 112.0711
226.4934 82.20884 112.0711
226.4934 85.17403 112.0711
226.4934 92.09282 112.0711
226.4934 98.02321 112.0711
226.4934 100.9884 112.0711
226.4934 104.942 112.0711
226.4934 110.8724 112.0711
226.4934 113.8376 112.0711
226.4934 125.6983 112.0711
226.4934 134.5939 112.0711
226.5396 172.6891 75.48091
226.5976 149.627 110.3137
226.6268 28.96383 83.1399
226.6449 172.1426 78.0551
226.6731 28.40918 80.6084
226.7031 33.54644 95.91879
226.7031 166.4536 95.91879
226.7217 175.0992 61.2833
226.8079 31.09612 90.67211
226.8126 173.5152 70.802
226.8713 143.7389 111.841
226.8979 39.33164 103.3851
226.9248 61.23102 112.2771
226.9419 42.88127 106.4122
226.9467 168.4119 91.84361
226.9751 25.14695 62.6135
227.0299 165.0522 98.0912
227.0486 55.24064 111.7389
227.066 32.10992 92.98982
227.0682 155.4155 107.5969
227.2068 27.56817 76.00521
227.2641 171.0415 82.39841
227.2806 163.5523 100.1259
227.2868 28.12137 78.5788
227.3402 64.41768 112.5139
227.3402 67.38287 112.5139
227.3402 73.31326 112.5139
227.3402 76.27845 112.5139
227.3402 79.24365 112.5139
227.3402 87.15083 112.5139
227.3402 94.06962 112.5139
227.3402 106.9188 112.5139
227.3402 115.8144 112.5139
227.3402 118.7796 112.5139
227.3402 121.7448 112.5139
227.3402 127.6751 112.5139
227.3402 130.6403 112.5139
227.3402 136.5707 112.5139
227.4274 174.3468 65.26861
227.4588 161.9641 102.0169
227.5208 147.7947 111.1717
227.5243 26.73219 71.3296
227.5953 157.652 106.0768
227.5977 34.59711 97.4274
227.6221 139.3749 112.5825
227.6397 172.9965 72.6373
227.6546 30.08012 86.69111
227.6546 169.9199 86.69111
227.6563 51.20641 110.8941
227.7604 57.17534 112.3144
227.7941 49.31784 110.2171
227.8057 26.17594 67.91501
227.8057 173.8241 67.91501
227.8438 151.6123 109.8197
227.87 36.05638 99.52161
227.9028 153.4405 108.9085
227.9115 45.66266 108.3957
227.9212 171.3282 80.38451
227.9834 25.62927 64.4715
228.0012 169.3121 88.58201
228.0681 37.60651 101.476
228.1871 69.35967 112.9566
228.1871 81.22044 112.9566
228.1871 84.18564 112.9566
228.1871 89.12762 112.9566
228.1871 96.04641 112.9566
228.1871 99.0116 112.9566
228.1871 101.9768 112.9566
228.1871 108.8956 112.9566
228.1871 111.8608 112.9566
228.1871 123.7215 112.9566
228.1871 132.6171 112.9566
228.2471 40.95131 104.9408
228.2942 59.22325 112.7674
228.3107 167.2958 93.70109
228.3333 27.26099 73.17071
228.3474 145.8952 111.9335
228.3691 141.6676 112.6999
228.3915 29.80029 84.7134
228.3915 170.1997 84.7134
228.4163 172.4614 74.47451
228.4378 134.9427 113.0877
228.5065 29.23269 82.18671
228.5204 33.32492 94.881
228.5214 53.09059 111.7187
228.5232 171.9007 77.0673
228.5702 168.5096 90.5842
228.6459 30.97436 88.95731
228.6496 62.01708 113.1217
228.6922 173.3064 69.7706
228.7089 31.96852 91.76601
228.7093 166.0262 96.03091
228.8048 44.05683 107.466
228.8616 160.3729 103.6628
228.8714 149.825 110.8161
228.8824 65.84443 113.3202
228.9157 137.5919 113.2613
229.0272 164.6502 98.23701
229.0339 71.33647 113.3994
229.0339 74.30166 113.3994
229.0339 77.26685 113.3994
229.0339 86.16243 113.3994
229.0339 91.10442 113.3994
229.0339 103.9536 113.3994
229.0339 113.8376 113.3994
229.0339 116.8028 113.3994
229.0339 119.7679 113.3994
229.0339 125.6983 113.3994
229.0339 128.6635 113.3994
229.0507 47.38684 109.5546
229.0714 143.9325 112.595
229.091 27.80561 75.01291
229.0952 174.4173 62.8771
229.172 28.37293 77.60461
229.1756 28.94407 80.17372
229.2287 25.49805 62.1937
229.2683 163.1787 100.3121
229.2853 55.04079 112.4437
229.3353 155.4776 107.844
229.4122 26.9506 70.3127
229.433 34.35504 96.4451
229.4562 140.0545 113.3054
229.4888 39.19119 103.1639
229.5153 173.8882 65.5494
229.5288 172.7708 71.63031
229.5395 158.2546 105.6782
229.6971 26.38227 66.8819
229.7177 63.67615 113.6818
229.718 57.22934 113.024
229.7355 35.73866 98.6412
229.742 147.9148 111.7264
229.7543 170.4839 81.98711
229.7933 51.17463 111.4109
229.8071 30.6796 86.6653
229.8071 169.3204 86.6653
229.8126 171.0603 79.43201
229.8668 42.381 106.2331
229.8808 68.37127 113.8421
229.8808 79.24365 113.8421
229.8808 82.20884 113.8421
229.8808 88.13923 113.8421
229.8808 93.08121 113.8421
229.8808 97.0348 113.8421
229.8808 100.9884 113.8421
229.8808 105.9304 113.8421
229.8808 109.884 113.8421
229.8808 121.7448 113.8421
229.8808 130.6403 113.8421
229.9612 37.21527 100.7075
230.0395 133.8658 113.9067
230.0452 45.72856 108.7195
230.0815 167.3511 92.5642
230.085 26.0911 64.7607
230.1012 49.18513 110.6325
230.1422 153.4712 109.2263
230.2017 59.36525 113.5162
230.23 27.49644 72.1781
230.3091 33.23157 93.78271
230.3137 172.2187 73.4914
230.3141 168.5317 89.00282
230.3182 31.9433 90.49632
230.4211 171.6437 76.1023
230.4434 173.3618 67.43181
230.5155 166.1575 94.9742
230.5529 141.7425 113.4739
230.6354 146.0333 112.5377
230.6616 61.68462 113.9437
230.6616 138.3154 113.9437
230.6636 53.08673 112.2755
230.7197 151.2927 110.5012
230.7258 161.6098 102.0811
230.7276 70.34807 114.2849
230.7276 73.31326 114.2849
230.7276 76.27845 114.2849
230.7276 84.18564 114.2849
230.7276 90.11602 114.2849
230.7276 95.05801 114.2849
230.7276 99.0116 114.2849
230.7276 102.9652 114.2849
230.7276 107.9072 114.2849
230.7276 111.8608 114.2849
230.7276 114.826 114.2849
230.7276 117.7912 114.2849
230.7276 123.7215 114.2849
230.7276 126.6867 114.2849
230.7868 65.61799 114.2416
230.7973 30.09834 83.2331
230.8189 159.9985 103.9293
230.8356 40.83934 104.7967
230.8429 31.50306 88.56741
230.8671 164.8573 97.2721
230.9225 169.6048 84.2925
230.9953 28.05817 74.0436
231.0069 44.1491 107.685
231.0227 135.8924 114.2705
231.0759 28.63961 76.65281
231.0781 29.2241 79.23801
231.1398 163.4609 99.4498
231.1552 47.5091 109.9168
231.1616 128.9204 114.5118
231.2317 143.9401 113.241
231.2411 34.23996 95.39701
231.3215 27.18376 69.3193
231.3215 172.8162 69.3193
231.3519 132.097 114.5695
231.3643 156.1041 107.4993
231.4018 38.80166 102.4728
231.4269 173.675 64.5291
231.4335 149.2256 111.5712
231.5564 54.97243 113.0479
231.5745 78.25525 114.7276
231.5745 81.22044 114.7276
231.5745 86.16243 114.7276
231.5745 92.09282 114.7276
231.5745 104.942 114.7276
231.5745 119.7679 114.7276
231.578 35.54822 97.6852
231.6598 29.81099 81.0701
231.6598 170.189 81.0701
231.7209 170.7775 78.5007
231.7366 67.66377 114.7377
231.7378 31.01019 85.7553
231.7746 26.88448 67.2124
231.7907 63.58377 114.539
231.8116 50.49417 111.5109
231.8194 167.2898 91.3842
231.8358 36.9502 99.85429
231.9593 168.6764 86.66541
232.066 33.25713 92.63541
232.0892 57.12138 113.7114
232.1176 158.3106 105.5438
232.1473 27.74691 71.2089
232.1473 172.2531 71.2089
232.155 72.06165 115.0202
232.1611 42.50257 106.3074
232.194 26.58582 65.0924
232.2216 74.75838 115.0659
232.2216 125.2416 115.0659
232.2648 153.2922 109.5314
232.2912 166.1681 93.86259
232.2943 171.6669 73.84861
232.302 32.58224 90.55839
232.3603 171.0754 76.4648
232.365 173.1313 66.4371
232.4073 167.7178 89.5022
232.4203 59.19975 114.2089
232.4203 140.8003 114.2089
232.4213 83.19724 115.1704
232.4213 88.13923 115.1704
232.4213 94.06962 115.1704
232.4213 97.0348 115.1704
232.4213 100.9884 115.1704
232.4213 106.9188 115.1704
232.4213 109.884 115.1704
232.4213 112.8492 115.1704
232.4213 115.8144 115.1704
232.4213 121.7448 115.1704
232.4251 45.73527 108.8906
232.5492 147.4579 112.468
232.6189 161.8941 101.292
232.6796 164.9415 96.24131
232.739 160.3505 103.2557
232.7652 31.97747 88.0692
232.7777 61.52591 114.6664
232.7777 138.4741 114.6664
232.7867 69.75697 115.2648
232.7867 130.243 115.2648
232.8016 151.0803 110.8664
232.8279 65.63631 115.0823
232.8279 134.3637 115.0823
232.8486 136.419 114.9209
232.8622 30.72157 83.3828
232.8622 169.2784 83.3828
232.9094 127.6822 115.3815
232.9186 28.32588 73.0972
232.9358 52.26771 112.4259
232.9435 40.35152 104.0366
232.9877 163.6195 98.51171
232.9958 29.51883 78.3225
232.997 28.92136 75.7228
233.0187 34.24332 94.29401
233.0843 143.1522 113.894
233.1799 48.65718 110.7561
233.1938 79.52779 115.5743
233.2517 172.5682 68.34961
233.2682 85.17403 115.6131
233.2682 90.11602 115.6131
233.2682 99.0116 115.6131
233.2682 102.9652 115.6131
233.2682 117.7912 115.6131
233.2981 38.5348 101.6926
233.3929 35.47859 96.6633
233.3951 156.608 107.0334
233.4449 76.33355 115.6853
233.4449 123.6665 115.6853
233.5649 54.38948 113.2922
233.5649 145.6105 113.2922
233.6186 30.42505 81.35881
233.6186 169.5749 81.35881
233.62 170.1795 78.88341
233.6867 36.80692 98.9252
233.7704 67.85634 115.5716
233.7704 132.1437 115.5716
233.7899 166.6107 91.45151
233.8244 73.17223 115.8034
233.8558 27.41977 67.5837
233.9009 31.68771 85.77821
233.9009 168.3123 85.77821
233.9069 167.6595 88.01019
233.9193 63.60865 115.2704
233.9868 149.3129 111.8719
234.0029 43.8512 107.3936
234.004 120.7848 115.9775
234.0678 114.6714 116.0312
234.084 28.01256 70.2629
234.084 171.9874 70.2629
234.0901 56.59669 114.0439
234.1109 125.6658 115.9524
234.115 87.15083 116.0559
234.115 92.09282 116.0559
234.115 95.05801 116.0559
234.115 104.942 116.0559
234.115 107.9072 116.0559
234.115 110.8724 116.0559
234.1763 42.08396 105.7081
234.1763 157.916 105.7081
234.229 171.3866 72.9198
234.2583 165.5024 93.9433
234.2912 170.7814 75.551
234.3017 58.57079 114.5642
234.3017 141.4292 114.5642
234.3147 153.8091 109.2307
234.334 81.15407 116.1501
