49.27964 64.48103 42.01848
49.27964 64.77871 40.52394
49.27964 64.94661 39.52191
49.27964 65.1145 38.51988
49.27964 65.2448 37.51277
49.27964 65.38476 36.50642
49.27964 65.52497 35.50008
49.27964 65.67813 34.49576
49.27964 65.84196 33.49322
49.27964 66.03474 32.49551
49.27964 66.22982 31.49856
49.27964 66.42489 30.50136
49.27964 66.62707 29.50593
49.27964 66.86075 28.51711
49.27964 67.12593 27.53667
49.27964 67.51252 26.59839
49.27964 68.00884 25.71295
49.27964 68.48991 24.82369
49.27964 68.93822 23.96644
49.27964 69.74416 23.34897
49.27964 70.47263 22.64183
49.27964 71.12846 21.86815
49.27964 71.64738 20.99591
49.27964 71.99511 20.04367
49.27964 72.2613 18.54557
49.27964 73.14649 17.36143
49.27964 73.73755 16.53669
49.27964 74.22193 15.6449
49.27964 74.58692 14.69798
49.27964 74.85489 13.71805
49.27964 75.04133 12.71958
49.27964 75.18713 11.71425
49.27964 75.30016 10.70561
49.28421 41.52324 77.52183
49.28217 43.2926 77.36486
49.28217 44.29311 77.18807
49.28217 45.27279 76.92114
49.28217 46.191 76.48958
49.28141 47.02539 75.41008
49.27964 46.9629 74.41846
49.27964 46.40029 73.58663
49.27964 45.53441 73.05906
49.27964 44.64718 72.56401
49.27964 43.72694 72.13424
49.27964 42.77216 71.78804
49.27964 41.78841 71.53632
49.27964 40.78639 71.37275
49.78713 40.50774 63.93969
49.78713 41.5179 63.83429
49.78713 42.52476 63.69941
49.78713 43.52171 63.50435
49.78713 44.50748 63.25924
49.78713 45.47548 62.95315
49.78713 46.42747 62.59781
49.78713 47.83336 62.01183
49.78713 48.75055 61.5747
49.78713 49.65251 61.10683
49.78713 50.53465 60.60289
49.78713 51.39342 60.06035
49.78713 52.23264 59.48784
49.78713 53.05839 58.89652
49.78713 53.85341 58.26406
49.78713 54.63116 57.61052
49.78713 55.38097 56.92523
49.78713 56.11757 56.22546
49.78713 56.83055 55.50257
49.78713 57.51965 54.75607
49.78713 58.19758 53.9994
49.78713 58.84832 53.21937
49.78713 59.47952 52.42308
49.78713 60.09318 51.61358
49.78713 60.68246 50.7863
49.78713 61.23059 49.93109
49.78713 61.73173 49.04717
49.78713 62.19706 48.14496
49.78713 62.62708 47.22446
49.78713 63.0124 46.28466
49.78713 63.36114 45.33038
49.78713 63.66569 44.36163
49.78713 63.92807 43.38017
49.78713 64.17775 42.39542
49.78713 64.40025 41.40456
49.78713 64.69515 39.90926
49.78713 64.84577 38.90469
49.78713 64.99106 37.89911
49.78713 65.13609 36.89352
49.78713 65.28138 35.88793
49.78713 65.42667 34.88235
49.78713 65.58974 33.87956
49.78713 65.76855 32.87956
49.78713 65.95829 31.88134
49.78713 66.16302 30.88642
49.78713 66.37231 29.89226
49.78713 66.59507 28.9009
49.78713 66.82672 27.91183
49.78713 67.15971 26.95298
49.78713 67.61666 26.04696
49.78713 68.15184 25.18336
49.78713 68.47518 24.22451
49.78713 69.26182 23.58722
49.78713 70.02839 22.92174
49.78713 70.72257 22.18311
49.78713 71.30195 21.35024
49.78713 71.72257 20.42695
49.78713 71.97276 19.44296
49.78713 72.72384 17.65836
49.78713 73.36569 16.87324
49.78713 73.89148 16.00456
49.78713 74.30422 15.07797
49.78713 74.61029 14.10997
49.78713 74.82721 13.11759
49.78713 74.99129 12.11481
49.78713 75.12109 11.1077
49.78713 75.17799 9.999999
49.79221 40.381 77.37732
49.79119 42.90982 77.18097
49.78967 43.90703 76.98767
49.78967 44.87477 76.6816
49.78713 46.24027 75.44665
49.78713 46.22351 74.45759
49.78713 45.63347 73.64503
49.78713 44.75996 73.13018
49.78713 43.84429 72.69
49.78713 42.88645 72.35269
49.78713 41.90068 72.11316
49.78713 40.89789 71.94985
50.29462 40.88773 63.56479
50.29462 41.89916 63.47208
50.29462 42.90348 63.32248
50.29462 43.89788 63.1142
50.29462 44.8801 62.85691
50.29462 45.84479 62.53888
50.29462 46.80238 62.19954
50.29462 48.2009 61.59451
50.29462 49.11657 61.15509
50.29462 50.01751 60.68544
50.29462 50.8905 60.16627
50.29462 51.74801 59.6222
50.29462 52.57986 59.03851
50.29462 53.38809 58.42383
50.29462 54.18387 57.79239
50.29462 54.95476 57.13046
50.29462 55.69618 56.43577
50.29462 56.41805 55.72076
50.29462 57.1163 54.98289
50.29462 57.80083 54.23258
50.29462 58.45818 53.45762
50.29462 59.09597 52.66718
50.29462 59.71878 51.86454
50.29462 60.3073 51.03649
50.29462 60.87982 50.19728
50.29462 61.37765 49.31158
50.29462 61.86153 48.41851
50.29462 62.30679 47.50564
50.29462 62.69998 46.56914
50.29462 63.05659 45.61791
50.29462 63.37587 44.65347
50.29462 63.65629 43.67709
50.29462 63.90445 42.69183
50.29462 64.12314 41.69971
50.29462 64.34209 40.70759
50.29462 64.60346 39.20619
50.29462 64.749 38.2006
50.29462 64.89124 37.19475
50.29462 65.03322 36.18867
50.29462 65.17546 35.18257
50.29462 65.3337 34.17928
50.29462 65.51481 33.17953
50.29462 65.69591 32.17979
50.29462 65.89149 31.18284
50.29462 66.10307 30.18919
50.29462 66.31466 29.19554
50.29462 66.5557 28.2085
50.29462 66.8732 27.24559
50.29462 67.27909 26.31747
50.29462 67.81554 25.45463
50.29462 68.19908 24.52143
50.29462 68.84983 23.78687
50.29462 69.63977 23.14958
50.29462 70.35351 22.42746
50.29462 70.96819 21.62075
50.29462 71.43783 20.7221
50.29462 71.75203 19.75792
50.29462 71.91637 18.75716
50.29462 72.34436 17.88898
50.29462 73.0294 17.14044
50.29462 73.58921 16.29336
50.29462 74.0393 15.38277
50.29462 74.38296 14.42697
50.29462 74.6263 13.44119
50.29462 74.80842 12.44196
50.29462 74.93566 11.43408
50.30046 40.88875 77.11543
50.30021 42.02718 77.02577
50.29741 43.02793 76.85001
50.29741 44.00126 76.56197
50.29741 44.88213 76.06743
50.29462 45.40537 75.2244
50.29462 45.25653 74.37173
50.29462 44.57225 73.63817
50.29462 43.66268 73.19368
50.29462 42.70332 72.86323
50.29462 41.71399 72.6336
50.29462 40.70307 72.54954
50.80389 40.63475 63.27575
50.80389 41.6477 63.20716
50.80389 42.65049 63.04511
50.80389 43.6477 62.85309
50.80389 44.63118 62.59833
50.80389 45.60502 62.30902
50.80389 46.56793 61.98516
50.80389 47.51306 61.61306
50.80389 48.44271 61.20336
50.80389 49.35406 60.75479
50.80389 50.25474 60.28514
50.80389 51.12825 59.76648
50.80389 51.97788 59.20919
50.80389 52.81125 58.6288
50.80389 53.61796 58.01184
50.80389 54.39697 57.35957
50.80389 55.15948 56.68875
50.80389 55.89837 55.99153
50.80389 56.61668 55.27397
50.80389 57.29765 54.5201
50.80389 57.9705 53.75887
50.80389 58.6182 52.97603
50.80389 59.25066 52.18102
50.80389 59.85366 51.36364
50.80389 60.43811 50.53281
50.80389 60.97252 49.66895
50.80389 61.46579 48.78123
50.80389 61.9141 47.86987
50.80389 62.33117 46.94328
50.80389 62.70049 45.99739
50.80389 63.03323 45.03752
50.80389 63.3266 44.06496
50.80389 63.57984 43.08121
50.80389 63.81936 42.09392
50.80389 64.03831 41.10205
50.80389 64.23693 40.10561
50.80389 64.47823 38.60116
50.80389 64.62911 37.59634
50.80389 64.76805 36.58999
50.80389 64.90394 35.58313
50.80389 65.06142 34.57958
50.80389 65.24125 33.57958
50.80389 65.42743 32.58085
50.80389 65.61387 31.58213
50.80389 65.81326 30.58594
50.80389 66.02967 29.59331
50.80389 66.24582 28.60042
50.80389 66.5115 27.62023
50.80389 66.88768 26.67764
50.80389 67.39212 25.79778
50.80389 67.89936 24.92352
50.80389 69.12465 23.41857
50.80389 69.87091 22.72997
50.80389 70.5369 21.96569
50.80389 71.08096 21.10869
50.80389 71.46069 20.16965
50.80389 71.6804 19.17829
50.80389 71.88132 18.19303
50.80389 72.58134 17.46125
50.80389 73.19018 16.64896
50.80389 73.68498 15.763
50.80389 74.09848 14.83616
50.80389 74.37179 13.85852
50.80389 74.57525 12.8636
50.80389 74.72891 11.85928
50.80389 74.85007 10.8509
50.80389 74.87064 9.999999
50.80897 40.50774 76.7837
50.80618 42.14325 76.58586
50.80643 43.1181 76.30137
50.80389 44.1247 75.56884
50.80389 44.02514 74.27293
50.80389 43.22682 73.6585
50.80389 42.27457 73.31154
50.80389 41.26975 73.16702
50.80389 40.25527 73.12001
51.31062 40.508 62.94351
51.31062 41.52222 62.88763
51.31062 43.03301 62.69001
51.31062 44.03174 62.50713
51.31062 45.01218 62.24069
51.31062 45.98246 61.9397
51.31062 46.9408 61.60315
51.31062 47.88543 61.22926
51.31062 48.81405 60.81727
51.31062 49.7188 60.35524
51.31062 50.60806 59.86376
51.31062 51.47674 59.33671
51.31062 52.32027 58.77079
51.31062 53.14196 58.17288
51.31062 53.93774 57.54143
51.31062 54.71016 56.88179
51.31062 55.45819 56.19447
51.31062 56.1859 55.48531
51.31062 56.89075 54.75404
51.31062 57.56893 53.99763
51.31062 58.21663 53.2153
51.31062 58.85137 52.42181
51.31062 59.47088 51.61689
51.31062 60.05507 50.78605
51.31062 60.60067 49.92905
51.31062 61.11222 49.05199
51.31062 61.57374 48.14674
51.31062 62.00529 47.22751
51.31062 62.38172 46.2839
51.31062 62.71801 45.3253
51.31062 63.02485 44.3568
51.31062 63.29637 43.37763
51.31062 63.54072 42.3916
51.31062 63.76119 41.39973
51.31062 63.9555 40.40253
51.31062 64.12314 39.4005
51.31062 64.36343 37.89555
51.31062 64.50871 36.88996
51.31062 64.65375 35.88438
51.31062 64.79904 34.87879
51.31062 64.94864 33.87397
51.31062 65.13 32.87422
51.31062 65.32786 31.87778
51.31062 65.53894 30.88413
51.31062 65.73452 29.88769
51.31062 65.95575 28.89608
51.31062 66.21762 27.91487
51.31062 66.5557 26.9578
51.31062 67.02915 26.06194
51.31062 67.58796 25.21435
51.31062 67.91282 24.25626
51.31062 68.69667 23.62151
51.31062 69.47492 22.96848
51.31062 70.16631 22.22527
51.31062 70.75051 21.39596
51.31062 71.18485 20.47877
51.31062 71.45485 19.50062
51.31062 71.58871 18.49401
51.31062 72.18663 17.69975
51.31062 72.84093 16.92684
51.31062 73.37915 16.06577
51.31062 73.82111 15.15162
51.31062 74.12693 14.1844
51.31062 74.34359 13.19252
51.31062 74.52317 12.19253
51.31062 74.65271 11.18491
51.31519 40.12674 76.22136
51.31291 41.1364 76.11315
51.31291 42.09702 75.79538
51.31062 42.58928 74.76239
51.31062 41.84201 74.10324
51.31062 40.86233 73.85357
51.82472 40.254 62.69763
51.82472 41.26899 62.66817
51.82446 42.65709 62.51501
51.82167 43.65379 62.31791
51.82167 44.64312 62.08651
51.82167 45.61899 61.80432
51.82167 46.58393 61.48656
51.82167 47.53745 61.13579
51.82167 48.46988 60.73319
51.82167 49.38479 60.29124
51.82167 50.28294 59.81702
51.82167 51.16051 59.30546
51.82167 52.43533 58.47082
51.82167 53.25753 57.87417
51.82167 54.04925 57.2374
51.82167 54.82268 56.57852
51.82167 55.56385 55.88357
51.82167 56.28038 55.16374
51.82141 56.96923 54.41698
51.82065 57.87906 53.3578
51.81938 58.51584 52.56582
51.81887 59.1323 51.75887
51.81887 59.72869 50.93616
51.81887 60.2819 50.08425
51.81887 60.79498 49.20744
51.81887 61.26742 48.30828
51.81887 61.69109 47.38499
51.81887 62.08454 46.44874
51.81887 62.42896 45.49294
51.81887 62.74595 44.52799
51.81887 63.01596 43.54883
51.81887 63.26488 42.56382
51.81887 63.47874 41.57068
51.81887 63.78735 40.07817
51.81887 63.95931 39.07716
51.81887 64.17826 37.5689
51.81887 64.31085 36.5618
51.81887 64.46553 35.55748
51.81887 64.62581 34.55418
51.81887 64.78608 33.55113
51.81887 64.95194 32.54885
51.81887 65.15921 31.55419
51.81887 65.36622 30.55952
51.81887 65.57323 29.56486
51.81887 65.79548 28.57375
51.81887 66.09367 27.60296
51.81887 66.69997 26.20926
51.81887 67.25699 25.35989
51.81887 67.61335 24.41933
51.81887 68.32481 23.72565
51.81887 69.10993 23.08176
51.81887 69.83433 22.37107
51.81887 70.44266 21.55929
51.81887 70.90392 20.65657
51.81887 71.32328 19.19785
51.81887 71.85109 17.84276
51.81887 72.53155 17.09193
51.81887 73.08578 16.2423
51.81887 73.55163 15.3406
51.81887 74.38855 11.89713
51.81887 74.51759 10.88951
51.81887 74.54349 10.00152
52.33221 40.76175 62.41162
52.33221 41.77571 62.3593
52.3317 42.90652 62.20056
52.33018 44.14985 61.94199
52.32967 45.13715 61.70348
52.32967 46.11022 61.4124
52.32967 47.06882 61.07686
52.32967 48.01192 60.69967
52.32967 48.93953 60.2854
52.32967 50.51992 59.47184
52.32967 51.39545 58.95672
52.32967 52.65682 58.10176
52.32967 53.47191 57.49546
52.32967 54.25931 56.85386
52.32967 55.01978 56.1805
52.32967 55.75435 55.4787
52.32967 56.46098 54.7487
52.32916 57.47291 53.60977
52.32713 58.10639 52.81551
52.32713 58.72361 52.00932
52.32713 59.31873 51.18584
52.32713 59.88922 50.34562
52.32713 60.41322 49.47566
52.32713 60.89836 48.58311
52.32713 61.34362 47.67023
52.32713 61.74062 46.73551
52.32713 62.0919 45.78225
52.32713 62.41169 44.81806
52.32713 62.6888 43.84067
52.32713 62.93645 42.85541
52.32713 63.1747 41.86785
52.32713 63.37054 40.87091
52.32713 63.64892 39.37282
52.32713 63.80564 38.36901
52.32713 64.02459 36.86075
52.32713 64.17064 35.85517
52.32713 64.31644 34.84984
52.32713 64.4856 33.84806
52.32713 64.65832 32.84679
52.32713 64.85288 31.84959
52.32713 65.05329 30.85365
52.32713 65.26741 29.86051
52.32713 65.48687 28.86839
52.32713 65.74849 27.88719
52.32713 66.1018 26.93647
52.32713 66.86939 25.62735
52.32713 67.32253 24.7254
52.32713 67.85186 23.9065
52.32713 68.66238 23.2936
52.32713 69.41371 22.61085
52.32713 70.05201 21.82243
52.32713 70.56255 20.94765
52.32713 70.93898 20.00709
52.32713 71.19577 18.50951
52.32713 72.14167 17.35203
52.32713 72.73552 16.52907
52.32713 73.22701 15.64032
52.32713 73.61436 14.7023
52.32713 73.89376 13.72542
52.32713 74.07485 12.72644
52.32713 74.29736 11.21869
52.8397 40.37998 62.17567
52.8397 41.39294 62.14137
52.8397 42.40233 62.0253
52.83945 43.15747 61.92801
52.83716 44.52044 61.62169
52.83716 45.50316 61.36337
52.83716 46.46913 61.04917
52.83716 47.4234 60.70094
52.83716 48.35964 60.30698
52.83716 49.28421 59.88712
52.83716 50.18642 59.41976
52.83716 51.06805 58.91557
52.83716 51.93343 58.3842
52.83716 52.76325 57.79772
52.83716 53.57198 57.18355
52.83716 54.35379 56.53483
52.83716 55.1097 55.85639
52.83716 55.83563 55.14596
52.83691 56.86941 54.02684
52.8364 57.52956 53.25492
52.83462 58.31442 52.25646
52.83462 58.923 51.44289
52.83462 59.49552 50.60367
52.83462 60.02282 49.73525
52.83462 60.52421 48.85235
52.83462 60.98167 47.94531
52.83462 61.38705 47.01415
52.83462 61.75053 46.06546
52.83462 62.07616 45.10331
52.83462 62.36876 44.13048
52.83462 62.63191 43.14928
52.83462 62.86279 42.15995
52.83462 63.06955 41.16529
52.83462 63.26437 40.16808
52.83462 63.52192 38.66644
52.83462 63.67026 37.66111
52.83462 63.89251 36.15362
52.83462 64.04059 35.14829
52.83462 64.18892 34.14321
52.83462 64.35098 33.14042
52.83462 64.53843 32.14194
52.83462 64.72715 31.14346
52.83462 64.94813 30.15236
52.83462 65.15133 29.15693
52.83462 65.40965 28.17522
52.83462 65.71775 27.20799
52.83462 66.16987 26.30045
52.83462 66.98928 25.0175
52.83462 67.35885 24.08633
52.83462 68.17495 23.48206
52.83462 68.95879 22.83614
52.83462 69.6451 22.08888
52.83462 70.20314 21.24128
52.83462 70.62478 20.31926
52.83462 70.88843 19.33907
52.83462 71.43504 17.86003
52.83462 72.41954 16.70204
52.83462 72.92907 15.82422
52.83462 73.34207 14.89737
52.83462 73.64433 13.92837
52.83462 73.9311 12.43281
52.83462 74.14319 10.92405
52.83462 74.17036 9.999999
53.34897 40.63475 61.90947
53.34897 41.64948 61.86832
53.34897 42.65963 61.76063
53.3477 43.78511 61.56301
53.34668 45.01828 61.2605
53.34643 45.99618 60.98593
53.34643 46.95934 60.66385
53.34643 47.906 60.29555
53.34643 48.83768 59.89043
53.34643 49.75259 59.44948
53.34643 50.64819 58.97019
53.34643 51.51763 58.44465
53.34643 52.36853 57.88992
53.34643 53.18793 57.29022
53.34643 53.98854 56.66463
53.34643 54.75156 55.99407
53.34643 55.48993 55.29607
53.34643 56.19504 54.56456
53.34617 57.03146 53.60951
53.34465 57.81556 52.61053
53.34389 58.50568 51.69944
53.34389 59.08759 50.86682
53.34389 59.63649 50.01236
53.34389 60.14398 49.13251
53.34389 60.6055 48.22776
53.34389 61.02079 47.30066
53.34389 61.39671 46.35705
53.34389 61.73453 45.39896
53.34389 62.03475 44.42843
53.34389 62.29078 43.4452
53.34389 62.54021 42.46044
53.34389 62.74214 41.46476
53.34389 62.94255 40.46883
53.34389 63.11654 39.46781
53.34389 63.35987 37.96362
53.34389 63.50186 36.95753
53.34389 63.64359 35.95144
53.34389 63.78558 34.94534
53.34389 63.94051 33.94153
53.34389 64.2001 32.43963
53.34389 64.4061 31.44497
53.34389 64.61768 30.45132
53.34389 64.82952 29.45742
53.34389 65.07158 28.47088
53.34389 65.37104 27.50034
53.34389 65.76271 26.56537
53.34389 66.31084 25.71142
53.34389 66.94076 24.34414
53.34389 67.69641 23.68806
53.34389 68.49372 23.05865
53.34389 69.21381 22.34364
53.34389 69.81731 21.52804
53.34389 70.28137 20.62558
53.34389 70.59735 19.66292
53.34389 70.77185 18.66318
53.34389 71.62377 17.46684
53.34389 72.50895 16.23036
53.34389 72.96742 15.32587
53.34389 73.32175 14.37439
53.34389 73.56559 13.38912
53.34389 73.82975 11.88849
53.85646 41.14275 61.6763
53.85646 42.15519 61.59985
53.85494 44.52679 61.16957
53.85392 45.51027 60.9143
53.85392 46.4803 60.61229
53.85392 47.43763 60.27244
53.85392 48.37743 59.88712
53.85392 49.30199 59.46624
53.85392 50.20445 58.99964
53.85392 51.09091 58.50333
53.85392 51.95172 57.9646
53.85392 52.78636 57.38547
53.85392 53.59179 56.76674
53.85392 54.36675 56.11014
53.85392 55.11148 55.41926
53.85392 55.82369 54.69511
53.85367 56.50949 53.94555
53.85215 57.47545 52.76776
53.85138 58.08506 51.95521
53.85138 58.67357 51.12717
53.85138 59.23593 50.2811
53.85138 59.73936 49.39895
53.85138 60.2278 48.50818
53.85138 60.65375 47.5859
53.85138 61.03272 46.64382
53.85138 61.37613 45.68751
53.85138 61.68296 44.71926
53.85138 61.94433 43.7378
53.85138 62.18944 42.75178
53.85138 62.40382 41.75889
53.85138 62.59838 40.76169
53.85138 62.79294 39.76448
53.85138 62.96211 38.76296
53.85138 63.11197 37.75813
53.85138 63.33676 36.25065
53.85138 63.47544 35.2443
53.85138 63.61413 34.23769
53.85138 63.78583 33.23643
53.85138 64.06167 31.73783
53.85138 64.27478 30.74443
53.85138 64.48763 29.75104
53.85138 64.70074 28.75765
53.85138 64.97938 27.78102
53.85138 65.35123 26.8369
53.85138 65.85263 25.95552
53.85138 66.42489 25.11732
53.85138 67.18613 23.86459
53.85138 67.99689 23.2527
53.85138 68.74747 22.56944
53.85138 69.39059 21.78585
53.85138 69.91688 20.91844
53.85138 70.28645 19.97432
53.85138 70.50311 18.98373
53.85138 70.79395 18.03859
53.85138 71.82239 16.92201
53.85138 72.61538 15.62509
53.85138 73.00629 14.68808
53.85138 73.30372 13.71754
53.85138 73.49117 12.71907
53.85138 73.70758 11.21082
53.85138 73.77006 9.999999
54.36395 40 61.4792
54.36395 41.52273 61.43652
54.36395 42.53314 61.34
54.36319 44.03276 61.08092
54.36142 45.8773 60.60671
54.36142 46.84428 60.29605
54.36142 47.79704 59.94376
54.36142 48.73379 59.55057
54.36142 49.65047 59.11293
54.36142 50.55065 58.64252
54.36142 51.42974 58.13325
54.36142 52.27963 57.577
54.36142 53.10284 56.98162
54.36142 53.89278 56.34306
54.36142 54.65097 55.6669
54.36142 55.37843 54.95749
54.36142 56.0749 54.21784
54.35989 57.129 52.94784
54.35887 57.74012 52.13632
54.35887 58.33092 51.30979
54.35887 58.88439 50.45839
54.35887 59.41322 49.59072
54.35887 59.87601 48.68648
54.35887 60.31136 47.76903
54.35887 60.70608 46.83303
54.35887 61.04492 45.87521
54.35887 61.35403 44.90798
54.35887 61.62378 43.9283
54.35887 61.87651 42.94456
54.35887 62.09064 41.95142
54.35887 62.28494 40.95422
54.35887 62.47239 39.95575
54.35887 62.64207 38.95397
54.35887 62.80387 37.95118
54.35887 62.94255 36.94457
54.35887 63.08123 35.93823
54.35887 63.22017 34.93162
54.35887 63.38121 33.92858
54.35887 63.55113 32.9268
54.35887 63.72614 31.9263
54.35887 63.93848 30.93265
54.35887 64.15108 29.939
54.35887 64.36673 28.94636
54.35887 64.63952 27.96771
54.35887 64.97938 27.01063
54.35887 65.46578 26.12113
54.35887 66.05964 25.29664
54.35887 66.41625 24.34998
54.35887 67.57754 23.38732
54.35887 68.35504 22.7348
54.35887 69.0134 21.96416
54.35887 69.57271 21.11758
54.35887 69.98267 20.1887
54.35887 70.22524 19.20394
54.35887 70.43174 18.2202
54.35887 71.147 17.50265
54.35887 72.04642 16.27659
54.35887 72.71291 14.9088
54.35887 73.00933 13.93801
54.35887 73.23514 12.94792
54.35887 73.39389 11.94488
54.35887 73.52775 10.93777
54.87297 40.508 61.27396
54.87297 42.0287 61.19522
54.87272 43.41452 61.0258
54.87195 44.28218 60.83378
54.87043 45.5151 60.52948
54.87043 46.48665 60.23231
54.87043 47.44576 59.89729
54.87043 48.38835 59.51831
54.87043 49.31443 59.10074
54.87043 50.22172 58.64379
54.87043 51.10437 58.14087
54.87043 56.12341 53.8945
54.86916 57.30984 52.40555
54.86814 57.84198 51.69334
54.86814 58.40306 50.8465
54.86814 58.9324 49.97985
54.86814 59.42668 49.09237
54.86814 59.86559 48.17645
54.86814 60.2725 47.24605
54.86814 60.63217 46.29584
54.86814 60.95119 45.33165
54.86814 61.22297 44.35273
54.86814 61.48205 43.37052
54.86814 61.69973 42.37839
54.86814 61.90115 41.38246
54.86814 62.10232 40.38678
54.86814 62.28113 39.38678
54.86814 62.44395 38.38374
54.86814 62.59305 37.37891
54.86814 62.73173 36.37231
54.86814 62.87041 35.36597
54.86814 63.0091 34.35936
54.86814 63.15845 33.35454
54.86814 63.33244 32.35352
54.86814 63.53056 31.35708
54.86814 63.73833 30.36267
54.86814 63.95677 29.37055
54.86814 64.32101 28.02232
54.86814 64.654 27.06524
54.86814 65.12415 26.16685
54.86814 65.71953 25.34414
54.86814 66.0924 24.40917
54.86814 66.82596 23.72819
54.86814 68.01925 22.78357
54.86814 68.69921 22.03071
54.86814 69.49499 20.73633
54.86814 69.85237 19.7889
54.86814 70.03575 18.79094
54.86814 70.83128 17.57098
54.86814 71.46628 16.77952
54.86814 72.00298 15.91845
54.86814 72.61843 14.52628
54.86814 72.88258 13.54634
54.86814 73.07664 12.5494
54.86814 73.24252 11.54712
54.86814 73.33242 9.999999
55.3797 41.26975 61.08321
55.3797 42.78587 60.9369
55.37767 44.53263 60.61052
55.37767 46.00532 60.2196
55.37767 46.97179 59.90719
55.37767 47.92302 59.55057
55.37767 48.86054 59.15967
55.37767 49.77874 58.72558
55.37767 50.6746 58.24704
55.37767 51.54354 57.72127
55.37767 52.38606 57.15382
55.37767 53.19632 56.54143
55.37767 53.97381 55.88815
55.37767 54.71371 55.19219
55.37767 55.4178 54.45965
55.37741 56.33703 53.40835
55.37716 56.7358 52.91433
55.37564 57.49298 51.89476
55.37564 58.05305 51.04716
55.37564 58.59153 50.1861
55.37564 59.08581 49.29863
55.37564 59.54555 48.39286
55.37564 59.94916 47.46043
55.37564 60.29638 46.50615
55.37564 60.61819 45.54273
55.37564 60.90725 44.56864
55.37564 61.15058 43.58236
55.37564 61.37181 42.591
55.37538 61.7076 40.845
55.37538 61.89937 39.84728
55.37538 62.06676 38.84526
55.37564 62.23338 37.84297
55.37564 62.36927 36.83612
55.37564 62.50389 35.82901
55.37564 62.63851 34.8219
55.37564 62.77339 33.81504
55.37564 62.92858 32.81098
55.37564 63.12695 31.81453
55.37564 63.32863 30.81886
55.37564 63.53056 29.82292
55.37564 63.75916 28.83308
55.37564 64.21153 27.37817
55.37564 64.65857 26.46936
55.37564 65.21763 25.62252
55.37564 65.72411 24.74902
55.37564 66.27427 23.94231
55.37564 67.09342 23.3416
55.37564 68.21991 22.32078
55.37564 68.8163 21.49985
55.37564 69.48914 20.13943
55.37564 69.73172 19.15416
55.37564 70.32252 17.82295
55.37564 71.02305 17.0899
55.37564 71.59049 16.24763
55.37564 72.0548 15.3467
55.37564 72.57322 13.91617
55.37564 72.78759 12.92328
55.37564 72.94278 11.91922
55.37564 73.08529 10.91389
55.88897 40.76149 60.94834
55.88897 41.7752 60.88331
55.88897 43.28854 60.70803
55.88821 43.90982 60.57927
55.88592 45.51612 60.19726
55.88592 46.49046 59.90947
55.88592 47.45236 59.58283
55.88592 48.39749 59.21021
55.88592 49.32307 58.79136
55.88592 50.22782 58.32909
55.88592 51.11148 57.8282
55.88592 51.96315 57.27422
55.88592 52.78153 56.6725
55.88592 53.56716 56.02861
55.88592 54.3129 55.339
55.88592 55.03401 54.62424
55.88592 55.71219 53.86783
55.88313 57.1229 52.07053
55.88313 57.70634 51.23868
55.88313 58.24025 50.37457
55.88313 58.73275 49.48709
55.88313 59.18487 48.57701
55.88313 59.59813 47.64889
55.88313 59.95729 46.69893
55.88313 60.27707 45.7345
55.88313 60.56028 44.75888
55.88313 60.79879 43.77133
55.88313 61.03247 42.78251
55.88313 61.22576 41.78531
55.88313 61.50593 40.28721
55.88313 61.68373 39.28696
55.88313 61.83765 38.2829
55.88313 61.99157 37.27858
55.88313 62.13178 36.27248
55.88313 62.2438 35.26258
55.88313 62.38756 34.257
55.88313 62.5392 33.25243
55.88313 62.70328 32.24989
55.88313 62.89759 31.25269
55.88313 63.10359 30.25802
55.88313 63.3426 29.27047
55.88313 63.58187 28.28292
55.88313 64.10282 26.85442
55.88313 64.63444 25.99082
55.88313 65.2062 25.15364
55.88313 65.60041 24.22451
55.88313 66.40889 23.61313
55.88313 67.21661 22.99769
55.88313 68.26283 21.89533
55.88313 68.81427 21.0429
55.88313 69.35961 19.62482
55.88313 69.54274 18.62736
55.88313 70.42844 17.44956
55.88313 71.05582 16.65125
55.88313 71.59252 15.79069
55.88313 72.00197 14.86156
55.88313 72.43605 13.40487
55.88313 72.6357 12.40919
55.88313 72.77565 11.40284
55.88313 72.86709 10.39294
56.39646 40.381 60.80685
56.39646 41.39624 60.77003
56.39646 42.40767 60.68519
56.39468 44.77901 60.25313
56.39392 45.88467 59.96485
56.39392 46.8547 59.66335
56.39392 47.80999 59.31766
56.39392 48.74903 58.93107
56.39392 49.668 58.4985
56.39392 50.56386 58.01997
56.39392 51.43178 57.49241
56.39392 52.27201 56.92192
56.39392 53.07236 56.29658
56.39392 53.83868 55.63034
56.39392 54.56436 54.91914
56.39392 55.25981 54.17898
56.39367 55.92072 53.40732
56.39316 56.3957 52.81145
56.39214 56.76908 52.29811
56.39138 57.34058 51.45839
56.39138 57.8943 50.60647
56.39138 58.38528 49.71697
56.39138 58.84146 48.81018
56.39138 59.24279 47.87699
56.39138 59.60499 46.92804
56.39138 59.92757 45.96462
56.39138 60.2118 44.98951
56.39138 60.45309 44.00273
56.39138 60.67789 43.01213
56.39138 60.87931 42.01644
56.39138 61.05533 41.01594
56.39138 61.23135 40.01518
56.39138 61.40737 39.01467
56.39138 61.56688 38.01138
56.39138 61.70658 37.00503
56.39138 61.83486 35.99715
56.39138 61.96262 34.98928
56.39138 62.09013 33.98116
56.39138 62.23287 32.97557
56.39138 62.39797 31.97303
56.39138 62.60575 30.97862
56.39138 62.81682 29.98472
56.39138 63.04085 28.99387
56.39138 63.31364 28.01571
56.39138 63.66213 27.06245
56.39138 64.16022 26.17878
56.39138 64.76119 25.35963
56.39138 65.18029 24.44117
56.39138 65.90368 23.75791
56.39138 66.7269 23.16253
56.39138 67.48178 22.48461
56.39138 68.3939 21.26973
56.39138 68.8478 20.36295
56.39138 69.14167 19.39088
56.39138 69.29001 18.38632
56.39138 69.97835 17.65378
56.39138 70.64205 16.8867
56.39138 71.19704 16.03682
56.39138 71.64433 15.12623
56.39138 71.99943 14.17551
56.39138 72.33496 12.69012
56.39138 72.49829 11.68732
56.39138 72.60395 10.67716
56.39138 72.60979 9.999999
56.90395 40 60.68189
56.90395 41.01574 60.67376
56.90395 42.0287 60.59578
56.90395 43.03632 60.47107
56.90345 44.28498 60.24399
56.90141 45.3947 59.97094
56.90141 46.37032 59.68748
56.90141 47.33349 59.36413
56.90141 48.28269 59.00219
56.90141 49.21207 58.59223
56.90141 50.11022 58.11776
56.90141 50.99515 57.61941
56.90141 51.84351 57.06036
56.90141 52.65987 56.45609
56.90141 53.43228 55.79671
56.90141 54.17091 55.09948
56.90141 54.8717 54.3644
56.90116 55.45869 53.69663
56.90014 56.02004 53.00779
56.89887 56.98955 51.672
56.89887 57.53616 50.81577
56.89887 58.03578 49.9321
56.89887 58.49272 49.02506
56.89887 58.90217 48.09517
56.89887 59.24939 47.14089
56.89887 59.58213 46.18103
56.89887 59.86254 45.20466
56.89887 60.0947 44.21532
56.89887 60.32356 43.22548
56.89887 60.51253 42.22726
56.89887 60.70151 41.22905
56.89887 60.87626 40.22829
56.89887 61.03933 39.22549
56.89887 61.18665 38.22016
56.89887 61.33295 37.21483
56.89887 61.4597 36.2067
56.89887 61.58644 35.19858
56.89887 61.71344 34.19071
56.89887 61.84019 33.18258
56.89887 62.00707 32.1803
56.89887 62.19808 31.18284
56.89887 62.38299 30.18411
56.89887 62.61641 29.19529
56.89887 62.87168 28.21206
56.89887 63.21179 27.25549
56.89887 63.68652 26.35963
56.89887 64.27478 25.53108
56.89887 64.7589 24.64539
56.89887 65.38044 23.88288
56.89887 66.21179 23.29919
56.89887 66.99131 22.64818
56.89887 67.66746 21.89253
56.89887 68.45206 20.59028
56.89887 68.77871 19.62965
56.89887 68.96565 18.63245
56.89887 69.50667 17.82142
56.89887 70.20111 17.08228
56.89887 70.78175 16.24992
56.89887 71.27223 15.36093
56.89887 71.6451 14.41579
56.89887 71.92704 13.44068
56.89887 72.11423 12.44221
56.89887 72.26765 11.43789
57.41297 40.63449 60.56632
57.41297 41.64846 60.5013
57.41297 42.6604 60.41799
57.41297 43.66649 60.27625
57.41068 44.90525 60.00066
57.40967 45.88747 59.74209
57.40967 46.858 59.44161
57.40967 47.81279 59.09591
57.40967 48.75005 58.70399
57.40967 49.66521 58.26381
57.40967 50.55522 57.77435
57.40967 51.41628 57.23613
57.40967 52.24229 56.64557
57.40967 53.02791 56.00194
57.40967 53.77747 55.31665
57.40967 54.49045 54.593
57.40967 55.16812 53.83659
57.40738 56.48206 52.12463
57.40636 57.04137 51.27678
57.40636 57.5608 50.40403
57.40636 58.08607 49.38956
57.40636 58.49145 48.45839
57.40636 58.86534 47.51402
57.40636 59.18233 46.54857
57.40636 59.4752 45.576
57.40636 59.71319 44.5887
57.40636 59.93036 43.59607
57.40636 60.13026 42.60014
57.40636 60.3007 41.59862
57.40636 60.47494 40.59964
57.40636 60.64181 39.59786
57.40636 60.7932 38.59304
57.40636 60.92655 37.58593
57.40636 61.05152 36.5778
57.40636 61.17649 35.56942
57.40636 61.28037 34.55901
57.40636 61.40966 33.55139
57.40636 61.56333 32.54733
57.40636 61.74443 31.54758
57.40636 61.92579 30.54784
57.40636 62.14931 29.55724
57.40636 62.38984 28.57019
57.40636 62.68525 27.59864
57.40636 63.12365 26.68323
57.40636 63.69718 25.84706
57.40636 64.25675 25.00302
57.40636 65.56078 23.54201
57.40636 66.36749 22.92555
57.40636 67.08554 22.21105
57.40636 67.70073 21.40409
57.40636 68.35605 20.033
57.40636 68.60015 19.04849
57.40636 69.63672 17.41273
57.40636 70.27045 16.62
57.40636 70.80182 15.75513
57.40636 71.22143 14.83032
57.40636 71.53715 13.86638
57.40636 71.75331 12.87477
57.40636 71.92983 11.87427
57.40636 72.06445 10.86741
57.40636 72.09747 9.999999
57.92046 40.254 60.47183
57.92046 41.26899 60.44008
57.92046 42.28244 60.36617
57.92046 43.28905 60.23053
57.92046 44.2898 60.05907
57.91919 45.3947 59.76774
57.91792 46.37489 59.50028
57.91792 47.33654 59.17237
57.91792 48.28116 58.79899
57.91792 49.20292 58.37176
57.91792 50.10514 57.90643
57.91792 50.98398 57.39691
57.91792 51.82091 56.82083
57.91792 52.61237 56.18533
57.91792 53.37208 55.51095
57.91792 54.09751 54.79976
57.91792 54.78102 54.04842
57.91792 55.43406 53.27016
57.91564 56.11503 52.35247
57.91564 56.68094 51.50868
57.91564 57.20596 50.63873
57.91564 57.68297 49.74185
57.91564 58.10283 48.81679
57.91564 58.47647 47.8719
57.91564 58.80362 46.91001
57.91564 59.09242 45.93592
57.91564 59.34489 44.95192
57.91564 59.54962 43.95675
57.91589 59.75333 42.96133
57.91564 60.06879 41.08274
57.91564 60.22145 40.07843
57.91564 60.38299 39.07563
57.91564 60.52675 38.07005
57.91564 60.64207 37.06065
57.91564 60.75053 36.05049
57.91564 60.85899 35.04034
57.91564 60.9677 34.02992
57.91564 61.10765 33.02383
57.91564 61.25447 32.0185
57.91564 61.42744 31.01748
57.91564 61.62861 30.02154
57.91564 61.85187 29.0307
57.91564 62.13153 28.05457
57.91564 62.49526 27.10766
57.91564 63.00528 26.2306
57.91564 63.62784 25.42796
57.91564 64.07132 24.51991
57.91564 64.7716 23.82192
57.91564 66.00452 22.92784
57.91564 66.73629 22.22553
57.91564 67.35301 21.41882
57.91564 67.8351 20.52551
57.91564 68.1813 19.57097
57.91564 68.34488 18.56894
57.91564 68.94533 17.79094
57.91564 69.63824 17.049
57.91564 70.22117 16.2169
57.91564 70.70886 15.32587
57.91564 71.09087 14.38506
57.91564 71.36748 13.40893
57.91564 71.5595 12.41148
57.91564 71.72028 11.40868
58.42795 40.762 60.37785
58.42795 41.77546 60.31715
58.42795 42.78638 60.21758
58.42795 43.78993 60.06416
58.42795 44.78816 59.87544
58.42541 46.85749 59.26432
58.42541 47.81685 58.9298
58.42541 48.74445 58.51578
58.42541 49.6586 58.07306
58.42541 50.54328 57.57446
58.42541 51.39215 57.01769
58.42541 52.20318 56.40656
58.42541 52.97356 55.74514
58.42541 53.70355 55.03877
58.42541 54.39799 54.2976
58.42516 54.97457 53.6212
58.42465 55.60195 52.82211
58.42363 56.24838 51.88028
58.42313 56.78889 51.02049
58.42313 57.27556 50.12921
58.42313 57.70405 49.20845
58.42313 58.08531 48.26687
58.42313 58.42084 47.30828
58.42313 58.70304 46.33267
58.42313 58.95119 45.34741
58.42313 59.17039 44.35579
58.42313 59.34692 43.35553
58.42313 59.51152 42.35274
58.42313 59.67611 41.3502
58.42313 59.83181 40.3464
58.42313 59.97964 39.34106
58.42313 60.11375 38.33421
58.42313 60.23466 37.32532
58.42313 60.34362 36.31516
58.42313 60.4437 35.30424
58.42313 60.54352 34.29307
58.42313 60.66011 33.28393
58.42313 60.80666 32.27859
58.42313 60.96465 31.27504
58.42313 61.14499 30.27529
58.42313 61.37283 29.28546
58.42313 61.62327 28.30121
58.42313 61.96541 27.34541
58.42313 62.44877 26.45412
58.42313 63.0604 25.64284
58.42313 63.59228 24.78305
58.42313 64.16378 23.98372
58.42313 65.01367 23.42745
58.42313 66.18486 22.45565
58.42313 66.84069 21.6812
58.42313 67.36875 20.81507
58.42313 67.7528 19.87628
58.42313 67.98039 18.88797
58.42313 69.11424 17.29996
58.42313 69.72968 16.49351
58.42313 70.26054 15.62813
58.42313 70.66898 14.6985
58.42313 70.9847 13.73405
58.42313 71.20949 12.74422
58.42313 71.37052 11.74117
58.42313 71.5021 10.73457
58.42313 71.50667 9.999999
58.93545 45.8895 59.50536
58.93341 47.3345 59.02124
58.93341 48.27837 58.64532
58.93341 49.20039 58.2191
58.93341 50.09802 57.74336
58.93341 50.96315 57.21073
58.93341 51.78154 56.60875
58.93341 52.56208 55.95876
58.93341 53.30274 55.2633
58.93341 54.00759 54.53179
58.93316 55.07033 53.2689
58.93163 55.88592 52.13581
58.93062 56.43075 51.27906
58.93062 56.91437 50.386
58.93062 57.36623 49.47617
58.93062 57.7452 48.53358
58.93062 58.0848 47.57599
58.93062 58.36242 46.59886
58.93062 58.61566 45.61537
58.93062 58.82318 44.62274
58.93062 58.98599 43.61969
58.93062 59.14855 42.6169
58.93062 59.3073 41.61335
58.93062 59.43887 40.60598
58.93062 59.5707 39.59862
58.93062 59.70253 38.591
58.93062 59.828 37.58313
58.93062 59.93163 36.57272
58.93062 60.01723 35.56053
58.93062 60.10537 34.54834
58.93113 60.209 33.53767
58.93113 60.36292 32.27732
58.93087 60.46503 31.65071
58.93062 60.58746 30.8986
58.93062 60.78177 29.90141
58.93062 61.00859 28.91182
58.93062 61.28952 27.93545
58.93062 61.67458 26.99794
58.93062 62.23312 26.15161
58.93062 62.85492 25.3482
58.93062 63.31237 24.44752
58.93062 64.47265 23.49629
58.93062 65.29332 22.89964
58.93062 66.36418 21.82268
58.93062 66.93086 20.98067
58.93062 67.34843 20.05561
58.93062 67.6004 19.07161
58.93062 68.289 17.79449
58.93062 69.29788 16.65709
58.93062 69.84144 15.79907
58.93062 70.29153 14.88848
58.93062 70.61868 13.92709
58.93062 70.87345 12.94462
58.93062 71.04871 11.94386
58.93062 71.1818 10.93675
59.44396 40.76175 60.25339
59.44396 41.7752 60.19624
59.44396 42.78511 60.10836
59.44396 43.78917 59.95621
59.44396 44.78485 59.75453
59.44268 46.49224 59.26558
59.44167 47.68706 58.83582
59.44167 48.62152 58.4383
59.44167 49.53084 57.98619
59.44167 50.4074 57.47387
59.44167 51.26007 56.92116
59.44167 52.05382 56.2882
59.44167 52.81074 55.61104
59.44167 53.53033 54.89424
59.44167 54.21079 54.14037
59.44116 54.77289 53.45204
59.43989 55.37462 52.63365
59.43963 55.93571 51.78681
59.43963 56.45336 50.91305
59.43963 56.91487 50.00881
59.43963 57.30629 49.07155
59.43963 57.65401 48.11702
59.43963 57.94357 47.14344
59.43963 58.20621 46.16223
59.43963 58.42084 45.16933
59.43963 58.59788 44.16909
59.43963 58.74444 43.16376
59.43963 58.87423 42.15615
59.43963 59.00377 41.14852
59.43963 59.13331 40.14065
59.43963 59.2631 39.13304
59.43963 59.38096 38.1239
59.43963 59.48002 37.11298
59.43963 59.56638 36.10053
59.43963 59.63573 35.08707
59.43963 59.70481 34.07336
59.43963 59.80387 33.06218
59.43963 59.93849 32.05507
59.43963 60.0914 31.05101
59.43963 60.27352 30.05152
59.43963 60.50288 29.06219
59.43963 60.76907 28.082
59.43963 61.15134 27.1417
59.43963 61.69363 26.2847
59.43963 62.3299 25.49349
59.43963 62.82393 24.61186
59.43963 63.50618 23.89837
59.43963 64.76627 23.04214
59.43963 65.51481 22.35761
59.43963 66.45309 21.16279
59.43963 66.90876 20.25652
59.43963 67.20823 19.287
59.43963 67.40762 18.29564
59.43963 68.50007 17.23976
59.43963 69.39034 16.00634
59.43963 69.86685 15.11022
59.43963 70.21838 14.15747
59.43963 70.48279 13.17779
59.43963 70.68803 12.18262
59.43963 70.84271 11.17881
59.43963 70.88767 9.999999
59.95144 46.01396 59.38827
59.94967 47.33171 58.92421
59.94967 48.27024 58.53533
59.94967 49.18769 58.09871
59.94967 50.07567 57.60519
59.94967 50.9187 57.03953
59.94967 51.73632 56.43678
59.94967 52.49782 55.76445
59.94967 53.21638 55.04614
59.94967 53.90625 54.30115
59.9484 54.85697 53.11066
59.94713 55.6431 51.95572
59.94713 56.161 51.08196
59.94713 56.62709 50.1795
59.94713 57.03095 49.24732
59.94713 57.37563 48.29202
59.94713 57.66519 47.31844
59.94713 57.90776 46.33216
59.94713 58.10385 45.33521
59.94687 58.25701 44.33089
59.94687 58.40916 43.32632
59.94687 58.53006 42.31744
59.94713 58.65097 41.3088
59.94713 58.77085 40.29991
59.94713 58.8755 39.28925
59.94713 58.97888 38.27858
59.94713 59.04721 37.26486
59.94713 59.11528 36.25115
59.94713 59.1836 35.23744
59.94713 59.25167 34.22373
59.94713 59.32584 33.21052
59.94713 59.44522 32.20163
59.94713 59.59229 31.19655
59.94713 59.75891 30.19427
59.94713 59.96516 29.19961
59.94713 60.22754 28.21917
59.94713 60.5801 27.26616
59.94713 61.1229 26.40891
59.94713 61.75662 25.61516
59.94713 62.32025 24.77543
59.94713 62.908 23.99388
59.94713 63.76043 23.44168
59.94713 64.95499 22.50036
59.94713 65.64638 21.75817
59.94713 66.20924 20.91311
59.94713 66.62809 19.98957
59.94713 66.88869 19.00862
59.94713 67.61463 17.76275
59.94713 68.62707 16.62762
59.94713 69.16835 15.76859
59.94713 69.62834 14.86435
59.94713 69.96159 13.90551
59.94713 70.21609 12.92202
59.94713 70.38221 11.91973
59.94713 70.54325 10.91694
60.46046 40.50774 60.19091
60.46046 41.52273 60.14976
60.46046 42.53543 60.07
60.46046 43.54177 59.93233
60.46046 44.54 59.74387
60.45792 46.73379 59.10683
60.45792 47.68579 58.75327
60.45792 48.73151 58.29302
60.45792 49.6299 57.81982
60.45792 50.49452 57.28718
60.45792 51.31545 56.69002
60.45792 52.09243 56.03623
60.45792 52.82827 55.33621
60.45792 53.5222 54.59478
60.45767 54.49248 53.42028
60.45563 55.29385 52.27576
60.45563 55.81785 51.40555
60.45563 56.27708 50.4998
60.45563 56.68755 49.57066
60.45563 57.02206 48.6113
60.45563 57.31772 47.64
60.45563 57.55927 46.65322
60.45563 57.76298 45.65804
60.45563 57.92173 44.655
60.45563 58.0594 43.64814
60.45563 58.17319 42.63874
60.45563 58.27149 41.62757
60.45563 58.37004 40.6164
60.45563 58.46834 39.60522
60.45563 58.55064 38.59253
60.45563 58.61261 37.57856
60.45563 58.66747 36.56408
60.45563 58.72234 35.54935
60.45563 58.7772 34.53488
60.45563 58.83207 33.5204
60.45563 58.92782 32.50923
60.45563 59.04212 31.49983
60.45563 59.18563 30.49424
60.45563 59.38198 29.49755
60.45563 59.62404 28.51101
60.45563 59.95907 27.55318
60.45563 60.44776 26.66469
60.45563 61.07692 25.86814
60.45563 61.70074 25.0688
60.45563 63.04567 23.64717
60.45563 63.88667 23.07719
60.45563 65.00909 22.05001
60.45563 65.62378 21.2428
60.45563 66.10053 20.34745
60.45563 66.41879 19.38377
60.45563 66.62428 18.39165
60.45563 67.70048 17.32967
60.45563 68.61488 16.11251
60.45563 69.10612 15.22605
60.45563 69.49295 14.28777
60.45563 69.76473 13.30936
60.45563 69.98064 12.31673
60.45563 70.16402 11.31801
60.45563 70.22727 9.999999
60.96795 40 60.15687
60.96795 41.01574 60.15662
60.96795 42.02971 60.1081
60.96795 43.03936 59.9966
60.96795 44.04063 59.82362
60.9677 45.52399 59.48073
60.96668 46.366 59.19472
60.96567 47.20776 58.90897
60.96592 48.14781 58.52441
60.96592 49.0617 58.08068
60.96592 49.94258 57.57496
60.96592 50.78586 57.00829
60.96592 51.57249 56.36719
60.96592 52.32764 55.68723
60.96592 53.04163 54.9646
60.96592 53.70432 54.19473
60.96389 54.83411 52.66336
60.96389 55.38656 51.81145
60.96389 55.87246 50.91915
60.96389 56.29816 49.99687
60.96389 56.65021 49.04412
60.96389 56.95374 48.07587
60.96389 57.20291 47.09086
60.96389 57.41068 46.09645
60.96389 57.57324 45.0934
60.96389 57.69313 44.08451
60.96389 57.8115 43.07537
60.96389 57.88871 42.06242
60.96389 57.96593 41.04947
60.96389 58.04314 40.03626
60.96389 58.11757 39.02306
60.96389 58.15948 38.00782
60.96389 58.20138 36.99284
60.96389 58.2433 35.9776
60.96389 58.28521 34.96261
60.96389 58.32712 33.94737
60.96389 58.37512 32.93264
60.96389 58.46783 31.92096
60.96389 58.59534 30.91334
60.96389 58.75485 29.9103
60.96389 58.97507 28.91843
60.96389 59.25904 27.94434
60.96389 59.68093 27.02232
60.96389 60.27656 26.20139
60.96389 60.93544 25.42796
60.96389 61.45487 24.56106
60.96389 62.1587 23.87424
60.96389 63.43836 23.0495
60.96389 64.22449 22.40739
60.96389 64.90064 21.65073
60.96389 65.46122 20.80541
60.96389 65.87523 19.87856
60.96389 66.13101 18.89584
60.96389 66.93162 17.69722
60.96389 67.63038 16.96011
60.96389 68.21838 16.13257
60.96389 68.71623 15.24891
60.96389 69.12415 14.31977
60.96389 69.39974 13.34239
60.96389 69.62478 12.35179
60.96389 69.79674 11.35077
60.96389 69.88284 9.999999
61.47545 40.508 60.16678
61.47545 44.78612 59.67021
61.47291 46.72846 59.08017
61.47291 47.67766 58.71872
61.47291 48.60323 58.30115
61.47291 49.49757 57.82032
61.47291 50.35329 57.27422
61.47291 51.16127 56.65954
61.47291 51.92479 55.99
61.47291 52.64234 55.27169
61.47291 53.33246 54.52594
61.47062 54.25727 53.31538
61.47062 55.08963 52.03954
61.47062 55.57833 51.14927
61.47062 56.01038 50.23106
61.47062 56.36014 49.27729
61.47062 56.65732 48.30625
61.47062 56.90116 47.32022
61.47062 57.10233 46.3248
61.47062 57.25041 45.31972
61.47062 57.36471 44.31032
61.47062 57.46428 43.2994
61.47062 57.53946 42.28619
61.47062 57.60245 41.27223
61.47062 57.66037 40.258
61.47062 57.69745 39.24251
61.47062 57.73453 38.22727
61.47062 57.75536 37.21153
61.47062 57.7706 36.19553
61.47062 57.7861 35.17978
61.47062 57.80134 34.16378
61.47062 57.83969 33.14854
61.47062 57.91056 32.13508
61.47062 58.01673 31.12492
61.47062 58.15795 30.11934
61.47062 58.34464 29.12061
61.47062 58.63192 28.14779
61.47062 59.0213 27.21079
61.47062 59.60092 26.38021
61.47062 60.27885 25.62456
61.47062 60.85264 24.79042
61.47062 61.4602 24.02029
61.47062 62.3393 23.51127
61.47062 63.57323 22.61872
61.47062 64.27885 21.88923
61.47062 64.88057 21.07237
61.47062 65.33421 20.16711
61.47062 65.64511 19.20089
61.47062 66.28417 17.89813
61.47062 67.02255 17.20471
61.47062 67.65857 16.41325
61.47062 68.18968 15.54812
61.47062 68.62631 14.63296
61.47062 68.94711 13.6703
61.47062 69.17673 12.68071
61.47062 69.38399 11.68681
61.47062 69.50667 10.67894
61.47062 69.51658 9.999999
61.98472 41.016 60.18354
61.98472 42.02921 60.12284
61.98472 43.03962 60.01946
61.98472 44.03987 59.84064
61.98218 46.36448 59.20996
61.98218 47.31901 58.86172
61.98218 48.25068 58.4566
61.98218 49.15264 57.98898
61.98218 50.01725 57.45558
61.98218 50.83666 56.85589
61.98218 51.60653 56.19269
61.98218 52.33272 55.48226
61.98218 53.01826 54.73244
61.98141 53.79855 53.73118
61.97964 54.51966 52.68571
61.97964 55.27251 51.36263
61.97964 55.71371 50.44747
61.97964 56.0782 49.49928
61.97964 56.3642 48.52469
61.97964 56.62481 47.54272
61.97964 56.7993 46.54247
61.97964 56.95577 45.53867
61.97964 57.06677 44.52876
61.97964 57.13967 43.51581
61.97964 57.18589 42.50083
61.97964 57.23771 41.48686
61.97964 57.25752 40.47111
61.97964 57.27733 39.45511
61.97964 57.29714 38.43937
61.97964 57.28089 37.67863
61.97964 57.27124 36.66264
61.97964 57.26286 35.64663
61.97964 57.26717 34.63063
61.97964 57.27556 33.61463
61.97964 57.32051 32.59991
61.97964 57.40129 31.58695
61.97964 57.49857 30.57629
61.97964 57.66163 29.57349
61.97964 57.87703 28.58137
61.97964 58.21993 27.62684
61.97964 58.71929 26.74571
61.97964 59.37613 25.97304
61.97964 60.04924 25.21308
61.97964 60.53133 24.32712
61.97964 61.80488 23.50416
61.97964 62.65705 22.95222
61.97964 63.42363 22.2875
61.97964 64.10968 21.54049
61.97964 64.65197 20.68222
61.97964 65.03881 19.74649
61.97964 65.2984 18.76605
61.97964 65.79903 17.93674
61.97964 66.54808 17.25272
61.97964 67.19197 16.46811
61.97964 67.75738 15.62585
61.97964 68.20746 14.71551
61.97964 68.54198 13.75691
61.97964 68.78938 12.77165
61.97964 68.99384 11.77698
61.97964 69.12923 10.77063
61.97989 69.13151 9.999999
62.49221 40.127 60.23104
62.49221 41.64948 60.19319
62.49221 42.66116 60.10632
62.49221 43.66497 59.94985
62.4917 45.02971 59.65395
62.49119 45.76427 59.45431
62.49018 46.72059 59.1109
62.48967 47.66496 58.73778
62.48967 48.58088 58.29988
62.48967 49.46404 57.79874
62.48967 50.31189 57.23968
62.48967 51.0965 56.59478
62.48967 51.83564 55.89907
62.48967 52.54557 55.17212
62.48891 53.49121 53.97832
62.48713 54.07922 53.14977
62.48713 54.62811 52.29481
62.48713 55.30731 50.93134
62.48713 55.68882 49.99026
62.48713 55.99946 49.0238
62.48713 56.27048 48.04488
62.48713 56.46555 47.04793
62.48713 56.60144 46.04107
62.48713 56.72819 45.0332
62.48713 56.79854 44.01975
62.48713 56.85137 43.00527
62.48713 56.87881 41.98978
62.48713 56.89151 40.97378
62.48713 56.89735 39.95778
62.48713 56.86941 38.81528
62.48713 56.83537 37.79979
62.48713 56.80134 36.78455
62.48713 56.7673 35.76906
62.48713 56.73326 34.75357
62.48713 56.73098 33.73757
62.48713 56.76248 32.72208
62.48713 56.7955 31.70658
62.48713 56.88668 30.6949
62.48713 57.0274 29.68981
62.48713 57.21891 28.69211
62.48713 57.54835 27.73174
62.48713 58.04746 26.84985
62.48713 58.701 26.07388
62.48713 59.38452 25.32458
62.48713 59.90014 24.45489
62.48713 60.70278 23.86434
62.48713 62.00326 23.0716
62.48713 62.79752 22.44092
62.48713 63.50618 21.71524
62.48713 64.08504 20.88237
62.48713 64.51837 19.96569
62.48713 64.79701 18.99109
62.48713 65.96794 17.44855
62.48713 66.64028 16.68782
62.48713 67.20975 15.84759
62.48713 67.70632 14.96239
62.48713 68.07538 14.01676
62.48713 68.35072 13.03936
62.48713 68.55265 12.04369
62.48713 68.70988 11.03988
62.48713 68.74442 9.999999
63.00046 40.635 60.29251
63.00046 42.15519 60.1998
63.00046 43.16281 60.07356
63.00046 44.16382 59.90007
62.99741 47.18947 58.95748
62.99741 48.11632 58.54193
62.99741 49.01141 58.06187
62.99741 49.86257 57.50791
62.99741 50.67029 56.89196
62.99741 51.4267 56.21403
62.99741 52.13333 55.48429
62.99716 52.71219 54.80992
62.99589 53.68958 53.48277
62.99462 54.25042 52.63543
62.99462 54.73327 51.74261
62.99462 55.367 50.35755
62.99462 55.67917 49.39083
62.99462 55.93774 48.40835
62.99462 56.1384 47.41242
62.99462 56.29943 46.40937
62.99462 56.40815 45.39922
62.99462 56.4785 44.38576
62.99462 56.50797 43.37052
62.99462 56.51076 42.35452
62.99462 56.5133 41.33852
62.99462 56.51457 40.44952
62.99462 56.47469 39.43453
62.99462 56.40357 38.42082
62.99462 56.3322 37.40736
62.99462 56.26083 36.3939
62.99462 56.19098 35.38044
62.99462 56.16786 34.3647
62.99462 56.14703 33.34895
62.99462 56.17167 32.3332
62.99462 56.20088 31.31771
62.99462 56.28292 30.30501
62.99462 56.41399 29.29841
62.99462 56.66469 28.31619
62.99462 57.05762 27.38071
62.99462 57.62811 26.54327
62.99462 58.33219 25.81175
62.99462 58.9992 25.04696
62.99462 59.52422 24.18768
62.99462 60.41296 23.69695
62.99462 61.28571 23.17803
62.99462 62.11349 22.59002
62.99462 62.84552 21.88745
62.99462 63.47163 21.08888
62.99462 63.95017 20.19454
