-307.731 -7.05222 -253.658
-307.154 -7.03995 -253.838
-306.23 -7.61468 -252.695
-304.86 -6.99236 -254.415
-303.923 -7.55196 -253.346
-303.11 -6.9187 -254.978
-301.591 -7.45918 -254.098
-300.221 -6.84468 -255.759
-299.272 -7.38369 -254.75
-298.116 -7.35392 -255.057
-297.326 -6.76249 -256.529
-295.801 -7.30718 -255.682
-295.019 -6.71909 -257.081
-293.476 -7.22486 -256.305
-292.702 -6.64545 -257.644
-291.539 -6.60656 -257.941
-290.964 -6.59505 -258.056
-289.787 -6.52609 -258.401
-291.166 -7.17693 -256.84
-288.644 -6.52823 -258.602
-286.532 -7.05468 -257.917
-284.588 -6.42607 -259.495
-282.465 -6.93718 -258.841
-289.039 -7.6576 -256.22
-281.093 -6.31426 -260.286
-278.746 -6.22812 -260.869
-278.95 -6.80878 -259.716
-277.602 -6.2295 -261.037
-277.803 -6.80797 -259.903
-275.268 -6.14781 -261.519
-274.111 -6.12711 -261.719
-273.722 -6.6873 -260.764
-272.378 -6.09037 -261.996
-272.552 -6.64123 -261.006
-271.396 -6.62501 -261.2
-270.035 -5.99522 -262.467
-269.453 -5.97427 -262.565
-268.881 -5.97251 -262.629
-267.913 -6.5476 -261.804
-267.14 -5.92642 -262.903
-266.554 -5.90876 -263.02
-265.973 -5.90246 -263.123
-265.381 -5.87373 -263.255
-264.211 -5.84424 -263.481
-263.043 -5.81706 -263.687
-262.455 -5.79099 -263.799
-261.876 -5.77416 -263.876
-262.05 -6.34055 -262.96
-259.541 -5.71038 -264.249
-492.821 -13.4629 -208.916
-492.32 -13.4515 -208.931
-491.822 -13.4409 -208.946
-490.819 -13.414 -208.985
-490.32 -13.4042 -209.005
-489.818 -13.3878 -209.03
-489.318 -13.3765 -209.065
-488.819 -13.3716 -209.115
-488.805 -13.8751 -209.045
-488.32 -13.3563 -209.15
-487.802 -13.8405 -209.102
-487.315 -13.3284 -209.218
-487.301 -13.8375 -209.126
-486.299 -13.8103 -209.18
-485.798 -13.799 -209.206
-483.796 -13.7622 -209.339
-482.791 -13.7329 -209.418
-481.79 -13.7124 -209.496
-479.276 -13.6397 -209.686
-474.747 -13.5177 -210.125
-473.718 -14.5203 -209.914
-472.733 -13.4708 -210.311
-470.225 -12.8985 -210.717
-469.708 -13.3941 -210.608
-468.7 -13.3744 -210.673
-466.672 -13.2974 -210.887
-464.66 -13.2775 -211.085
-460.107 -12.6346 -211.861
-460.607 -13.1668 -211.569
-455.529 -13.0277 -212.198
-456.547 -13.0598 -212.076
-454.519 -12.4819 -212.548
-454.514 -13.0104 -212.32
-454.013 -12.4725 -212.566
-454.007 -12.9958 -212.337
-452.99 -12.9712 -212.403
-453.502 -12.9943 -212.382
-451.462 -12.9241 -212.515
-450.964 -12.4015 -212.693
-450.456 -12.3941 -212.741
-451.966 -13.461 -212.322
-448.929 -12.3555 -212.856
-446.373 -12.8055 -212.919
-445.356 -12.7886 -213.035
-444.335 -12.7605 -213.126
-442.801 -12.7157 -213.245
-442.293 -12.7085 -213.277
-443.312 -12.7288 -213.21
-441.785 -12.1676 -213.475
-441.271 -12.679 -213.336
-438.722 -12.1068 -213.722
-437.162 -13.5912 -213.34
-436.154 -12.546 -213.775
-434.628 -12.0107 -214.057
-432.576 -11.9519 -214.198
-432.065 -11.9401 -214.234
-431.034 -12.4276 -214.117
-428.984 -11.8655 -214.504
-430.006 -12.3989 -214.224
-428.463 -11.8305 -214.549
-427.951 -11.8145 -214.603
-427.442 -11.8285 -214.644
-427.441 -12.3426 -214.41
-426.925 -12.3248 -214.457
-426.407 -11.7811 -214.76
-425.894 -11.7778 -214.828
-425.382 -11.7744 -214.899
-425.385 -12.2968 -214.617
-424.865 -12.2719 -214.697
-424.343 -11.7295 -215.068
-424.344 -12.2439 -214.777
-423.835 -12.2549 -214.822
-423.316 -11.721 -215.163
-422.284 -11.6933 -215.282
-423.321 -12.2398 -214.861
-422.802 -12.214 -214.904
-422.288 -12.206 -214.949
-421.78 -12.2245 -214.985
-421.252 -11.6683 -215.4
-420.736 -11.6577 -215.482
-421.261 -12.1923 -215.053
-420.74 -12.1677 -215.131
-420.211 -11.6204 -215.566
-419.692 -11.5961 -215.647
-420.22 -12.142 -215.2
-419.179 -11.6001 -215.707
-419.185 -12.114 -215.328
-418.665 -11.6082 -215.765
-418.144 -11.5813 -215.853
-417.635 -11.6025 -215.891
-418.16 -12.1263 -215.428
-417.111 -11.5658 -215.989
-417.645 -12.1125 -215.486
-418.672 -12.1116 -215.386
-416.592 -11.5556 -216.059
-417.119 -12.0733 -215.586
-416.074 -11.5424 -216.134
-416.602 -12.064 -215.643
-415.558 -11.5442 -216.201
-416.09 -12.0755 -215.686
-415.039 -11.5213 -216.273
-415.572 -12.0578 -215.755
-414.513 -11.4831 -216.373
-415.05 -12.0285 -215.837
-414.531 -12.0156 -215.911
-413.998 -11.4877 -216.433
-413.481 -11.4863 -216.518
-412.958 -11.4602 -216.617
-414.01 -11.9974 -215.994
-412.977 -11.9847 -216.116
-412.432 -11.4322 -216.73
-411.914 -11.4352 -216.828
-411.931 -11.9428 -216.315
-411.414 -11.941 -216.394
-411.392 -11.418 -216.915
-410.873 -11.4083 -217.011
-410.344 -11.3721 -217.142
-410.368 -11.9027 -216.588
-409.816 -11.3406 -217.273
-409.303 -11.3722 -217.348
-409.331 -11.9005 -216.761
-408.783 -11.3568 -217.466
-408.241 -11.2897 -217.656
-408.808 -11.8784 -216.866
-408.281 -11.8511 -216.99
-407.722 -11.2869 -217.748
-407.759 -11.8416 -217.072
-406.678 -11.2792 -217.969
-407.236 -11.8252 -217.184
-405.623 -11.2475 -218.288
-406.145 -11.2446 -218.143
-406.702 -11.7796 -217.331
-405.088 -11.2152 -218.489
-406.173 -11.7516 -217.477
-404.559 -11.1989 -218.656
-405.125 -11.738 -217.748
-404.026 -11.1641 -218.831
-404.601 -11.7343 -217.898
-403.508 -11.1812 -218.903
-402.984 -11.1743 -219.035
-403.537 -11.674 -218.239
-403.017 -11.68 -218.333
-402.446 -11.1358 -219.247
-402.494 -11.6798 -218.458
-401.394 -11.1295 -219.537
-401.92 -11.1358 -219.401
-401.963 -11.6619 -218.64
-400.864 -11.1165 -219.693
-401.423 -11.6155 -218.836
-400.331 -11.0741 -219.823
-399.803 -11.0761 -219.998
-400.898 -11.6057 -218.966
-399.265 -11.0475 -220.236
-399.854 -11.6061 -219.137
-399.329 -11.5994 -219.252
-398.716 -10.9982 -220.551
-400.38 -11.622 -219.047
-398.8 -11.5875 -219.423
-398.193 -11.0076 -220.66
-398.258 -11.5363 -219.635
-397.739 -11.555 -219.696
-397.133 -10.9839 -220.951
-397.198 -11.4974 -219.908
-396.681 -11.53 -219.968
-396.061 -10.9502 -221.369
-396.144 -11.499 -220.167
-395.614 -11.4888 -220.321
-395.077 -11.4528 -220.496
-394.992 -10.9052 -221.717
-394.474 -10.9432 -221.791
-394.552 -11.4644 -220.626
-393.375 -10.8549 -222.41
-393.467 -11.3936 -221.102
-391.225 -10.7884 -223.208
-391.87 -11.3788 -221.618
-390.796 -11.3435 -221.993
-389.596 -10.7022 -223.896
-388.633 -11.2482 -222.86
-387.443 -10.658 -224.685
-387.02 -11.2142 -223.435
-384.858 -11.1462 -224.241
-383.771 -11.1074 -224.694
-381.604 -11.0542 -225.505
-377.249 -10.9171 -227.159
-376.165 -10.8971 -227.52
-387.556 -11.2193 -223.263
-375.072 -10.8584 -227.931
-373.971 -10.8024 -228.371
-372.882 -10.7741 -228.737
-371.781 -10.717 -229.159
-370.694 -10.6936 -229.483
-367.414 -10.5969 -230.55
-368.521 -10.6608 -230.116
-366.323 -10.575 -230.873
-365.24 -10.5755 -231.14
-364.131 -10.5075 -231.554
-363.03 -10.4649 -231.919
-361.93 -10.4289 -232.267
-357.524 -10.2956 -233.648
-356.418 -10.2578 -234.008
-358.621 -10.3139 -233.341
-353.102 -10.1618 -235.024
-351.989 -10.1248 -235.396
-349.759 -10.0443 -236.152
-348.651 -10.0242 -236.489
-359.737 -10.3816 -232.92
-345.295 -9.8938 -237.613
-346.407 -9.92401 -237.271
-344.193 -9.89392 -237.884
-343.077 -9.86184 -238.219
-341.959 -9.82719 -238.561
-341.243 -9.24366 -240.03
-340.841 -9.80756 -238.92
-337.892 -9.16616 -240.974
-336.743 -9.089462 -241.452
-338.605 -9.7383 -239.559
-336.358 -9.6728 -240.263
-335.633 -9.09047 -241.729
-336.201 -9.117072 -241.53
-335.954 -10.2241 -239.195
-333.39 -9.038188 -242.357
-331.857 -9.54118 -241.626
-334.104 -9.60056 -240.982
-330.561 -8.94118 -243.248
-328.862 -8.89928 -243.787
-328.476 -9.45711 -242.621
-326.575 -8.80532 -244.592
-326.776 -9.39768 -243.137
-326.011 -8.799288 -244.755
-324.295 -8.73946 -245.346
-324.502 -9.33379 -243.872
-323.161 -8.73503 -245.703
-321.646 -9.25049 -244.836
-320.492 -9.196592 -245.265
-322.791 -9.29124 -244.448
-318.565 -8.56425 -247.291
-318.803 -9.18505 -245.679
-317.061 -9.09167 -246.347
-315.912 -9.07138 -246.748
-315.107 -8.460538 -248.491
-313.599 -8.98738 -247.572
-312.455 -8.95862 -247.906
-308.991 -8.852472 -249.046
-310.152 -8.89203 -248.639
-307.841 -8.82343 -249.387
-307.029 -8.20575 -251.076
-304.722 -8.14362 -251.749
-305.547 -8.76893 -250.021
-303.211 -8.66262 -250.828
-302.394 -8.05753 -252.508
-302.045 -8.61431 -251.217
-300.893 -8.59725 -251.541
-300.093 -8.0245 -253.121
-299.736 -8.55836 -251.868
-298.58 -8.5324 -252.198
-297.406 -8.49049 -252.606
-296.599 -7.89351 -254.168
-296.01 -7.867401 -254.375
-295.673 -8.456118 -253.074
-293.928 -8.402199 -253.579
-291.386 -7.76661 -255.53
-290.815 -7.76517 -255.647
-291.609 -8.344362 -254.194
-289.858 -8.28416 -254.694
-288.113 -8.23383 -255.157
-287.319 -7.64408 -256.562
-284.977 -7.54387 -257.183
-286.949 -8.19834 -255.459
-283.811 -7.5011 -257.474
-284.622 -8.126508 -256.035
-283.467 -8.10422 -256.281
-285.799 -8.18511 -255.698
-282.084 -7.48405 -257.808
-280.344 -7.44894 -258.185
-279.973 -7.99567 -257.106
-278.008 -7.37451 -258.737
-277.647 -7.93918 -257.629
-275.321 -7.874371 -258.118
-271.607 -7.21626 -260.058
-272.407 -7.79906 -258.746
-271.817 -7.77492 -258.897
-269.266 -7.13944 -260.557
-270.073 -7.74018 -259.242
-269.5 -7.75025 -259.331
-268.085 -7.0831 -260.837
-266.926 -7.07136 -261.037
-266.543 -7.62897 -260.073
-265.165 -7.02381 -261.419
-263.993 -6.99691 -261.661
-261.666 -6.94086 -262.038
-488.29 -14.3675 -209.028
-486.789 -14.3359 -209.087
-486.775 -14.8393 -209.059
-486.286 -14.3185 -209.107
-485.785 -14.3048 -209.128
-485.284 -14.2984 -209.162
-484.773 -14.7957 -209.138
-485.271 -14.8057 -209.113
-484.28 -14.2693 -209.213
-483.278 -14.2473 -209.277
-483.265 -14.7559 -209.208
-481.759 -14.7171 -209.291
-481.27 -14.1959 -209.414
-481.258 -14.7038 -209.316
-480.756 -14.6947 -209.344
-480.267 -14.1724 -209.487
-479.766 -14.1651 -209.525
-479.753 -14.6749 -209.412
-479.25 -14.6587 -209.447
-478.745 -14.6418 -209.5
-478.257 -14.1247 -209.648
-477.757 -14.1214 -209.691
-476.737 -14.5959 -209.659
-476.234 -14.5837 -209.703
-474.728 -14.5597 -209.821
-470.694 -14.4444 -210.159
-462.613 -14.2438 -210.963
-460.59 -14.2009 -211.174
-458.56 -14.141 -211.442
-454.513 -13.5453 -212.087
-453.996 -13.5068 -212.154
-453.488 -13.4922 -212.23
-453.982 -14.0088 -211.997
-453.48 -14.0023 -212.063
-452.982 -13.48 -212.255
-452.476 -13.4806 -212.266
-452.974 -13.9983 -212.086
-452.467 -13.9896 -212.132
-450.434 -13.9488 -212.283
-448.397 -13.8892 -212.459
-443.812 -13.2525 -213.044
-445.842 -14.3396 -212.557
-446.358 -13.8341 -212.626
-440.757 -13.1981 -213.189
-441.763 -13.7121 -213.029
-439.223 -13.6765 -213.128
-439.729 -13.6788 -213.078
-436.147 -13.5844 -213.409
-435.123 -13.5596 -213.495
-432.565 -12.9747 -213.849
-428.97 -13.3996 -213.922
-426.922 -12.8378 -214.245
-425.898 -12.8278 -214.331
-425.386 -13.34 -214.182
-424.866 -13.316 -214.262
-424.349 -12.7776 -214.526
-423.839 -12.7795 -214.57
-423.319 -12.7489 -214.606
-422.293 -12.7361 -214.676
-421.781 -12.729 -214.713
-421.26 -12.7 -214.766
-420.741 -12.6805 -214.835
-421.263 -13.2251 -214.535
-420.225 -12.6631 -214.894
-419.715 -12.6752 -214.933
-420.742 -13.1969 -214.581
-420.231 -13.1946 -214.63
-419.197 -12.6529 -214.986
-419.719 -13.1987 -214.668
-418.164 -12.63 -215.112
-417.648 -12.6168 -215.156
-418.679 -12.6338 -215.05
-417.65 -13.1272 -214.878
-418.681 -13.149 -214.77
-416.608 -12.5699 -215.298
-416.617 -13.1018 -214.971
-415.582 -12.5755 -215.385
-416.1 -13.0893 -215.033
-415.057 -12.5392 -215.462
-414.539 -12.5238 -215.527
-414.019 -12.505 -215.604
-413.506 -12.5146 -215.656
-412.998 -13.0255 -215.385
-411.945 -12.4586 -215.879
-412.479 -13.0077 -215.434
-411.425 -12.447 -215.963
-410.902 -12.421 -216.041
-410.384 -12.4175 -216.123
-410.913 -12.9283 -215.67
-409.882 -12.9399 -215.785
-409.857 -12.3806 -216.226
-409.342 -12.3866 -216.292
-408.825 -12.3891 -216.365
-409.359 -12.9174 -215.871
-408.309 -12.3921 -216.435
-407.787 -12.3776 -216.538
-408.32 -12.8915 -216.018
-407.275 -12.8568 -216.185
-406.738 -12.3392 -216.737
-406.755 -12.8451 -216.271
-406.235 -12.8388 -216.345
-405.691 -12.3096 -216.959
-405.719 -12.8492 -216.421
-405.199 -12.8393 -216.522
-404.12 -12.2838 -217.351
-404.671 -12.8147 -216.647
-403.604 -12.7403 -216.954
-403.087 -12.7449 -217.046
-402.529 -12.2062 -217.787
-402.571 -12.7638 -217.128
-401.998 -12.1918 -217.993
-402.03 -12.7068 -217.323
-400.946 -12.169 -218.245
-402.078 -13.2816 -216.668
-399.888 -12.1319 -218.52
-400.457 -12.6817 -217.686
-399.364 -12.118 -218.608
-398.837 -12.0873 -218.689
-398.313 -12.0806 -218.778
-399.401 -12.6374 -217.943
-399.441 -13.1858 -217.29
-397.795 -12.0976 -218.833
-405.737 -13.3688 -215.983
-397.264 -12.0674 -218.974
-396.731 -12.0375 -219.126
-396.787 -12.6023 -218.337
-396.21 -12.0483 -219.205
-396.252 -12.563 -218.477
-395.687 -12.0533 -219.307
-395.205 -12.5611 -218.665
-394.62 -11.9882 -219.584
-395.152 -12.0192 -219.47
-394.676 -12.5388 -218.787
-394.088 -11.983 -219.775
-394.146 -12.5124 -218.885
-393.552 -11.9546 -219.944
-393.019 -11.9385 -220.118
-392.489 -11.9294 -220.251
-393.09 -12.4985 -219.13
-391.958 -11.9202 -220.395
-392.564 -12.4876 -219.238
-393.613 -12.4943 -219.053
-392.019 -12.4244 -219.446
-391.505 -12.4705 -219.492
-390.879 -11.8664 -220.822
-390.964 -12.4244 -219.701
-390.43 -12.4118 -219.875
-389.811 -11.8297 -221.13
-389.373 -12.3988 -220.101
-388.837 -12.378 -220.283
-388.298 -12.3516 -220.472
-387.763 -12.3387 -220.642
-387.125 -11.7657 -222.105
-387.229 -12.3314 -220.811
-386.578 -11.7213 -222.342
-385.628 -12.2979 -221.239
-383.988 -12.1952 -222.005
-382.27 -11.64 -223.859
-383.461 -12.2089 -222.112
-382.916 -12.1828 -222.35
-381.171 -11.5752 -224.372
-380.747 -12.1203 -223.2
-381.835 -12.1557 -222.744
-380.089 -11.5541 -224.764
-379.656 -12.0701 -223.649
-377.48 -12.0057 -224.495
-376.398 -11.9874 -224.866
-374.21 -11.8995 -225.721
-373.122 -11.8719 -226.107
-372.024 -11.8196 -226.528
-371.602 -12.3559 -225.408
-369.848 -11.768 -227.231
-368.762 -11.7506 -227.565
-367.669 -11.7174 -227.927
-366.583 -11.7024 -228.246
-363.296 -11.5993 -229.314
-362.199 -11.5641 -229.662
-365.485 -11.6643 -228.624
-361.106 -11.5418 -229.984
-360.021 -11.5427 -230.259
-358.907 -11.4746 -230.692
-357.797 -11.4198 -231.092
-356.715 -11.4378 -231.334
-352.263 -11.2226 -232.898
-351.155 -11.1889 -233.257
-350.06 -11.1864 -233.539
-348.949 -11.1532 -233.893
-347.832 -11.1042 -234.271
-346.706 -11.0463 -234.714
-347.537 -9.991162 -236.847
-345.615 -11.0703 -234.961
-344.509 -11.0575 -235.275
-343.388 -11.0133 -235.661
-342.254 -10.9436 -236.098
-341.136 -10.91 -236.459
-340.32 -11.9934 -234.334
-340.025 -10.8855 -236.763
-334.412 -10.7159 -238.55
-335.537 -10.7465 -238.186
-333.303 -10.7091 -238.811
-332.172 -10.6607 -239.183
-330.323 -10.0476 -240.914
-329.929 -10.6118 -239.82
-328.781 -10.5359 -240.249
-326.951 -9.978659 -241.852
-326.537 -10.4995 -240.861
-324.28 -10.4513 -241.527
-323.15 -10.4252 -241.851
-325.821 -9.948459 -242.191
-325.415 -10.4829 -241.164
-322.013 -10.3847 -242.204
-320.127 -9.76911 -244.012
-320.886 -10.3667 -242.504
-318.605 -10.2839 -243.21
-317.837 -9.67475 -244.746
-316.329 -10.208 -243.87
-317.468 -10.2412 -243.532
-315.18 -10.1763 -244.266
-313.255 -9.55786 -246.21
-313.457 -10.1083 -244.826
-311.747 -10.0759 -245.314
-310.602 -10.0441 -245.655
-309.796 -9.43523 -247.346
-309.452 -10.0085 -246.02
-307.508 -9.400658 -248
-307.726 -9.959212 -246.559
-307.151 -9.94578 -246.735
-304.847 -9.87685 -247.436
-304.028 -9.26698 -249.141
-302.547 -9.820268 -248.101
-301.394 -9.79216 -248.44
-300.228 -9.74671 -248.833
-299.078 -9.71988 -249.143
-297.903 -9.674462 -249.576
-296.732 -9.62424 -249.972
-295.921 -9.05386 -251.582
-294.734 -8.97958 -252.033
-364.398 -11.6506 -228.931
-293.588 -8.972161 -252.293
-294.425 -9.58237 -250.597
-292.413 -8.920358 -252.681
-292.097 -9.51906 -251.297
-290.684 -8.8935 -253.105
-288.93 -8.839872 -253.63
-286.242 -9.32063 -253.098
-285.08 -9.28926 -253.4
-283.918 -9.256738 -253.687
-282.748 -9.210492 -254.005
-281.932 -8.60665 -255.474
-281.591 -9.183112 -254.264
-280.437 -9.16333 -254.499
-279.275 -9.13952 -254.777
-278.112 -9.10563 -255.045
-276.948 -9.06742 -255.309
-274.638 -9.02293 -255.749
-273.462 -8.97586 -256.054
-272.059 -8.37496 -257.604
-272.807 -10.1344 -253.577
-269.714 -8.30075 -258.151
-271.126 -8.91402 -256.587
-268.779 -8.845472 -257.151
-266.194 -8.21615 -258.969
-267.599 -8.820522 -257.471
-267.954 -8.26497 -258.574
-264.412 -8.140001 -259.445
-264.663 -8.749232 -258.158
-262.287 -8.656532 -258.797
-261.721 -8.68452 -258.849
-481.245 -15.214 -209.254
-480.744 -15.2039 -209.278
-481.233 -15.7235 -209.223
-480.731 -15.7117 -209.244
-480.229 -15.7006 -209.253
-479.728 -15.6891 -209.273
-478.733 -15.1503 -209.407
-479.224 -15.6756 -209.308
-478.723 -15.6686 -209.331
-477.73 -15.1269 -209.475
-477.227 -15.1175 -209.505
-475.202 -15.5759 -209.565
-473.696 -15.5527 -209.65
-472.689 -15.5232 -209.726
-472.184 -15.5082 -209.747
-471.679 -15.4933 -209.787
-471.189 -14.9742 -209.97
-469.17 -14.9187 -210.143
-476.21 -15.605 -209.498
-469.663 -15.4409 -209.958
-467.642 -15.3822 -210.139
-465.63 -15.3549 -210.3
-464.618 -15.324 -210.4
-459.552 -15.1826 -210.945
-456.516 -15.1219 -211.247
-454.486 -15.0721 -211.471
-453.983 -14.5389 -211.763
-453.475 -14.528 -211.826
-452.967 -14.5142 -211.885
-452.458 -14.5017 -211.947
-453.466 -15.0351 -211.589
-452.962 -15.0369 -211.667
-451.945 -14.4708 -212.002
-450.934 -14.4688 -212.072
-450.424 -14.4505 -212.105
-450.929 -14.9875 -211.863
-449.916 -14.4403 -212.199
-449.406 -14.4257 -212.25
-450.413 -14.9592 -211.943
-448.9 -14.424 -212.268
-449.403 -14.9535 -212.028
-447.361 -14.884 -212.222
-445.321 -14.8362 -212.482
-444.816 -14.3023 -212.706
-449.902 -15.4718 -211.785
-443.8 -14.2896 -212.791
-442.779 -14.2594 -212.843
-440.74 -14.2082 -212.903
-442.267 -14.7778 -212.696
-440.231 -14.1961 -212.918
-439.213 -14.1843 -212.965
-439.715 -14.7011 -212.768
-439.707 -15.2099 -212.615
-434.09 -14.5685 -213.213
-432.043 -14.5216 -213.353
-431.019 -14.4975 -213.428
-427.934 -15.4548 -213.304
-426.917 -13.877 -213.887
-426.917 -14.4013 -213.714
-425.381 -13.8534 -214.021
-421.779 -14.2838 -214.1
-422.807 -14.3073 -214.03
-421.26 -13.7386 -214.326
-419.206 -13.7008 -214.48
-419.719 -14.2313 -214.251
-418.17 -13.665 -214.571
-417.657 -14.1799 -214.401
-417.655 -13.6553 -214.616
-416.106 -13.6147 -214.755
-416.111 -14.1405 -214.511
-415.596 -14.1329 -214.563
-415.08 -14.1219 -214.611
-416.629 -14.1573 -214.452
-415.07 -13.5861 -214.872
-414.551 -13.5688 -214.931
-414.556 -14.0922 -214.677
-414.028 -13.5424 -214.995
-413.516 -13.535 -215.049
-413.008 -14.0611 -214.824
-412.489 -14.0434 -214.876
-411.448 -13.4966 -215.251
-411.973 -14.0292 -214.91
-410.927 -13.4766 -215.319
-410.94 -14.017 -215.018
-411.459 -14.0302 -214.949
-409.887 -13.4409 -215.448
-409.905 -13.995 -215.123
-408.851 -13.4144 -215.583
-408.339 -13.4398 -215.621
-408.351 -13.9604 -215.296
-407.819 -13.4194 -215.699
-406.257 -13.3812 -215.913
-407.302 -13.9043 -215.445
-406.783 -13.8903 -215.502
-406.271 -13.9066 -215.548
-405.75 -13.8897 -215.618
-405.232 -13.8825 -215.679
-404.69 -13.3302 -216.162
-404.171 -13.3292 -216.242
-404.708 -13.8556 -215.752
-403.649 -13.3161 -216.35
-403.667 -13.8379 -215.899
-403.117 -13.2825 -216.487
-403.15 -13.8349 -215.967
-402.593 -13.2592 -216.579
-402.623 -13.8102 -216.07
-402.098 -13.7876 -216.16
-401.551 -13.2571 -216.76
-401.029 -13.2525 -216.856
-401.568 -13.7434 -216.252
-401.053 -13.7573 -216.315
-400.501 -13.2287 -216.995
-400.529 -13.7452 -216.422
-399.996 -13.7165 -216.582
-399.473 -13.7073 -216.694
-398.953 -13.7077 -216.762
-398.388 -13.1332 -217.448
-398.437 -13.7149 -216.797
-397.866 -13.12 -217.545
-397.911 -13.6932 -216.897
-396.856 -13.6522 -217.124
-395.772 -13.1046 -217.896
-394.715 -13.0599 -218.129
-394.187 -13.0413 -218.227
-395.806 -13.6259 -217.308
-393.66 -13.0262 -218.33
-393.127 -12.9861 -218.462
-392.611 -13.0001 -218.486
-393.175 -13.5405 -217.785
-392.092 -13.0209 -218.534
-392.658 -13.5547 -217.794
-391.56 -12.9924 -218.678
-392.142 -13.5585 -217.838
-391.032 -12.984 -218.802
-391.595 -13.493 -218.018
-390.496 -12.9478 -218.943
-391.072 -13.498 -218.138
-390.546 -13.4879 -218.224
-389.966 -12.9375 -219.083
-389.484 -13.4252 -218.452
-388.898 -12.8894 -219.363
-388.367 -12.8793 -219.513
-388.972 -13.4729 -218.461
-387.84 -12.8803 -219.618
-387.898 -13.4055 -218.797
-387.305 -12.8581 -219.775
-389.546 -14.0269 -217.692
-386.771 -12.8396 -219.924
-387.373 -13.4053 -218.885
-386.85 -13.4131 -218.957
-386.243 -12.8365 -220.024
-386.323 -13.4112 -219.052
-385.719 -12.8412 -220.107
-385.175 -12.7955 -220.307
-385.788 -13.374 -219.194
-384.633 -12.7731 -220.524
-384.724 -13.3475 -219.457
-384.185 -13.3118 -219.617
-383.651 -13.2969 -219.758
-383.108 -13.2686 -219.981
-382.48 -12.7062 -221.266
-382.572 -13.2436 -220.126
-382.049 -13.2596 -220.198
-380.428 -13.2052 -220.784
-379.887 -13.1792 -220.972
-379.241 -12.6254 -222.414
-379.352 -13.1617 -221.107
-378.825 -13.1801 -221.213
-377.725 -13.1223 -221.746
-377.056 -12.544 -223.349
-375.543 -13.0453 -222.636
-374.882 -12.4777 -224.144
-373.793 -12.4481 -224.549
-374.577 -13.5702 -221.719
-374.993 -13.0119 -222.876
-370.103 -12.8961 -224.594
-372.281 -12.9546 -223.827
-367.915 -12.811 -225.371
-369.003 -12.8414 -225.022
-365.738 -12.7705 -226.067
-363.55 -12.7021 -226.789
-364.654 -12.7599 -226.384
-361.364 -12.6387 -227.465
-360.254 -12.576 -227.891
-359.172 -12.5848 -228.163
-358.064 -12.533 -228.571
-352.577 -12.4147 -230.212
-351.451 -12.3389 -230.674
-349.259 -12.3218 -231.272
-348.147 -12.2819 -231.652
-347.022 -12.2191 -232.076
-345.922 -12.2133 -232.382
-344.789 -12.1339 -232.843
-343.68 -12.1089 -233.182
-342.564 -12.0812 -233.553
-341.451 -12.0544 -233.9
-339.229 -12.0076 -234.547
-338.095 -11.9488 -234.983
-337.377 -11.363 -236.417
-336.976 -11.9189 -235.338
-335.855 -11.8785 -235.688
-334.741 -11.8603 -236.005
-333.619 -11.8305 -236.353
-332.481 -11.7664 -236.776
-330.261 -11.7511 -237.322
-328.001 -11.6679 -238.039
-329.453 -12.8092 -235.232
-326.863 -11.6143 -238.428
-323.485 -11.535 -239.403
-322.351 -11.4951 -239.75
-321.226 -11.4785 -240.055
-320.098 -11.4514 -240.365
-319.34 -10.8433 -241.842
-317.839 -11.3976 -240.978
-356.954 -12.4774 -228.982
-315.589 -11.3656 -241.527
-314.241 -10.7145 -243.229
-313.302 -11.2663 -242.223
-312.537 -10.6819 -243.7
-312.74 -11.2644 -242.361
-310.454 -11.1853 -243.031
-310.241 -10.5973 -244.423
-308.53 -10.5607 -244.902
-306.815 -10.5292 -245.393
-306.443 -11.0581 -244.226
-308.171 -11.1219 -243.673
-305.641 -10.4579 -245.851
-303.366 -10.4293 -246.412
-301.846 -10.9089 -245.569
-303.005 -10.9624 -245.194
-299.892 -10.3094 -247.501
-300.129 -10.8827 -246.029
-304.727 -11.0187 -244.707
-297.572 -10.239 -248.228
-297.837 -10.8519 -246.645
-295.254 -10.1767 -248.925
-296.656 -10.7818 -247.094
-295.496 -10.7476 -247.455
-293.763 -10.7044 -247.937
-292.929 -10.1103 -249.631
-291.428 -10.6272 -248.691
-285.571 -10.4446 -250.57
-284.419 -10.4398 -250.848
-283.244 -10.3889 -251.204
-282.083 -10.3556 -251.494
-280.931 -10.3356 -251.739
-276.278 -10.2012 -252.864
-275.126 -10.1844 -253.084
-273.967 -10.1573 -253.33
-271.951 -9.50038 -255.149
-271.616 -10.0649 -253.946
-270.461 -10.0549 -254.172
-269.628 -9.46918 -255.641
-269.292 -10.0298 -254.452
-268.105 -9.98374 -254.799
-266.077 -9.341341 -256.615
-266.934 -9.96312 -255.084
-265.762 -9.95066 -255.374
-264.326 -9.326492 -257.001
-263.38 -9.84514 -256.055
-262.547 -9.268858 -257.48
-261.375 -9.24253 -257.731
-262.219 -9.84221 -256.284
-478.208 -16.1616 -209.314
-477.707 -16.1537 -209.344
-477.205 -16.1403 -209.367
-476.703 -16.1298 -209.395
-476.2 -16.1173 -209.422
-475.697 -16.1055 -209.454
-474.688 -16.0779 -209.514
-474.186 -16.0676 -209.536
-473.18 -16.0437 -209.588
-472.677 -16.0319 -209.619
-472.667 -16.544 -209.556
-472.171 -16.0154 -209.648
-472.16 -16.5265 -209.581
-471.666 -15.9998 -209.684
-471.656 -16.5127 -209.613
-470.661 -15.9779 -209.761
-471.153 -16.5083 -209.639
-470.651 -16.4962 -209.66
-469.642 -16.469 -209.712
-470.145 -16.4784 -209.684
-469.138 -16.456 -209.742
-468.633 -16.4413 -209.775
-469.128 -16.9705 -209.664
-468.129 -16.4295 -209.815
-467.13 -15.8904 -210.033
-465.608 -16.3735 -210.009
-466.113 -16.3901 -209.969
-465.099 -16.3533 -210.048
-463.583 -16.3157 -210.209
-467.625 -16.42 -209.864
-462.079 -15.7743 -210.509
-459.042 -15.7002 -210.813
-459.031 -16.2071 -210.647
-458.009 -16.6928 -210.579
-455.481 -16.1101 -210.985
-452.952 -15.5388 -211.442
-452.445 -16.0698 -211.289
-451.419 -16.0157 -211.398
-450.914 -16.012 -211.451
-450.407 -16.0058 -211.507
-450.41 -15.4819 -211.739
-446.847 -15.3953 -212.105
-446.333 -15.3747 -212.182
-446.844 -15.9168 -211.898
-447.352 -15.9293 -211.861
-444.812 -15.3584 -212.326
-443.784 -15.8376 -212.217
-441.744 -15.7907 -212.339
-439.191 -15.7116 -212.475
-437.153 -15.6852 -212.624
-436.131 -15.659 -212.702
-429.983 -15.4964 -213.155
-424.851 -15.3723 -213.547
-419.714 -15.2616 -213.89
-416.632 -14.6783 -214.239
-417.141 -15.7224 -213.868
-415.593 -14.6408 -214.359
-414.563 -14.6251 -214.459
-414.046 -14.609 -214.489
-413.016 -14.596 -214.584
-411.979 -15.0736 -214.457
-410.948 -14.5461 -214.749
-410.432 -14.5354 -214.781
-409.395 -14.503 -214.898
-409.402 -15.0289 -214.643
-408.873 -14.4821 -214.952
-409.917 -15.0387 -214.608
-407.845 -14.988 -214.8
-406.798 -14.4313 -215.19
-407.334 -15.4978 -214.611
-405.755 -14.3899 -215.319
-404.722 -14.3858 -215.412
-405.249 -14.915 -215.068
-404.202 -14.3711 -215.463
-404.728 -14.8977 -215.127
-404.213 -14.8949 -215.157
-403.683 -14.36 -215.518
-403.172 -14.8576 -215.259
-402.12 -14.3196 -215.725
-402.653 -14.8501 -215.312
-401.602 -14.3208 -215.786
-401.082 -14.3063 -215.856
-400.556 -14.2835 -215.95
-401.086 -14.8027 -215.528
-400.032 -14.2724 -216.051
-400.047 -14.785 -215.668
-399.52 -14.7541 -215.743
-399.512 -14.2711 -216.145
-398.98 -14.2331 -216.253
-399.005 -14.7639 -215.792
-397.94 -14.215 -216.354
-398.477 -14.7292 -215.879
-397.412 -14.1878 -216.458
-397.443 -14.7319 -215.961
-396.92 -14.7196 -216.042
-396.361 -14.1543 -216.662
-395.843 -14.1575 -216.707
-395.322 -14.1575 -216.784
-396.401 -14.719 -216.11
-395.868 -14.6741 -216.208
-395.352 -14.6839 -216.266
-394.823 -14.6518 -216.352
-394.303 -14.6519 -216.421
-393.732 -14.0662 -217.129
-393.776 -14.6367 -216.532
-393.216 -14.0778 -217.163
-393.252 -14.6255 -216.6
-392.699 -14.0802 -217.159
-392.179 -14.0811 -217.239
-392.739 -14.6366 -216.62
-391.679 -14.5775 -216.823
-391.107 -14.0216 -217.558
-391.149 -14.5627 -216.958
-390.099 -14.5272 -217.093
-389.58 -14.5269 -217.12
-389.022 -14.0035 -217.784
-388.484 -13.9695 -217.936
-387.954 -13.9492 -218.042
-388.513 -14.459 -217.373
-387.427 -13.9428 -218.147
-387.991 -14.4652 -217.452
-387.463 -14.4428 -217.538
-386.938 -14.4386 -217.619
-386.374 -13.9277 -218.318
-385.851 -13.9256 -218.409
-386.417 -14.4453 -217.679
-385.877 -14.4001 -217.822
-385.354 -14.3985 -217.911
-385.307 -13.8677 -218.567
-384.25 -13.8549 -218.779
-384.78 -13.8649 -218.665
-384.299 -14.3801 -218.097
-383.719 -13.8368 -218.893
-383.771 -14.3654 -218.187
-383.192 -13.8368 -218.988
-382.664 -13.8302 -219.086
-383.242 -14.3506 -218.279
-382.716 -14.3453 -218.363
-382.131 -13.8118 -219.197
-382.194 -14.3561 -218.424
-381.604 -13.8059 -219.293
-381.068 -13.785 -219.451
-380.52 -13.7455 -219.678
-381.658 -14.3199 -218.546
-381.125 -14.2985 -218.665
-380.597 -14.2991 -218.78
-379.457 -13.7384 -219.921
-379.987 -13.736 -219.817
-380.05 -14.2482 -218.967
-379.525 -14.2562 -219.061
-378.925 -13.7312 -220.06
-379.005 -14.2856 -219.121
-378.377 -13.6953 -220.294
-377.827 -13.6545 -220.538
-377.923 -14.219 -219.475
-377.39 -14.2157 -219.605
-376.854 -14.2029 -219.751
-376.756 -13.645 -220.847
-376.32 -14.1944 -219.892
-375.675 -13.633 -221.253
-375.778 -14.1568 -220.049
-375.236 -14.1397 -220.25
-374.691 -14.1276 -220.476
-373.613 -14.0939 -220.795
-372.947 -13.5163 -222.301
-372.528 -14.0665 -221.189
-371.857 -13.4869 -222.718
-371.436 -14.0289 -221.617
-370.774 -13.4699 -223.081
-370.352 -14.0061 -221.984
-369.26 -13.9644 -222.392
-367.505 -13.3725 -224.208
-367.635 -13.9223 -222.875
-366.412 -13.3401 -224.601
-364.219 -13.27 -225.392
-364.328 -13.791 -224.249
-363.121 -13.2133 -225.757
-360.531 -13.7263 -225.304
-359.416 -13.6492 -225.765
-357.222 -13.5875 -226.48
-355.031 -13.5378 -227.155
-356.111 -13.5268 -226.899
-353.938 -13.5258 -227.465
-352.833 -13.4825 -227.832
-351.715 -13.4138 -228.263
-348.437 -13.401 -229.144
-347.295 -13.296 -229.669
-346.202 -13.2923 -229.951
-349.528 -13.4008 -228.864
-343.996 -13.2589 -230.591
-345.097 -13.2678 -230.282
-341.765 -13.1787 -231.335
-340.656 -13.1573 -231.673
-342.882 -13.2204 -230.96
-335.081 -13.0284 -233.411
-333.949 -12.9691 -233.823
-330.577 -12.8458 -234.89
-327.201 -12.7293 -235.921
-322.699 -12.6208 -237.252
-321.575 -12.6 -237.563
-320.434 -12.5474 -237.947
-319.317 -12.5451 -238.218
-318.177 -12.4972 -238.585
-317.046 -12.465 -238.901
-315.917 -12.4252 -239.197
-314.799 -12.426 -239.443
-314.05 -11.8499 -240.844
-349.804 -14.489 -226.419
-312.522 -12.3471 -240.118
-310.648 -11.7558 -241.746
-310.269 -12.3186 -240.656
-308.382 -11.7143 -242.33
-307.994 -12.2538 -241.281
-306.838 -12.1926 -241.66
-306.085 -11.6325 -243.031
-303.805 -11.5698 -243.619
-304.367 -11.5707 -243.506
-303.427 -12.0995 -242.516
-318.556 -13.6398 -235.972
-317.405 -13.5815 -236.411
-305.133 -12.1522 -242.099
-305.329 -12.7261 -240.849
-301.519 -11.5132 -244.228
-300.944 -11.4924 -244.394
-302.303 -12.0936 -242.738
-298.846 -11.9836 -243.781
-298.042 -11.3887 -245.342
-297.48 -11.3867 -245.44
-296.562 -11.9464 -244.358
-295.168 -11.3279 -246.124
-294.243 -11.8522 -245.058
-292.267 -11.2308 -247.002
-293.433 -11.2691 -246.623
-291.098 -11.1874 -247.379
-287.256 -11.6289 -247.233
-282.594 -11.5274 -248.627
-281.431 -11.4952 -248.935
-280.269 -11.4605 -249.233
-275.636 -11.353 -250.311
-274.476 -11.3224 -250.579
-273.319 -11.2997 -250.826
-272.146 -11.2516 -251.134
-269.806 -11.1888 -251.725
-268.635 -11.1577 -252.019
-270.983 -11.2265 -251.399
-267.459 -11.1198 -252.326
-266.281 -11.0948 -252.649
-264.251 -10.4748 -254.487
-263.92 -11.0256 -253.289
-262.726 -10.9618 -253.642
-469.119 -17.4795 -209.625
-467.603 -17.4404 -209.687
-467.109 -16.9164 -209.797
-467.099 -17.4311 -209.714
-466.606 -16.9114 -209.825
-466.595 -17.4181 -209.738
-466.091 -17.4076 -209.771
-465.585 -17.3931 -209.805
-465.08 -17.381 -209.844
-464.586 -16.8572 -209.977
-464.083 -16.8532 -210.011
-463.565 -17.3431 -209.94
-463.061 -17.3346 -209.979
-462.556 -17.323 -210.022
-462.056 -16.7896 -210.211
-461.037 -17.2823 -210.141
-460.038 -16.7531 -210.377
-460.532 -17.269 -210.173
-459.012 -17.2299 -210.327
-458.506 -17.2168 -210.376
-456.482 -17.1756 -210.548
-453.434 -17.0906 -210.848
-449.89 -16.502 -211.391
-450.388 -17.021 -211.167
-447.855 -16.4566 -211.607
-447.345 -16.4373 -211.639
-446.836 -16.4269 -211.727
-446.321 -16.4044 -211.783
-447.334 -16.9444 -211.488
-443.259 -16.83 -211.874
-441.738 -16.3003 -212.157
-438.164 -16.7384 -212.199
-435.608 -16.6697 -212.39
-434.076 -16.6429 -212.507
-433.047 -16.5987 -212.586
-431 -16.5546 -212.739
-426.902 -16.4651 -213.045
-422.793 -16.3644 -213.345
-420.737 -16.3153 -213.489
-418.675 -16.2555 -213.626
-417.649 -16.2383 -213.69
-416.622 -16.2229 -213.754
-414.049 -15.655 -214.117
-411.465 -16.1011 -214.126
-408.879 -15.517 -214.483
-408.883 -16.0416 -214.294
-408.358 -15.4942 -214.538
-406.294 -15.4652 -214.718
-406.815 -15.9944 -214.449
-406.297 -15.9844 -214.513
-405.262 -15.9611 -214.597
-404.218 -15.411 -214.914
-403.699 -15.3957 -214.946
-403.183 -15.3881 -214.98
-403.696 -15.8935 -214.734
-402.669 -15.3952 -215.022
-402.156 -15.8976 -214.818
-401.629 -15.3616 -215.12
-401.109 -15.3501 -215.194
-400.592 -15.8474 -214.998
-400.055 -15.79 -215.08
-399.54 -15.3004 -215.398
-400.076 -16.3476 -214.807
-399.546 -15.806 -215.135
-399.022 -15.2941 -215.438
-398.502 -15.2792 -215.478
-397.984 -15.2751 -215.524
-398.512 -15.7907 -215.179
-397.997 -15.7935 -215.213
-397.458 -15.2435 -215.588
-396.942 -15.2484 -215.649
-396.413 -15.2178 -215.735
-395.89 -15.2036 -215.811
-396.951 -15.7627 -215.361
-395.371 -15.2039 -215.877
-394.323 -15.1661 -216.009
-393.801 -15.1594 -216.081
-393.821 -15.6896 -215.706
-393.27 -15.1203 -216.175
-393.302 -15.6875 -215.779
-392.772 -15.6557 -215.855
-391.728 -15.6296 -215.962
-391.704 -15.0967 -216.352
-391.183 -15.0997 -216.445
-390.655 -15.0668 -216.514
-391.202 -15.6134 -216.05
-390.681 -15.6087 -216.103
-390.136 -15.0692 -216.545
-389.618 -15.075 -216.582
-390.161 -15.5983 -216.13
-389.1 -15.0727 -216.657
-388.563 -15.0406 -216.815
-389.643 -15.5949 -216.176
-389.103 -15.5462 -216.27
-388.031 -15.0129 -216.903
-387.516 -15.0351 -216.923
-388.053 -15.5163 -216.466
-387.533 -15.5085 -216.511
-388.574 -15.522 -216.383
-386.451 -14.9603 -217.138
-386.495 -15.5254 -216.612
-385.964 -15.4954 -216.705
-387.014 -15.5143 -216.543
-384.875 -14.9442 -217.388
-384.349 -14.9309 -217.478
-385.434 -15.4754 -216.808
-384.911 -15.4746 -216.878
-384.386 -15.4678 -216.952
-383.802 -14.8622 -217.626
-383.863 -15.4651 -217.023
-383.282 -14.8664 -217.684
-383.333 -15.4405 -217.113
-382.233 -14.8613 -217.827
-382.276 -15.4023 -217.265
-380.657 -14.8486 -218.052
-381.746 -15.3793 -217.351
-380.12 -14.8184 -218.193
-380.174 -15.3656 -217.561
-379.571 -14.7473 -218.373
-379.056 -14.7895 -218.41
-379.629 -15.3149 -217.703
-379.105 -15.3167 -217.782
-378.533 -14.7973 -218.485
-377.461 -14.7488 -218.752
-377.991 -14.7508 -218.641
-377.517 -15.2873 -218.074
-376.92 -14.7168 -218.916
-376.388 -14.709 -219.034
-376.452 -15.2554 -218.298
-375.856 -14.6994 -219.15
-375.927 -15.2639 -218.373
-374.791 -14.6887 -219.406
-374.254 -14.6699 -219.543
-375.388 -15.2283 -218.517
-374.845 -15.1908 -218.67
-373.718 -14.6403 -219.649
-374.312 -15.1789 -218.793
-373.184 -14.6602 -219.838
-373.781 -15.1724 -218.905
-372.636 -14.6191 -220.027
-372.718 -15.1673 -219.142
-372.179 -15.1403 -219.278
-371.557 -14.6033 -220.386
-372.094 -14.5992 -220.208
-370.999 -14.5455 -220.645
-370.47 -14.5516 -220.734
-371.1 -15.1067 -219.597
-369.93 -14.5374 -220.895
-370.566 -15.099 -219.715
-371.637 -15.119 -219.449
-370.04 -15.1137 -219.794
-369.493 -15.0728 -219.976
-368.848 -14.5154 -221.242
-368.953 -15.0572 -220.13
-368.414 -15.0461 -220.293
-367.869 -15.0316 -220.497
-367.217 -14.4789 -221.822
-367.315 -14.9986 -220.747
-366.211 -14.9584 -221.248
-365.666 -14.9397 -221.444
-363.494 -14.877 -222.105
-362.29 -14.3043 -223.589
-360.104 -14.2372 -224.286
-360.249 -14.8184 -222.961
-361.333 -14.8293 -222.645
-359.153 -14.7903 -223.333
-358.046 -14.7365 -223.774
-356.814 -14.1483 -225.392
-356.951 -14.7098 -224.136
-355.294 -14.6349 -224.736
-353.086 -14.5502 -225.498
-354.206 -14.6302 -225.035
-350.896 -14.498 -226.128
-347.596 -14.4274 -227.13
-345.393 -14.376 -227.784
-343.168 -14.2957 -228.539
-342.075 -14.3017 -228.801
-344.283 -14.339 -228.149
-340.976 -14.2938 -229.104
-335.383 -14.0982 -230.987
-334.274 -14.0826 -231.299
-333.171 -14.0781 -231.577
-332.034 -14.0077 -232.008
-330.921 -13.9859 -232.313
-329.808 -13.9625 -232.62
-328.69 -13.9384 -232.945
-321.924 -13.7051 -235.059
-320.799 -13.679 -235.382
-316.279 -13.5539 -236.714
-315.172 -13.5647 -236.917
-314.401 -14.6169 -234.759
-314.027 -13.5044 -237.298
-313.266 -12.9103 -238.745
-312.884 -13.4499 -237.654
-311.759 -13.4383 -237.94
-309.879 -12.8441 -239.61
-310.632 -13.4103 -238.211
-308.355 -13.3316 -238.856
-306.091 -13.3022 -239.453
-304.931 -13.2269 -239.85
-307.227 -13.3177 -239.14
-303.823 -13.2525 -240.026
-302.69 -13.2144 -240.282
-300.785 -12.6151 -241.966
-299.628 -12.5648 -242.326
-299.253 -13.1021 -241.248
-297.347 -12.5283 -242.904
-296.958 -13.0411 -241.895
-295.639 -12.4943 -243.308
-293.339 -12.4303 -243.936
-293.548 -12.9972 -242.68
-292.378 -12.9275 -243.067
-280.786 -12.6297 -246.368
-279.634 -12.6153 -246.639
-273.809 -12.417 -248.152
-270.33 -12.3431 -248.947
-269.152 -12.2993 -249.284
-267.983 -12.2725 -249.579
-267.659 -12.8275 -248.359
-266.82 -12.2543 -249.849
-266.231 -12.2322 -250.008
-265.638 -12.2094 -250.184
-264.198 -11.6113 -251.863
-464.565 -17.8806 -209.809
-464.059 -17.8673 -209.839
-464.048 -18.3762 -209.784
-463.542 -18.3638 -209.811
-462.544 -17.8316 -209.923
-463.037 -18.3517 -209.841
-461.535 -17.8119 -209.995
-461.029 -17.7977 -210.025
-460.522 -17.7824 -210.052
-460.018 -17.7741 -210.081
-459.509 -17.7569 -210.127
-458.996 -18.2614 -210.057
-459.002 -17.7401 -210.187
-458.498 -17.7345 -210.212
-458.489 -18.2479 -210.086
-457.994 -17.7295 -210.244
-457.985 -18.2412 -210.106
-457.476 -18.2212 -210.145
-457.486 -17.7109 -210.302
-455.965 -17.6713 -210.434
-456.969 -18.2054 -210.194
-456.465 -18.2016 -210.24
-453.932 -17.6104 -210.639
-452.914 -18.1119 -210.556
-450.881 -18.0559 -210.768
-449.878 -17.538 -211.059
-449.362 -17.5053 -211.107
-444.786 -17.4088 -211.543
-444.273 -17.383 -211.6
-441.21 -17.8234 -211.649
-437.132 -17.7393 -211.927
-440.198 -17.8271 -211.71
-428.951 -17.5591 -212.545
-424.841 -17.4445 -212.865
-414.558 -17.2087 -213.567
-412.496 -17.1641 -213.713
-409.403 -17.0974 -213.919
-407.332 -17.0388 -214.064
-406.813 -16.5068 -214.274
-426.889 -18.528 -212.365
-404.226 -16.4518 -214.482
-402.67 -16.403 -214.579
-401.121 -16.3844 -214.7
-401.639 -16.9093 -214.46
-400.084 -16.8754 -214.588
-399.56 -16.3496 -214.855
-399.568 -16.8708 -214.61
-399.049 -16.8561 -214.642
-396.969 -16.8058 -214.845
-398.53 -16.8418 -214.672
-396.435 -16.2588 -215.154
-395.918 -16.2598 -215.197
-396.445 -16.7817 -214.893
-395.4 -16.2528 -215.24
-395.413 -16.778 -214.965
-394.876 -16.228 -215.284
-394.366 -16.7348 -215.059
-393.844 -16.7227 -215.11
-393.836 -16.2092 -215.386
-393.309 -16.1879 -215.471
-392.806 -16.7192 -215.256
-392.783 -16.1776 -215.588
-392.268 -16.175 -215.579
-392.27 -16.6702 -215.328
-391.753 -16.1794 -215.61
-391.219 -16.1315 -215.684
-390.696 -16.118 -215.759
-390.72 -16.6699 -215.44
-390.177 -16.1174 -215.801
-389.657 -16.1129 -215.853
-389.138 -16.1066 -215.894
-389.667 -16.6268 -215.583
-389.146 -16.6186 -215.628
-388.628 -16.6119 -215.652
-388.102 -16.5929 -215.714
-388.609 -16.0828 -215.97
-388.092 -16.0923 -216.021
-387.561 -16.0516 -216.092
-387.577 -16.5736 -215.765
-387.037 -16.0392 -216.156
-386.518 -16.0413 -216.192
-387.061 -16.5779 -215.801
-386.537 -16.5661 -215.863
-385.995 -16.031 -216.262
-385.463 -16.0072 -216.375
-384.966 -16.5305 -216.054
-384.429 -16.4873 -216.144
-383.886 -15.9695 -216.591
-383.363 -15.9642 -216.653
-383.911 -16.4967 -216.205
-382.837 -15.9525 -216.722
-382.317 -15.971 -216.752
-383.383 -16.4742 -216.272
-382.863 -16.4761 -216.323
-382.339 -16.468 -216.377
-381.806 -15.9793 -216.8
-381.263 -15.9209 -216.916
-381.816 -16.4555 -216.432
-380.734 -15.9007 -216.97
-380.221 -15.9206 -217.013
-380.755 -16.4057 -216.585
-379.669 -15.8453 -217.162
-379.15 -15.8615 -217.223
-379.186 -16.3935 -216.759
-378.626 -15.8587 -217.292
-378.092 -15.8283 -217.399
-378.658 -16.3787 -216.833
-378.13 -16.3646 -216.908
-377.557 -15.797 -217.503
-377.598 -16.3391 -216.997
-377.03 -15.7939 -217.586
-377.073 -16.3346 -217.066
-376.498 -15.7732 -217.687
-376.534 -16.2941 -217.172
-376.004 -16.272 -217.262
-374.891 -15.7081 -218.042
-374.952 -16.2768 -217.436
-373.834 -15.6937 -218.25
-373.306 -15.696 -218.337
-374.423 -16.2684 -217.528
-373.876 -16.2141 -217.677
-375.484 -16.2953 -217.327
-372.771 -15.6784 -218.456
-373.399 -16.7688 -217.223
-371.698 -15.6377 -218.708
-371.163 -15.6233 -218.835
-372.276 -16.1572 -218.003
-371.754 -16.1731 -218.076
-372.232 -15.6492 -218.589
-370.636 -15.6329 -218.932
-370.695 -16.1689 -218.263
-369.567 -15.6126 -219.174
-369.027 -15.5842 -219.308
-370.156 -16.1429 -218.393
-368.491 -15.5813 -219.455
-367.96 -15.5864 -219.582
-368.015 -16.0955 -218.895
-366.852 -15.5077 -220.047
-366.317 -15.5113 -220.188
-366.938 -16.0718 -219.198
-366.405 -16.058 -219.277
-365.782 -15.4975 -220.293
-363.082 -15.4372 -221.023
-362.001 -15.407 -221.302
-362.646 -15.9726 -220.149
-363.191 -16.0007 -219.984
-362.107 -15.9572 -220.277
-361.459 -15.3913 -221.454
-361.556 -15.9175 -220.466
-361.028 -15.9403 -220.551
-360.368 -15.3492 -221.79
-360.478 -15.8998 -220.736
-359.403 -15.8913 -220.982
-358.85 -15.8543 -221.186
-357.634 -15.2813 -222.707
-358.308 -15.8465 -221.344
-356.659 -15.7827 -221.93
-354.892 -15.1951 -223.611
-355.038 -15.765 -222.324
-353.237 -15.1335 -224.192
-351.736 -15.6458 -223.433
-350.497 -15.0652 -225.011
-350.643 -15.6221 -223.746
-347.191 -14.9677 -226.054
-344.578 -15.4367 -225.678
-343.875 -14.867 -227.089
-344.028 -15.4244 -225.838
-342.358 -15.3545 -226.404
-340.164 -15.3449 -227.001
-335.702 -15.1906 -228.474
-341.978 -15.9302 -225.219
-333.464 -15.1063 -229.21
-332.369 -15.1157 -229.453
-331.257 -15.0874 -229.767
-330.138 -15.0512 -230.106
-329.007 -14.9897 -230.503
-327.908 -15.0015 -230.754
-326.787 -14.9723 -231.096
-325.66 -14.9218 -231.452
-324.549 -14.9122 -231.734
-322.299 -14.8507 -232.429
-321.177 -14.8222 -232.746
-320.057 -14.8038 -233.053
-318.936 -14.7836 -233.36
-317.812 -14.7583 -233.677
-316.669 -14.7047 -234.08
-315.526 -14.6449 -234.462
-313.294 -14.6221 -234.963
-312.176 -14.6089 -235.22
-311.02 -14.5446 -235.655
-307.611 -14.4175 -236.627
-306.498 -14.4387 -236.846
-305.329 -14.3586 -237.303
-304.615 -15.4777 -234.973
-303.065 -14.3171 -237.884
-302.292 -13.7249 -239.305
-301.165 -13.7127 -239.552
-301.37 -14.2865 -238.279
-299.666 -14.2409 -238.704
-298.887 -13.6591 -240.137
-297.387 -14.1942 -239.302
-295.458 -13.5663 -241.03
-294.308 -13.5309 -241.355
-282.448 -13.8146 -243.258
-280.135 -13.7692 -243.869
-278.963 -13.7164 -244.225
-275.49 -13.628 -245.089
-269.706 -13.5115 -246.417
-268.535 -13.4708 -246.733
-266.212 -13.4254 -247.268
-265.345 -12.8045 -248.845
-264.447 -13.3582 -247.742
-457.467 -18.7353 -210.055
-456.457 -18.7195 -210.121
-455.948 -18.7001 -210.157
-455.444 -18.6966 -210.187
-455.435 -19.2044 -210.106
-454.939 -18.6862 -210.242
-454.929 -19.1931 -210.136
-454.421 -19.1803 -210.161
-453.913 -19.1675 -210.202
-453.922 -18.6552 -210.327
-453.407 -19.1564 -210.248
-451.891 -18.5998 -210.493
-451.378 -19.1135 -210.388
-452.39 -19.1263 -210.327
-452.899 -19.1426 -210.286
-450.872 -19.1001 -210.425
-449.859 -18.5504 -210.687
-448.837 -19.0459 -210.61
-448.328 -19.0293 -210.639
-447.319 -18.4951 -210.906
-446.292 -18.9785 -210.835
-446.803 -19.5245 -210.611
-444.775 -18.4375 -211.17
-444.256 -18.9262 -211.03
-443.24 -18.9117 -211.117
-439.671 -18.8258 -211.4
-438.14 -18.7826 -211.516
-435.075 -18.7111 -211.739
-433.037 -18.6844 -211.887
-431.499 -18.1111 -212.187
-429.967 -18.6113 -212.123
-423.81 -18.4568 -212.603
-421.754 -18.4012 -212.745
-419.7 -18.3567 -212.882
-417.644 -18.3139 -213.024
-415.586 -18.2696 -213.164
-410.429 -18.1459 -213.526
-405.262 -18.0256 -213.889
-400.603 -17.4035 -214.373
-400.09 -18.4325 -214.063
-399.054 -17.3783 -214.461
-399.57 -17.8999 -214.261
-396.454 -17.3139 -214.692
-395.931 -17.2928 -214.718
-395.413 -17.2821 -214.748
-393.863 -17.2704 -214.864
-394.896 -17.7845 -214.596
-394.381 -17.7879 -214.63
-393.327 -17.2281 -214.943
-392.809 -17.223 -215.006
-393.338 -17.7589 -214.745
-392.29 -17.2159 -215.049
-392.817 -17.7442 -214.779
-392.297 -17.7359 -214.826
-391.771 -17.2074 -215.084
-391.245 -17.1825 -215.136
-390.216 -17.6937 -214.989
-389.667 -17.1232 -215.355
-389.694 -17.6845 -215.041
-388.636 -17.1258 -215.399
-389.173 -17.669 -215.075
-387.072 -17.0982 -215.537
-385.497 -17.0411 -215.697
-386.555 -17.5902 -215.338
-386.031 -17.572 -215.383
-384.988 -17.5523 -215.468
-383.958 -17.5736 -215.558
-383.419 -17.5247 -215.638
-382.884 -17.4888 -215.71
-382.364 -17.4772 -215.765
-380.781 -16.9375 -216.208
-381.845 -17.4754 -215.803
-379.729 -16.9089 -216.33
-379.203 -16.8959 -216.391
-380.281 -17.4637 -215.938
-379.747 -17.4277 -216.004
-378.676 -16.8777 -216.455
-377.632 -16.8792 -216.569
-377.105 -16.8659 -216.639
-377.651 -17.3901 -216.226
-378.173 -17.3905 -216.171
-376.081 -17.3752 -216.386
-376.041 -16.8109 -216.804
-375.52 -16.8301 -216.857
-375.003 -16.845 -216.92
-375.551 -17.3589 -216.468
-374.465 -16.8033 -217.037
-373.927 -16.7742 -217.147
-373.963 -17.3146 -216.713
-372.865 -16.7432 -217.325
-373.439 -17.3143 -216.78
-372.906 -17.2885 -216.861
-372.377 -17.2757 -216.938
-372.331 -16.7203 -217.426
-371.803 -16.7119 -217.509
-371.849 -17.2703 -217.018
-371.279 -16.727 -217.576
-370.751 -16.7199 -217.655
-370.224 -16.7161 -217.754
-370.795 -17.2583 -217.165
-370.266 -17.2468 -217.245
-369.139 -16.6497 -218.033
-368.602 -16.6254 -218.149
-369.188 -17.1831 -217.474
-368.662 -17.1803 -217.527
-368.132 -17.1761 -217.62
-367.596 -17.1499 -217.724
-366.997 -16.588 -218.509
-367.059 -17.1262 -217.84
-366.524 -17.1006 -217.94
-365.946 -16.5896 -218.613
-365.997 -17.0983 -217.998
-365.394 -16.5335 -218.773
-364.924 -17.06 -218.212
-363.862 -17.0573 -218.406
-363.261 -16.5072 -219.2
-362.721 -16.4855 -219.333
-362.184 -16.4782 -219.461
-361.647 -16.4698 -219.584
-362.784 -17.0116 -218.643
-361.106 -16.4538 -219.728
-360.574 -16.4553 -219.819
-360.039 -16.4535 -219.932
-360.636 -16.9652 -219.139
-359.572 -16.9637 -219.32
-359.497 -16.4274 -220.072
-358.945 -16.3849 -220.251
-357.868 -16.3779 -220.52
-357.324 -16.3596 -220.673
-357.957 -16.919 -219.664
-356.773 -16.3275 -220.865
-357.424 -16.925 -219.78
-358.489 -16.912 -219.571
-356.87 -16.8791 -219.958
-356.234 -16.3242 -220.994
-355.7 -16.3259 -221.082
-356.328 -16.8696 -220.107
-355.797 -16.88 -220.185
-355.155 -16.2999 -221.227
-354.612 -16.2937 -221.385
-355.264 -16.8808 -220.285
-354.72 -16.8547 -220.434
-359.027 -16.9296 -219.458
-354.168 -16.8219 -220.615
-352.972 -16.2526 -221.891
-353.512 -16.2547 -221.761
-353.625 -16.8102 -220.751
-352.424 -16.2238 -222.043
-353.088 -16.8123 -220.866
-352.535 -16.7688 -221.043
-351.34 -16.2163 -222.312
-351.993 -16.7519 -221.161
-351.455 -16.744 -221.265
-350.915 -16.7391 -221.39
-349.817 -16.6956 -221.72
-350.361 -16.7033 -221.577
-349.282 -16.7056 -221.814
-348.734 -16.682 -221.968
-347.478 -16.0707 -223.601
-346.931 -16.0595 -223.761
-348.183 -16.6562 -222.142
-345.838 -16.0384 -224.047
-347.069 -16.6093 -222.584
-345.435 -16.5715 -222.969
-343.648 -16.003 -224.637
-343.778 -16.5315 -223.53
-343.243 -16.5192 -223.574
-338.837 -16.4369 -224.88
-339.768 -15.8832 -225.895
-341.036 -16.4708 -224.268
-339.382 -16.4321 -224.745
-337.537 -15.7975 -226.656
-336.431 -15.7766 -226.98
-335.323 -15.7529 -227.306
-335.503 -16.3247 -225.935
-333.086 -15.665 -228.038
-331.607 -16.2099 -227.14
