15.583 25.1919 130.88
16.329 21.7853 131.084
16.018 23.0248 132.118
15.6486 24.6836 131.938
15.3201 26.2452 131.716
15.2793 26.6527 129.067
14.9113 28.6046 128.809
15.2686 26.7556 130.915
15.016 28.0494 130.925
14.793 29.1806 130.739
14.5484 30.4429 130.247
15.0334 27.6655 131.484
15.1792 26.653 133.365
14.8251 28.2866 133.006
14.7732 28.9688 131.285
14.5129 30.2694 131.141
14.5109 29.7859 132.755
14.437 32.0778 124.336
14.3563 32.4933 125.832
14.1849 33.6775 124.209
13.9267 35.4258 124
14.162 33.7513 125.942
13.9951 34.8208 125.957
14.1866 33.2249 126.822
14.3224 32.1 128.625
14.1707 32.9951 128.673
14.3901 31.9487 127.059
14.0019 34.3753 126.576
13.7992 35.6245 126.338
14.076 33.5144 128.627
13.9166 34.3681 128.35
13.685 35.618 127.905
13.7917 36.108 125.728
13.5841 36.9355 126.082
13.563 37.5769 125.389
13.3221 39.1453 125.141
13.1371 40.2794 125.129
13.3568 38.3641 125.765
13.1469 39.739 125.391
13.3973 37.216 127.413
13.1335 38.7368 126.98
12.9009 40.0932 126.61
12.6518 40.2648 128.271
14.2903 31.8774 129.641
14.0249 33.3927 129.186
14.2457 31.602 131.025
13.9795 32.9362 130.903
13.7538 34.8287 129.061
13.73 34.2039 130.74
13.5154 35.3008 130.527
14.2407 31.083 132.577
13.9989 32.2484 132.389
13.7534 33.4449 132.137
13.5126 34.6218 131.858
13.4373 34.2316 133.337
13.2157 35.294 132.792
13.4973 36.0805 129.162
13.2526 37.2381 129.308
13.3148 36.3522 130.237
13.1135 37.4176 129.878
12.9087 38.8659 129.226
12.9023 38.4972 129.54
12.7994 39.4365 128.874
12.673 39.54 129.334
12.4418 40.4104 129.325
12.6233 38.6534 131.047
12.2654 40.2285 130.452
12.4433 39.4494 130.772
13.028 36.8955 131.412
12.9227 36.6716 132.216
13.2628 35.8208 131.604
12.8154 37.8257 131.247
12.5799 38.1918 131.776
12.2761 39.3854 131.582
12.0398 40.1775 131.553
12.1763 38.6866 132.864
11.9083 39.8384 132.362
10.4416 43.5547 96.8631
9.97714 43.6587 96.8688
11.2959 43.3191 96.8249
11.6551 43.2026 96.8107
7.91674 43.9105 96.7911
9.25546 43.7885 96.8449
8.54557 43.8668 96.8029
11.7946 43.7939 98.7991
11.0115 44.0373 98.837
9.68227 44.3448 98.8678
10.5574 44.155 98.8514
8.67499 44.478 98.8342
9.37589 44.4004 98.8682
8.0087 44.5184 98.8105
12.855 40.6889 96.0222
12.8018 41.0064 96.155
12.7167 41.3898 96.2223
12.5279 42.0116 95.7674
12.6043 41.8116 95.6644
12.3379 42.5042 95.9067
12.534 42.0931 96.3303
12.6124 41.7967 96.2642
12.4056 42.7156 96.4328
12.9238 40.8977 97.2236
12.8649 41.43 97.6517
12.5588 42.2773 96.8532
12.5911 42.4891 96.9246
12.4845 42.6557 97.0354
12.8146 41.7402 97.8404
12.5556 42.5449 97.4971
12.487 42.7248 97.6327
12.1795 42.9036 96.5973
12.0628 43.0266 96.7519
12.2851 43.0866 97.599
13.0223 41.06 98.7283
12.9636 41.4376 98.8125
12.7471 42.0784 98.0016
12.6662 42.5009 98.2867
12.9041 41.7907 98.9329
12.666 42.6704 98.6053
13.1251 40.8439 99.8449
13.0454 41.42 99.9417
12.7598 42.5232 99.2477
12.97 41.9131 100.077
12.9044 42.3326 100.269
12.4084 43.0935 98.1869
12.4832 43.3 98.9156
12.6165 42.9626 98.9988
12.1748 43.6172 98.7221
12.5869 43.1259 99.2347
12.5989 43.5655 99.6466
12.3545 43.6166 99.3298
12.526 43.448 99.7078
12.6451 43.1936 99.8716
12.6396 43.6325 99.8208
12.3935 43.9098 100.065
11.9098 44.4974 100.854
11.5511 44.6268 100.895
11.1388 44.7554 100.928
10.6883 44.8773 100.951
9.8232 45.0673 100.969
9.23038 45.1616 100.955
8.78867 45.2034 100.941
8.11252 45.2464 100.927
13.2315 40.6096 101.13
13.1647 41.2244 101.29
12.8502 42.6829 100.501
13.1015 41.7372 101.45
13.2732 40.7353 102.466
13.1906 41.4239 102.502
13.0399 42.1748 101.596
12.9696 42.6028 101.721
13.096 42.1104 102.56
12.8035 42.9796 100.733
12.6159 43.719 100.49
12.5387 43.8965 100.677
12.7573 43.2452 100.943
12.6607 43.7413 101.086
12.2858 44.2523 100.652
12.4367 44.2832 101.233
12.5642 44.2767 101.437
12.8868 43.0378 101.842
12.6513 43.8788 101.587
12.719 43.8427 102.19
12.4524 44.4363 101.853
12.6745 44.4001 101.858
12.4451 44.5925 102.165
12.6558 44.2913 102.433
12.3427 44.9014 102.424
12.9979 42.7664 102.684
13.3347 40.9196 104.087
13.2579 41.604 104.169
13.1675 42.3044 104.252
12.9154 43.2946 102.909
12.8583 43.6857 103.197
12.8186 43.9822 103.487
12.6911 44.5203 102.996
12.5823 44.8851 103.025
12.2864 45.1545 102.833
12.7638 44.3029 103.727
12.709 45.0562 103.516
12.5484 45.0813 103.661
13.0648 43.0012 104.343
12.963 43.6334 104.456
12.6893 45.018 104.21
12.8673 44.187 104.609
12.6389 45.2337 104.451
12.0152 45.3621 103.035
12.4638 45.6148 104.238
12.6115 45.326 103.881
12.5509 45.3171 104.43
12.6068 45.4352 104.733
12.2778 46.0328 104.786
7.24106 45.2834 100.914
8.23773 46.1381 103.171
7.31601 46.1739 103.155
9.37839 46.0594 103.208
8.93751 46.0993 103.192
10.3414 45.8587 103.159
9.91934 45.9536 103.183
11.3205 45.6158 103.13
11.7094 45.4894 103.096
13.3672 41.116 105.408
13.2825 41.8723 105.468
13.1948 42.573 105.56
13.4354 41.2134 107.037
13.3509 41.9772 107.08
13.2557 42.7363 107.124
13.0984 43.2398 105.657
12.9857 43.9276 105.739
12.725 45.0241 105.123
12.8532 44.6537 105.841
13.1473 43.4933 107.19
13.03 44.2419 107.292
13.5514 40.5599 108.371
13.4918 41.1976 108.424
13.4066 41.9294 108.405
13.287 42.8173 108.354
13.5789 40.7326 109.724
13.3171 42.8734 109.713
13.1422 43.8009 108.342
12.901 44.9904 107.423
13.0056 44.6738 108.43
13.1361 44.1278 109.681
12.6636 45.5698 105.411
12.6055 46.0317 105.458
12.0373 46.2587 105.022
12.6628 45.5474 105.746
12.592 46.1309 105.93
12.4649 46.3833 105.907
12.4324 46.5281 106.121
12.6356 45.8205 106.307
12.6076 46.2661 106.513
12.5485 46.4044 106.326
12.6559 46.0855 107.015
12.3816 46.7703 106.472
12.4217 46.9289 107.068
12.581 46.5849 107.008
12.066 47.232 106.998
12.7678 45.6964 107.568
12.6678 46.2085 107.735
12.5425 46.6905 107.655
12.5631 46.8967 107.511
12.3411 47.2877 107.585
12.6132 46.7292 108.41
12.4781 47.424 108.27
12.8815 45.4062 108.585
12.7714 46.0144 108.748
12.6672 46.5284 108.879
12.4657 47.3394 108.926
12.4562 47.5304 109.519
12.3192 47.7574 108.318
12.3624 47.9454 108.976
12.3464 47.8798 109.514
12.188 48.4261 109.554
9.47688 46.9963 105.292
9.04206 47.0435 105.293
8.34629 47.0894 105.289
7.42486 47.1275 105.282
11.7966 46.3864 105.112
10.9908 46.6522 105.207
11.4504 46.5174 105.171
10.019 46.8839 105.258
10.4555 46.7766 105.218
11.5827 47.4763 107.154
11.1083 47.6196 107.194
10.06 47.8866 107.274
10.5278 47.7694 107.232
7.46517 48.177 107.38
8.41477 48.1295 107.371
9.12181 48.0768 107.364
10.5931 48.7654 109.114
11.617 48.4447 108.989
11.1706 48.6026 109.059
10.1075 48.8909 109.158
9.77058 48.9803 109.203
9.07817 49.122 109.288
7.45959 49.2681 109.374
8.37983 49.1996 109.334
13.5407 41.1665 109.806
13.5695 40.8501 110.78
13.5095 41.4834 110.803
13.4586 41.8391 109.787
13.427 42.2025 110.898
12.9825 45.1452 109.784
13.3088 43.1167 111.004
13.1586 44.1681 111.065
13.0082 45.1393 111.057
13.5896 40.7462 112.354
13.5317 41.3233 112.335
13.4415 42.0874 112.277
13.5032 41.3793 113.422
13.3944 42.3018 113.407
13.3002 43.1495 112.2
13.1235 44.3977 112.155
13.2548 43.3685 113.452
13.0928 44.5188 113.502
12.8723 45.8461 109.981
12.7974 46.3003 110.191
12.7158 46.7322 110.339
12.6147 47.1802 110.447
12.8688 45.9582 111.034
12.7389 46.6398 111.056
12.6145 47.2387 111.172
12.3763 48.0345 110.248
12.2449 48.4194 110.044
12.3952 48.0434 110.747
12.2932 48.6107 110.785
12.0808 48.9158 110.238
12.1913 48.9982 110.745
12.4946 47.7704 111.368
12.283 48.649 111.121
12.2813 48.6519 111.89
12.155 49.0731 111.282
12.1121 49.4471 111.358
12.1501 49.1493 111.924
12.0916 49.566 111.81
12.9607 45.4669 112.2
12.8251 46.289 112.317
12.7119 46.9084 112.466
12.5964 47.4825 112.603
12.9415 45.521 113.533
12.809 46.3264 113.552
12.6879 46.9702 113.569
12.5539 47.6121 113.586
12.4698 48.0362 112.731
12.3296 48.5969 112.863
12.124 49.2775 112.451
12.1939 49.6556 112.355
12.2193 49.0146 113.023
12.0535 49.6308 112.96
12.3953 48.2895 113.621
12.2151 48.9885 113.703
12.0303 49.6594 113.379
11.98 49.8019 114.069
11.8391 49.2986 110.659
11.5845 49.4462 110.764
11.1694 49.6161 110.858
10.6306 49.7889 110.933
11.7727 49.9372 111.847
10.1423 49.9288 110.994
11.9247 49.9733 112.274
11.9568 49.8947 113.556
11.9204 49.9918 114.275
7.36999 50.4367 111.343
8.21824 50.3403 111.265
8.89699 50.2304 111.176
9.38953 50.1242 111.097
9.7392 50.0318 111.038
11.6908 50.0951 112.036
9.14973 51.1488 112.778
8.57185 51.2916 112.891
7.92419 51.4367 113.021
9.56402 51.9575 114.256
8.94477 52.1058 114.334
8.29661 52.258 114.437
10.6537 50.7584 112.601
10.17 50.9005 112.66
11.6136 50.2458 112.218
11.0984 50.5887 112.507
11.8682 50.4201 112.925
11.5817 50.7841 113.272
11.8602 50.3902 113.651
11.7619 50.7883 113.688
11.3293 51.1119 113.615
11.8024 50.395 114.195
11.6392 50.7966 114.255
11.1472 51.2881 113.79
10.888 51.4706 113.953
11.3997 51.3485 114.281
10.5449 51.6456 114.085
10.101 51.8057 114.179
12.1238 50.0087 112.863
13.4541 41.4867 114.717
13.3222 42.6391 114.725
13.4311 41.2917 116.346
13.1874 43.7192 114.837
13.0522 44.7207 114.968
12.9784 44.7965 115.333
13.2165 42.937 115.757
13.3938 41.4219 118.103
13.448 40.6916 118.698
13.2055 42.721 118.143
13.2933 41.7968 118.793
12.8259 45.2423 117.889
13.1296 42.9042 118.872
12.9634 43.9858 118.878
13.004 44.0878 118.091
12.8146 44.9235 118.781
12.9256 45.5759 115.058
12.7883 46.1553 115.252
12.6539 46.9035 115.413
12.5763 47.2191 115.643
12.4075 48.157 115.034
12.2038 48.9388 114.984
12.0345 49.5399 114.974
12.4769 47.6401 115.776
12.3173 48.2938 115.825
12.1026 49.116 115.849
12.6864 46.109 117.612
12.5771 46.7313 117.366
12.4523 47.3369 117.211
12.6856 45.6788 118.613
12.5692 46.3078 118.418
12.4182 47.0387 118.229
12.2989 47.9914 117.11
12.109 48.7241 116.992
12.2105 47.9145 118.086
11.9315 49.7025 115.915
11.9301 49.3834 116.826
11.9562 48.8802 118.036
11.8754 48.6477 119.022
11.6279 49.8871 118.237
13.1726 41.9491 120.153
12.9055 43.7951 119.703
12.6901 45.1624 119.558
12.6853 44.3382 121.308
13.2313 41.2085 122.043
13.1135 41.8703 122.387
13.0044 42.4691 122.441
12.8606 43.288 122.009
12.6451 44.1099 122.174
12.3906 45.0097 122.615
12.614 43.3077 123.637
12.3359 44.79 123.061
12.4602 46.2652 119.755
12.3657 46.644 119.783
12.2313 47.191 119.671
12.2774 46.5722 120.32
12.0479 47.4821 120.244
12.4884 45.5131 120.662
12.0505 47.92 119.408
12.0656 46.3897 122.177
12.2614 45.5513 122.501
12.093 45.817 122.916
11.8088 48.2692 120.337
11.3006 49.6637 120.366
11.6289 48.7569 120.508
11.4499 48.7838 121.294
11.5097 49.0413 120.644
11.3409 49.1168 121.186
11.1959 49.4767 121.142
11.8096 47.4393 121.794
11.7762 46.9657 122.621
11.9375 46.2959 122.994
11.8726 46.4926 122.974
11.3895 47.2207 123.828
11.5398 47.9156 122.118
11.1773 49.0886 121.759
10.8531 49.8814 121.742
10.8841 48.7241 123.333
11.1254 47.9661 123.656
10.6544 49.4588 122.97
10.0805 49.9267 123.882
11.7768 50.3906 114.578
11.5693 50.9702 114.854
11.7683 50.3573 115.125
11.5979 50.7909 115.52
11.0964 51.7484 114.706
11.4674 51.4139 114.706
10.9818 51.927 114.916
11.2762 51.55 115.421
11.6066 51.4742 115.292
11.0519 52.0538 115.421
10.6208 52.2872 115.29
11.7341 50.2882 116.052
11.48 50.9272 115.997
11.7367 50.0335 116.675
11.5423 50.5997 116.633
11.2852 51.348 116.031
11.1096 51.9484 116.061
11.0539 51.7612 116.447
11.0212 51.9121 116.579
9.94423 52.6309 115.56
10.344 52.4601 115.44
10.6414 52.6027 116.033
10.519 52.8194 116.568
10.4168 52.9884 116.789
9.96198 53.1575 116.588
10.7828 52.4295 115.843
10.7836 52.4848 116.49
7.62972 52.405 114.554
9.40674 52.8008 115.66
8.05722 53.1292 115.853
7.33451 53.2827 115.961
8.75382 52.9702 115.757
9.59074 53.3555 116.762
11.2807 50.8592 117.853
11.163 51.3912 117.182
10.942 51.8048 117.26
11.0215 51.4742 117.678
10.7774 51.9568 117.7
10.763 52.3187 117.054
10.5858 52.2608 117.877
11.4524 50.1586 118.378
11.2144 50.7624 118.365
10.9795 51.239 118.511
10.7661 51.6189 118.696
10.4503 52.1617 118.874
10.4391 52.7343 117.018
10.2866 53.0851 117.128
10.1229 53.3197 117.171
10.418 52.5896 117.669
9.96237 53.4069 117.742
9.69291 53.7205 117.882
10.1728 52.78 118.518
10.3191 52.5938 118.337
9.91079 53.2148 118.31
10.0431 52.8093 118.853
10.2211 52.5375 118.872
10.2507 53.0497 118.709
9.77214 53.2495 118.904
9.74709 53.6335 118.35
9.64522 53.7238 118.844
8.54646 53.7379 117.055
9.11902 53.5528 116.922
8.70514 54.0966 117.873
9.16667 53.8921 117.694
7.87321 53.9037 117.159
9.53149 53.4031 119.087
8.89449 54.0686 118.491
9.23538 53.8174 118.328
8.73564 54.2952 118.458
8.88608 54.1125 118.815
9.30742 53.7545 119.103
9.00452 54.1941 118.645
8.6775 54.3779 118.834
8.16581 54.2974 118.045
7.5219 54.4911 118.2
8.26448 54.5743 119.024
7.72092 54.6997 118.819
7.76106 54.7821 119.22
11.0172 50.4601 120.002
10.6266 51.4287 119.73
10.3364 52.0317 119.692
10.3044 51.7336 120.224
10.2972 52.0216 119.868
10.0852 52.2125 120.026
10.7495 50.5377 120.905
10.5217 51.1508 120.577
9.62255 52.1123 121.566
10.0289 52.5055 119.626
9.65453 53.0645 119.516
9.87275 52.5063 120.086
9.3579 53.4308 119.563
9.58347 52.7436 120.404
9.23648 53.4382 119.938
8.94781 53.9578 119.512
9.16369 53.8731 119.354
9.11194 54.1764 119.405
8.71771 54.3893 119.536
8.63861 53.9514 120.109
9.00957 53.6439 119.992
8.45975 54.2925 120.056
7.98968 54.5654 119.595
8.3557 54.3578 120.254
7.79938 54.6179 120.096
9.3379 52.5422 121.544
8.56323 53.6551 121.278
8.33926 53.9703 120.965
8.00838 54.5545 120.583
7.50285 54.634 120.776
8.2717 53.9149 121.07
7.96094 54.1412 121.158
7.67798 54.2506 121.426
9.24993 52.1621 122.407
9.44935 51.6281 122.944
9.20593 51.8334 123.009
8.84688 52.3274 122.996
10.6441 50.2139 121.928
10.2469 50.9324 121.886
10.4121 50.1154 122.718
10.1451 50.6408 122.68
9.93028 51.5645 121.686
9.87359 51.0528 122.783
9.84357 50.554 123.508
9.62572 51.3849 122.904
8.36987 53.3939 121.931
8.96498 52.9167 121.774
9.13503 52.7779 121.621
8.69304 53.058 121.935
8.11662 53.5774 122.041
7.43064 54.3241 121.704
7.66799 53.8735 122.219
7.29756 54.1586 122.254
8.28218 52.5505 123.66
7.73685 53.1936 123.407
8.54234 52.578 123.186
7.78593 54.8253 119.584
7.69886 54.9525 120.163
8.0117 54.7779 119.931
7.30159 54.8818 120.745
11.7605 45.1668 125.533
11.948 43.7708 126.637
11.7478 44.4931 126.485
11.5733 45.0125 126.434
11.3713 44.2241 128.45
11.1608 44.8713 128.279
12.9477 41.0078 125.087
12.9524 41.2995 124.999
12.825 42.0629 124.403
12.7418 42.1029 125.008
13.0203 40.9258 125.174
12.693 41.2925 126.281
12.5441 42.8661 125.235
12.515 42.3016 125.981
12.0619 44.8224 124.772
12.3957 43.3218 125.554
12.2203 43.7307 125.596
12.3614 43.1099 125.741
12.071 44.2464 125.563
12.1875 42.7158 126.982
12.446 41.407 127.574
11.867 45.6973 124.246
11.6486 46.4664 123.967
10.9812 47.4641 124.96
11.5737 45.7501 125.38
11.3068 46.557 125.162
10.81 46.9769 126.284
10.5691 47.577 126.174
10.6987 48.1799 124.832
10.501 48.6605 124.722
10.3853 48.9813 124.55
10.2148 48.5667 125.627
10.4253 47.954 126.028
9.94437 49.1482 125.414
9.56433 49.8562 125.25
9.09735 49.9257 126.106
11.3808 45.531 126.403
11.1145 46.2147 126.358
10.554 46.9166 127.079
10.7698 46.1886 127.536
10.5908 45.9234 128.354
10.9001 45.6693 127.937
10.824 45.373 128.463
9.84243 47.4725 128.058
10.0776 46.9647 128.214
10.335 46.4464 128.297
10.2459 47.7322 126.735
9.93946 48.3514 126.616
9.62603 47.956 127.859
9.51515 49.0374 126.573
9.33775 49.4147 126.383
8.96399 49.2962 127.212
9.07103 49.0438 127.398
8.75032 49.7319 126.943
9.41962 48.3905 127.673
9.32609 47.7613 128.647
8.91529 48.4849 128.401
8.58428 48.9813 128.227
8.02152 49.7635 127.961
8.32393 49.3351 128.123
11.8474 42.4698 129.121
11.8913 41.756 129.84
11.6751 42.5394 129.564
11.3029 42.6334 130.716
11.6294 43.3164 128.766
11.2322 44.0912 128.965
10.5264 45.047 129.602
11.0817 43.4094 130.29
10.8044 44.2736 129.9
10.2115 44.6223 130.855
11.7282 41.0961 131.516
11.5941 41.5326 131.363
11.6672 40.733 132.072
11.4784 41.3212 131.933
11.4535 42.0391 131.096
10.9873 42.5964 131.628
11.1825 42.0985 131.767
11.1177 41.2036 133.078
10.8362 41.9566 132.843
10.5375 42.6477 132.694
10.7606 43.189 131.424
10.5049 43.8749 131.15
9.61631 44.6461 132.109
10.2507 43.2503 132.595
9.99302 43.7709 132.494
9.89798 43.409 133.042
9.77751 44.2288 132.344
9.50213 45.0201 131.817
9.19481 44.8573 132.464
12.2278 41.1175 129.39
12.042 41.7404 129.362
12.0883 40.9868 130.131
9.5678 47.2822 128.81
8.89795 47.5177 129.636
9.41441 46.3621 130.282
9.01902 46.2888 130.945
9.29846 46.642 130.114
8.72448 46.8396 130.686
8.39338 47.4032 130.445
10.0403 46.2464 129.181
10.2721 45.6956 129.376
9.80888 46.7716 128.992
9.60928 45.964 130.423
9.88625 45.3792 130.6
8.06115 48.7727 129.197
8.1608 48.6183 129.288
8.6072 48.0187 129.444
7.87439 49.0746 129.022
7.53454 49.5384 128.816
8.04146 47.9315 130.256
7.67581 48.3798 130.155
9.26768 45.7712 131.218
7.66193 46.7813 132.224
7.49696 47.0934 132.003
8.211 46.0538 132.473
7.9623 45.7375 133.094
7.63217 46.1931 132.926
8.7864 45.4454 132.393
7.34719 46.5298 132.826
7.82262 46.5175 132.38
8.83303 51.0794 124.953
8.48131 51.8321 124.413
8.68017 51.421 124.697
8.22954 52.2347 124.213
9.22536 50.4177 125.163
8.54886 50.8927 125.691
8.83613 50.4345 125.851
8.03397 51.5634 125.536
7.84026 51.8021 125.461
7.58768 52.1327 125.286
7.45383 51.5305 126.313
7.67152 52.7447 124.235
7.99162 52.5011 124.172
7.47005 52.9553 124.16
8.3949 50.337 126.657
7.93138 50.995 126.44
7.23977 50.9424 127.339
7.58598 51.4106 126.347
7.74107 50.2035 127.733
21.0995 6.23748 134.664
21.1644 6.15862 136.032
21.0584 6.50492 137.484
22.2423 3.62034 134.673
22.2482 3.67539 135.991
22.0588 4.14184 137.316
20.1088 8.76861 134.635
19.2977 11.0696 134.622
20.2214 8.54147 136.011
20.301 8.44587 137.595
19.4045 10.8097 135.93
19.57 10.4406 137.557
21.3108 5.98472 139.072
21.3824 5.84598 140.34
22.3423 3.6538 139.212
22.384 3.58629 140.335
22.423 3.53009 141.76
21.4399 5.73559 141.765
20.3895 8.26367 138.915
20.4851 8.04555 140.307
19.5904 10.4257 138.851
19.6938 10.1477 140.234
20.6012 7.76437 141.741
19.8272 9.77202 141.652
19.1058 11.7838 141.526
18.6457 13.0904 134.597
18.106 14.8792 134.505
17.6018 16.6491 134.312
18.096 14.9521 135.755
17.6097 16.6766 135.742
18.697 12.9621 135.826
18.829 12.6244 137.423
18.1411 14.8536 137.287
17.6333 16.6425 137.225
17.1183 18.4626 134.094
17.2168 18.1343 135.72
16.8929 19.3582 135.598
17.2905 17.8954 137.193
17.0584 18.7393 137.109
17.119 18.3808 138.086
16.7398 19.8817 136.897
16.7463 19.696 137.943
18.9 12.4519 138.827
18.3121 14.3026 138.751
19.0001 12.1359 140.135
18.3973 13.9864 140.017
17.8314 15.8999 138.559
17.8876 15.6427 139.896
18.4527 13.7432 141.4
18.5948 13.2185 142.867
17.9223 15.4346 141.305
17.5069 16.8123 141.223
18.0582 14.8636 142.691
17.6183 16.2667 142.501
17.4414 17.2466 138.308
17.4557 17.1034 139.794
17.0892 18.3681 139.733
16.73 19.6209 139.715
17.1802 17.9087 141.121
16.8496 19.0257 140.965
17.2477 17.4764 142.324
16.8886 18.6551 142.175
16.6842 20.2033 133.956
16.5523 20.6656 135.313
16.3141 21.4523 136.62
16.3094 21.2707 137.843
16.3725 20.881 139.679
16.1391 21.4667 140.523
16.5007 20.2142 140.76
16.5259 19.8486 142.042
16.163 21.0506 141.912
20.7828 7.18766 145.831
20.9089 6.7879 147.223
22.4468 3.49307 143.185
22.402 3.53946 144.34
21.5014 5.60288 143.197
21.4566 5.65695 144.382
22.6382 3.02295 146.111
22.7772 2.69077 147.392
21.7765 4.81361 147.318
21.6457 5.174 145.971
20.6839 7.55721 143.168
19.9299 9.47863 143.104
20.6882 7.4947 144.414
19.994 9.24762 144.397
19.2323 11.3735 143.006
19.3495 10.9602 144.323
20.0501 9.00681 145.748
20.1608 8.59869 147.11
19.4337 10.6135 145.674
19.5217 10.2255 146.988
18.9012 12.0554 145.565
18.967 11.6919 146.87
20.9243 6.63538 148.594
20.9591 6.39289 149.795
21.0101 6.08088 151.254
21.7683 4.73156 148.599
21.8352 4.44123 149.861
21.8547 4.23018 151.294
20.218 8.31723 148.561
20.2485 8.06444 149.736
19.6906 9.42548 149.667
19.63 9.77603 148.481
19.1288 11.0572 148.349
19.2372 10.5559 149.567
18.7617 11.7587 149.421
20.3352 7.63624 151.178
19.813 8.88203 151.059
19.8767 8.46622 152.249
19.4949 9.36956 152.137
19.3909 9.90866 150.906
19.065 10.3869 151.99
18.9247 11.0509 150.721
18.538 11.6432 151.802
18.2212 14.1851 143.996
18.7531 12.6262 144.188
17.7477 15.6303 143.776
17.8345 15.1079 145.179
17.3129 16.6867 145.007
18.3724 13.539 145.385
18.4513 13.0949 146.757
17.9644 14.4561 146.619
17.5027 15.7883 146.417
17.1081 16.5682 147.568
17.3227 16.9654 143.569
16.9206 18.2472 143.4
16.8908 17.9891 144.916
17.0624 17.109 146.14
16.7091 17.7182 147.407
18.6256 12.3765 148.159
18.1008 13.7903 147.94
18.2368 13.1136 149.237
17.5762 15.2441 147.735
17.6938 14.555 149.033
17.223 15.8428 148.827
16.8098 16.5019 149.933
18.386 12.3888 150.515
17.8053 13.8682 150.302
17.9465 13.086 151.59
17.3942 14.4796 151.366
17.2759 15.2587 150.101
16.9054 15.749 151.146
16.8456 16.902 148.613
16.5792 18.954 144.839
16.5381 19.4754 143.261
16.1656 20.6799 143.132
16.3345 19.7187 144.688
15.9821 20.8316 144.393
16.6388 18.4105 145.864
16.3596 18.7434 147.207
16.2278 19.6667 145.684
15.8351 20.8216 145.656
15.9882 19.8565 146.935
15.6096 21.0082 146.643
16.5201 17.8327 148.373
16.115 18.9869 148.102
16.3966 17.5971 149.822
16.0176 18.5792 149.767
15.635 20.351 147.84
15.4144 20.2077 149.424
15.7027 19.4017 149.673
15.0818 21.226 148.956
16.4675 16.9065 150.933
16.0617 17.984 150.737
15.7111 18.9111 150.569
16.1799 17.0071 152.203
15.8252 17.9389 151.945
15.4818 18.8431 151.688
15.3746 19.7792 150.428
15.0244 20.6556 150.31
14.6616 21.5616 150.167
15.1039 19.8164 151.438
14.6855 20.8678 151.214
16.3262 21.7101 133.96
16.0449 22.9191 134.012
16.1947 22.0901 134.95
15.8285 23.6059 134.637
15.8018 23.9581 133.971
15.5153 25.1803 133.729
15.4632 25.1509 134.461
15.8363 23.3138 136.38
15.8508 23.0066 137.742
15.4205 25.0216 136.255
15.4613 24.5567 137.608
15.146 25.8568 137.43
15.1035 26.7057 134.386
14.7585 28.2377 134.348
14.4606 29.5987 134.297
14.2053 30.7657 134.22
14.2807 29.9767 135.701
14.0517 30.9885 135.425
15.0777 26.4832 136.194
14.7869 27.7425 136.112
14.6192 28.082 136.915
14.8831 26.9614 137.202
14.5232 28.8986 135.942
14.3431 29.2663 136.609
14.0603 30.4629 136.334
14.0353 29.8239 138.076
13.8022 30.7278 137.885
15.6477 23.5222 139.265
16.0136 22.1703 139.545
15.7627 22.7952 140.27
15.2827 24.9272 138.914
15.3746 24.1982 140.004
14.9912 25.6225 139.739
15.4448 23.4701 141.591
15.7919 22.2898 141.768
15.3961 23.1972 142.879
15.0916 24.6917 141.357
14.7506 25.9083 141.062
15.0098 24.4675 142.778
14.6845 25.5289 142.705
14.0882 28.3003 140.483
14.9234 26.3462 138.591
14.595 27.6494 138.373
14.3804 27.9667 139.222
14.6574 26.8912 139.483
14.2996 28.802 138.222
14.1402 28.9185 138.934
13.8673 29.9924 138.613
13.7666 29.4146 140.297
13.4571 30.4612 140.146
14.2398 26.9988 142.385
13.9924 27.8704 142
13.7595 28.0154 142.825
14.416 27.121 140.75
14.4368 26.3338 142.602
13.6694 29.0163 141.522
13.3007 30.3123 141.06
13.272 29.4904 142.509
12.8753 30.686 142.272
13.9856 31.7624 134.113
13.7804 32.6737 133.958
13.8255 31.9761 135.146
13.6146 32.8709 134.893
13.6077 33.4414 133.718
13.1601 34.6299 134.529
12.9171 35.5264 134.332
13.0963 34.2077 135.677
13.3936 33.7566 134.687
12.8196 35.1766 135.529
13.7914 31.572 136.126
13.5627 32.477 135.971
13.3407 33.3155 135.831
13.2332 32.9982 136.931
13.4575 32.1111 137.319
13.6226 31.4377 137.637
12.9239 34.1583 136.523
12.5612 35.4599 136.162
12.2772 35.385 137.481
12.4515 34.6382 138.023
12.6742 36.4726 133.996
12.4301 37.5275 133.464
12.5219 36.1698 135.41
12.0669 37.1565 135.707
12.0588 37.6191 135.224
12.2659 36.4862 135.901
12.0459 36.2783 136.952
11.9138 38.1353 134.971
11.7949 38.0625 135.328
11.7664 38.7628 134.512
11.5908 39.5342 133.955
11.36 40.4134 133.444
11.5767 38.7101 135.098
11.2912 39.4965 134.859
11.0142 40.2406 134.622
10.6656 40.1174 135.609
11.5335 37.8708 136.308
11.7929 37.119 136.572
11.1815 37.3856 138.032
10.9608 37.9789 137.764
11.2608 38.602 136.083
10.9875 39.3189 135.849
10.1184 40.1552 136.782
10.6814 38.7033 137.45
10.5567 38.3658 138.056
10.1955 39.1945 137.748
9.90566 39.8311 137.51
10.3651 39.5002 137.113
9.75003 40.1876 137.334
11.8738 35.6009 138.547
11.745 35.1554 139.515
11.216 35.5661 140.339
11.9433 32.8412 142.102
11.5807 34.4124 141.007
11.8015 33.7235 141.369
11.3952 35.0306 140.632
11.1192 34.9325 141.312
10.4643 34.8628 142.837
10.2463 35.4408 142.505
13.5587 31.1555 138.34
13.2047 32.3666 138.214
12.903 33.2585 138.291
12.7919 32.102 140.419
13.1693 31.4379 139.96
12.9369 32.2678 139.701
12.7638 32.9237 139.405
12.4415 33.2764 139.928
12.6486 32.6175 140.173
12.6939 33.7994 138.416
12.5758 34.1348 138.377
12.6264 33.453 139.124
12.4394 34.0602 138.894
12.1816 34.7905 138.708
12.1271 34.1635 139.698
12.9987 31.372 140.699
12.0548 33.0163 141.64
12.6153 31.4598 142.103
12.4579 31.917 141.968
12.1064 32.1166 142.739
12.2802 32.4084 141.826
12.0794 32.3135 142.5
9.56138 37.9032 140.516
11.5943 36.3115 138.399
11.3676 36.8877 138.237
11.3266 36.2843 139.114
11.2349 36.6545 138.809
10.9665 37.3917 138.43
10.7603 36.5106 140.086
11.4598 35.8508 139.4
11.002 36.0464 140.184
10.5118 37.0084 139.935
10.2433 37.6143 139.662
9.90757 38.3571 139.334
9.5851 39.0358 139.046
8.79069 40.3475 138.661
9.25989 39.621 138.86
9.17101 38.676 140.147
8.63957 39.5439 139.869
8.21861 40.1251 139.752
7.57745 40.0961 140.484
8.9083 37.8818 141.531
9.59001 36.801 141.904
8.86605 36.9113 142.811
9.35707 37.1488 141.82
8.54342 37.3197 142.752
8.01844 37.9143 142.682
10.674 35.827 141.165
9.99041 36.8733 141.181
9.77601 37.3778 140.86
10.0315 35.9568 142.235
9.7872 36.4468 142.036
8.33479 39.0262 140.867
8.65739 38.4021 141.214
7.93767 39.6543 140.599
7.30283 39.1043 141.96
7.67535 38.4331 142.413
15.7771 21.9471 143.001
15.5261 22.3019 144.038
14.9129 23.6578 145.118
15 24.0311 143.734
14.6151 25.2982 143.576
14.4063 25.9641 143.496
14.63 24.6685 144.625
14.3283 25.6971 144.226
14.3237 26.2424 143.384
15.5029 21.7836 145.653
15.1998 22.6991 145.508
15.2015 22.2349 146.397
14.829 23.3209 146.245
14.6738 23.0613 147.539
14.4055 23.7962 147.481
14.5047 24.237 146.146
14.2205 25.0309 146.043
13.9336 25.837 145.885
14.2535 24.2245 147.377
14.0666 24.7821 147.159
13.7931 25.5806 146.861
14.1322 26.8674 143.145
13.9901 26.6895 144.051
13.6272 27.6645 143.993
13.2683 28.6344 143.897
13.029 28.4412 145.127
12.9498 29.5731 143.658
12.6631 30.4717 143.341
12.7542 29.2574 144.82
12.4985 30.0323 144.493
12.2739 30.7265 144.168
13.6324 26.6931 145.673
13.3245 27.578 145.417
13.0928 27.531 146.247
12.7397 28.4695 145.994
12.8608 27.194 147.475
13.4488 26.553 146.54
12.4538 28.239 147.146
12.3983 29.3349 145.787
12.1157 30.0276 145.625
12.1399 29.0476 146.874
11.971 29.5281 146.639
11.9157 29.7885 146.398
11.7606 30.899 145.332
11.7792 30.2149 146.121
11.6733 29.3737 147.437
10.884 31.0183 146.845
11.1519 30.434 147.095
11.4157 29.8962 147.278
11.5416 26.2989 151.629
14.2044 23.8601 148.043
14.2991 22.5051 149.938
13.9676 23.4384 149.598
15.0957 21.8784 147.64
14.672 22.496 148.428
13.811 24.8769 147.928
13.5446 25.4644 147.963
13.3945 25.7875 147.96
13.0512 25.9115 148.787
13.6573 24.3452 149.23
13.3547 25.1834 148.939
12.926 25.3542 149.875
14.2446 21.9438 151.028
13.4709 23.8723 150.536
13.8822 22.8122 150.888
13.6336 23.4175 150.746
13.7093 22.5382 151.757
14.0805 21.5897 152.069
13.3145 23.4661 151.536
12.9432 23.5205 152.345
13.2531 24.4962 150.222
12.4629 25.3851 150.989
12.2589 25.9944 150.605
12.9777 24.1666 151.454
12.7417 24.6249 151.415
12.6193 24.2726 152.083
12.3058 24.9042 151.933
12.0282 25.4066 151.849
12.77 26.5328 148.694
12.5277 27.0938 148.547
13.1861 26.3327 147.78
12.1203 28.2566 147.941
12.3193 27.6657 148.275
12.1735 27.0758 149.404
12.5144 26.3302 149.581
11.9734 26.7126 150.252
11.8386 27.8064 149.166
11.6701 28.2065 148.973
11.2768 28.0735 149.856
11.9109 28.8322 147.641
11.3894 28.8035 148.744
11.0199 29.5102 148.535
10.3428 30.7944 148.059
10.7021 30.0794 148.381
10.4826 30.4828 148.241
10.6095 29.2272 149.591
10.3757 29.6463 149.45
10.9138 28.6978 149.729
9.91081 30.4087 149.207
9.50984 30.9727 149.099
11.6388 27.4124 150.012
10.7193 27.9282 150.988
10.4857 28.4147 150.753
10.4674 27.1841 152.308
11.2718 26.8239 151.443
10.9856 27.3885 151.224
10.0217 27.9997 151.925
10.233 27.6141 152.108
10.2556 28.8729 150.535
9.94092 29.4063 150.344
9.49481 30.0639 150.178
9.03912 30.7004 150.037
8.14264 30.6763 151.119
9.52885 28.7325 151.708
8.90287 29.5925 151.512
8.43102 30.2158 151.377
8.24069 30.478 151.286
7.50947 30.2252 152.303
7.83779 29.8993 152.352
7.25297 30.4797 152.249
11.8756 31.8446 143.691
11.6212 32.367 143.607
11.3139 32.9479 143.553
11.5951 31.3166 145.141
11.3879 31.8239 144.912
11.1449 32.4042 144.649
10.8975 33.0005 144.362
10.3453 33.1117 145.211
10.706 34.2356 143.173
10.6481 33.5969 144.066
10.3931 34.1886 143.773
10.9888 33.5878 143.43
9.80657 35.3959 143.259
10.1235 34.7779 143.501
10.1316 33.5414 145.019
9.79523 34.1507 144.798
9.43131 34.7769 144.585
9.08431 35.337 144.408
8.8245 35.7593 144.249
8.01613 35.7576 145.216
9.55452 33.3911 146.1
9.2825 32.7277 147.256
8.84137 33.392 147.073
11.1037 31.6882 145.616
10.5073 32.7907 145.345
10.2704 32.2698 146.344
9.92821 32.8398 146.197
10.5951 31.6419 146.574
9.73565 31.974 147.513
8.79307 34.5698 145.728
9.2526 33.8297 146.009
8.98835 34.2352 145.883
8.64075 34.8613 145.557
8.39627 35.2519 145.379
8.19633 34.2215 146.907
8.47888 33.884 146.962
7.70189 34.7951 146.748
12.4058 31.2616 143.061
12.0746 31.3258 143.885
8.17255 36.8968 143.671
9.51867 35.9241 143.061
9.1943 36.4436 142.912
8.63462 36.1002 144.077
8.43036 36.4731 143.876
7.5406 37.738 143.37
7.86519 37.3384 143.495
7.54407 36.3102 145.092
8.429 32.9173 148.129
8.59689 32.5219 148.416
8.2811 31.8222 149.591
9.09599 31.5464 148.979
8.77803 32.0127 148.835
8.52498 31.4366 149.805
7.82683 32.331 149.479
10.1212 31.2713 147.801
8.03025 33.5209 147.858
7.45859 34.2006 147.678
7.28711 31.635 150.865
16.635 11.3789 161.196
16.2615 12.0918 161.011
21.3522 4.88174 153.872
21.228 5.38416 152.566
20.4301 7.17632 152.373
20.5411 6.63861 153.744
20.6878 6.01518 155.174
20.1031 7.29813 155.007
20.8256 5.42195 156.441
20.169 6.81521 156.288
22.2522 3.2305 152.849
22.3797 2.79747 153.97
21.4549 4.40461 155.293
21.6848 3.67217 156.634
19.5497 8.90581 153.463
19.9635 7.94794 153.602
19.1843 9.35982 154.68
19.1051 9.9252 153.342
18.5871 11.1115 153.22
18.6816 10.4854 154.532
18.1563 11.6765 154.365
18.8482 9.26567 157.088
19.6472 8.32258 154.834
19.669 7.89744 156.164
19.2111 8.88764 156.063
18.3375 10.7971 155.782
17.8831 11.8195 155.547
18.7689 9.84727 155.946
18.4641 10.0914 156.941
18.0402 11.0034 156.759
17.5458 12.0672 156.548
21.1106 4.50909 157.856
21.3793 3.65992 159.241
20.385 5.99495 157.609
19.7913 7.25101 157.391
20.6124 5.15003 159.017
19.967 6.45217 158.795
20.9415 4.1568 160.267
21.013 3.61524 161.6
20.4607 4.62431 161.476
20.1884 5.60912 160.005
19.5414 6.89039 159.789
19.9129 5.6759 161.222
19.3144 6.85533 160.908
21.9967 2.78773 158.094
21.7431 2.66849 160.532
18.5409 9.426 158.231
18.9468 8.57195 158.405
18.1432 9.69524 159.351
19.2823 8.33662 157.228
19.4143 7.5939 158.589
18.1094 10.3192 158.069
17.637 11.2888 157.905
17.7433 10.4955 159.208
17.3538 11.2906 159.02
19.0028 7.97187 159.617
18.6867 8.09902 160.625
18.5574 8.86786 159.478
18.1417 9.16653 160.445
17.7177 9.98514 160.331
17.3838 10.6303 160.226
17.0015 11.3676 160.082
17.4152 9.91659 161.492
17.0188 10.6641 161.341
18.0228 12.4245 153.079
17.4938 13.6927 152.9
17.6502 12.8523 154.162
17.1737 13.9864 153.933
17.0159 14.8723 152.688
16.722 15.0809 153.692
17.3924 12.943 155.271
16.8782 14.1319 154.992
17.0063 13.236 156.323
17.1344 12.3278 157.716
16.9239 12.1866 158.765
16.5825 15.9695 152.453
16.2862 16.1472 153.453
15.9197 16.3624 154.527
16.472 14.4098 156.097
16.3787 15.2926 154.744
15.98 15.5058 155.881
15.5152 16.5468 155.675
15.7483 15.3393 156.96
15.3346 16.2846 156.665
15.8862 17.1307 153.229
15.1177 18.9909 152.834
15.4955 18.0837 153.021
15.4853 17.3695 154.338
14.7522 19.0582 154.003
15.0937 18.27 154.169
14.7603 19.8546 152.633
14.4234 20.6974 152.384
14.4522 19.7589 153.82
13.8509 21.1964 153.346
14.0119 20.1104 154.473
14.1544 20.4636 153.604
13.5579 21.0866 154.219
14.1865 18.742 156.083
13.6754 18.9866 156.943
15.1373 17.4053 155.481
14.6526 18.5887 155.047
14.9376 17.1855 156.395
14.5515 18.0172 156.195
14.3837 19.2548 154.765
13.5886 19.9078 155.866
13.306 20.5319 155.63
12.9911 21.245 155.332
13.0287 20.2686 156.563
13.865 19.3551 155.999
13.3731 19.6011 156.751
12.6521 20.9754 156.375
16.6425 13.3677 157.495
16.1863 14.3611 157.24
15.909 14.3068 158.195
16.4387 13.2045 158.475
15.5515 14.1845 159.456
15.4149 15.331 157.955
14.9748 16.242 157.744
15.1387 15.0289 159.208
14.4282 16.5399 158.678
14.7791 15.7908 158.948
16.5429 12.2487 159.901
16.025 13.2472 159.689
15.3934 13.8054 160.462
15.8561 12.893 160.752
15.0206 13.5985 161.682
14.5975 14.3813 161.45
14.8825 14.7838 160.195
14.4043 15.6696 159.991
13.9743 16.4445 159.832
14.1727 15.1789 161.196
13.7563 15.9562 160.951
13.3764 16.6555 160.735
12.7519 16.708 161.774
14.2459 17.7679 157.344
13.9464 18.408 157.141
13.6945 18.0372 158.195
13.3237 18.7363 158.016
14.0665 17.2955 158.42
13.0197 18.1969 159.36
12.7863 18.6731 159.155
14.5866 17.0499 157.545
12.9707 19.376 157.865
12.637 19.9755 157.714
12.3382 20.5294 157.542
12.0695 21.0453 157.35
12.1377 19.8946 158.689
12.5031 19.2332 158.92
13.0474 17.2514 160.55
12.7542 17.7685 160.392
13.6035 17.1075 159.69
13.2853 17.6877 159.537
12.4427 18.2856 160.25
12.1034 18.8275 160.11
12.4246 17.2486 161.613
12.0851 17.7884 161.461
11.8259 21.53 157.143
11.7046 20.6067 158.499
11.3124 21.2047 158.371
10.8479 20.9138 159.385
10.5185 21.4135 159.223
11.3901 18.8535 161.165
11.7322 18.3327 161.312
11.7504 19.3909 159.953
11.4271 19.9303 159.769
11.1312 20.4376 159.571
10.1246 20.6752 160.629
9.85097 21.0797 160.474
10.4157 20.2646 160.76
9.70512 20.2555 161.596
11.0525 19.3554 161.021
9.57706 21.5021 160.289
9.34552 20.7157 161.445
8.96308 21.1784 161.306
16.6817 10.645 162.316
16.285 11.3597 162.169
15.8796 12.0764 162.026
16.2527 10.5937 163.522
16.6637 9.87791 163.662
15.8747 11.2485 163.385
15.5207 11.8663 163.235
16.3269 9.72806 164.723
15.9489 9.55243 165.829
16.4373 8.749 166.009
15.9043 10.4461 164.565
15.5307 11.0766 164.421
15.1962 11.6382 164.286
14.4125 11.9887 165.311
15.1408 10.8619 165.542
15.5186 10.2533 165.676
14.7726 11.4374 165.424
14.0073 11.6462 166.533
15.8902 6.92546 170.07
16.3691 6.20388 170.289
15.0444 7.1991 171.233
16.5518 7.65572 167.523
16.0335 8.47716 167.327
15.5764 9.2092 167.141
16.1682 7.44811 168.657
15.6654 8.21004 168.48
15.2275 8.87734 168.316
14.8096 9.50838 168.16
15.1664 9.86695 166.967
14.7722 10.4857 166.811
14.3854 11.0804 166.665
14.4118 10.103 168.012
13.6712 11.1934 167.731
13.3401 11.6757 167.597
14.0287 10.6676 167.87
12.7009 11.4709 168.864
12.4127 11.8671 168.735
13.9578 9.74436 169.294
14.2981 8.28378 170.871
13.9294 8.85198 170.636
13.4821 9.50249 170.399
15.4371 7.61761 169.847
14.9671 8.32013 169.638
14.4707 9.03608 169.449
14.6398 7.76909 171.065
12.5816 10.6805 170.089
13.5267 10.3265 169.176
13.1922 10.775 169.08
12.9505 11.1162 168.981
12.1574 11.2334 169.93
12.9881 10.1666 170.208
11.6049 11.9624 169.66
11.7392 10.61 171.307
11.0922 11.4253 170.995
10.788 11.8017 170.835
20.7274 3.71831 162.78
20.1119 4.83226 162.552
21.102 2.65526 164.053
20.4563 3.781 163.781
19.7874 4.95988 163.519
19.4818 5.97678 162.348
19.1133 6.16346 163.273
18.8576 7.12919 162.141
18.5041 7.27252 163.045
20.5439 3.13242 165.033
19.8503 4.26793 164.896
20.3096 2.96952 166.324
19.6466 4.08396 166.006
19.2943 5.20317 164.751
18.7613 6.13766 164.535
18.2125 7.12301 164.277
17.8301 7.13544 165.327
19.0097 5.15389 165.745
18.4024 6.17124 165.527
17.5244 6.94835 166.435
18.3024 8.18639 161.913
17.9764 8.24952 162.836
17.7951 9.09076 161.844
17.5189 9.10414 162.646
17.6485 8.13631 164.027
17.1313 9.05727 163.825
17.0891 9.89953 162.474
17.2981 8.04841 165.118
16.7936 8.9202 164.914
16.9773 7.85666 166.214
18.2991 4.91591 168.176
18.9066 3.96302 168.43
20.0013 2.95636 167.345
19.2561 4.12702 167.088
19.5722 2.94107 168.69
18.6123 5.15649 166.867
18.0575 6.06326 166.656
17.1226 6.76149 167.726
17.7187 5.83 167.943
16.7409 6.5873 168.85
18.5924 3.82445 169.503
18.0006 4.7095 169.28
18.1764 3.64847 170.856
17.4539 4.64508 170.661
19.2069 2.91806 169.721
17.3678 5.6516 169.06
16.8816 5.45345 170.487
11.7679 16.0853 164.062
11.3851 16.6301 163.912
11.3723 15.6384 165.151
10.9848 16.184 164.96
10.606 16.6649 164.829
10.5473 15.5497 166.262
10.8813 15.0855 166.459
9.81039 16.487 165.913
10.1831 16.027 166.076
13.6847 14.1461 163.576
14.0825 13.4696 163.801
15.4526 12.8269 161.869
14.813 13.1403 162.834
14.3773 13.9113 162.595
15.189 12.4622 163.055
14.8491 12.2094 164.146
14.4741 12.8219 163.989
13.8936 14.7459 162.358
13.4518 15.5046 162.142
13.0751 16.153 161.949
12.4554 16.1706 162.936
12.0883 16.7355 162.779
12.855 15.537 163.119
13.2765 14.8413 163.339
14.0598 12.5272 165.19
13.7128 13.0625 165.05
13.3731 13.5974 164.886
13.037 14.1409 164.694
13.0693 13.0417 166.153
13.3494 12.6182 166.287
12.4469 13.9834 165.821
12.7727 13.4903 166.001
12.6624 14.744 164.475
12.2323 15.4075 164.256
12.099 14.5166 165.613
9.07782 18.5987 164.169
8.7396 18.9789 164.049
11.7546 17.2432 162.633
11.4288 17.7358 162.483
11.0965 18.228 162.331
10.4745 19.1322 162.038
10.7009 17.7188 163.45
11.116 17.0267 163.779
10.3419 18.2266 163.263
9.89092 18.7902 163.107
10.2174 19.5118 161.894
9.19338 19.5848 162.925
9.00337 19.8264 162.832
8.73797 20.1621 162.699
7.91383 21.0787 162.407
7.54322 21.4583 162.299
8.36774 20.5947 162.548
8.35848 19.3717 163.945
7.60351 20.1314 163.731
7.29891 20.4476 163.621
9.36862 18.2266 164.316
8.17499 18.2935 165.332
7.50078 19.0142 165.055
9.41625 16.9405 165.77
8.69798 17.7122 165.547
10.2624 17.0781 164.725
9.66101 17.8384 164.472
11.7998 13.7914 166.982
11.495 14.2131 166.826
11.7778 12.6952 168.477
11.4799 13.0735 168.356
10.9399 13.7636 168.106
10.7031 14.0828 167.964
10.1929 14.7893 167.612
9.81229 15.2551 167.415
11.1976 14.636 166.651
8.92628 16.2399 167.058
8.53145 16.656 166.917
9.3592 15.7674 167.225
8.84972 14.974 168.676
9.18919 14.6033 168.835
8.50895 15.3433 168.515
7.8594 16.0291 168.212
7.53431 16.3538 168.072
8.17904 15.6954 168.359
9.53468 14.233 168.98
8.24074 14.2464 170.108
9.4076 13.1803 170.442
8.81349 13.718 170.294
9.11113 13.4478 170.373
8.52203 13.9848 170.206
7.23312 13.9019 171.276
10.539 13.1412 169.362
11.1726 12.4544 169.53
10.8004 12.8587 169.434
10.1577 13.5764 169.207
10.3709 13.3378 169.292
10.0488 12.5942 170.573
10.4224 12.2198 170.677
9.7136 12.9057 170.503
7.70233 14.755 169.891
7.96905 14.5025 170.003
12.7248 12.5422 167.355
12.4136 12.962 167.24
12.1023 13.3795 167.118
12.0942 12.2879 168.604
8.17872 17.0117 166.8
7.52026 17.6217 166.619
11.7508 23.7712 154.454
11.6889 25.1104 152.836
11.943 24.5566 153.088
11.3042 25.8272 152.602
10.9666 25.1264 154.047
11.4839 24.223 154.343
11.2211 24.6634 154.223
10.6652 25.705 153.791
11.6952 22.7648 155.828
11.4328 23.2411 155.667
11.196 23.6665 155.512
11.5554 22.0488 156.928
11.2492 22.5957 156.726
10.897 23.1641 156.555
10.5049 23.7342 156.427
10.6509 24.5851 155.191
10.967 24.0733 155.356
10.2215 25.229 155.024
9.72399 25.9381 154.864
10.0871 24.3045 156.321
9.67305 24.8647 156.206
9.12398 25.6907 155.916
9.00738 25.9133 155.78
8.81626 26.1816 155.673
9.34968 25.3329 156.065
8.44056 25.4194 156.967
8.26965 25.6505 156.862
8.02014 25.9749 156.723
13.2486 22.738 152.684
13.5488 21.9538 153.037
12.2861 23.7024 153.549
13.1378 21.948 154.033
12.7874 22.6497 153.885
12.5088 23.2148 153.735
12.0176 23.2794 154.598
12.1043 24.1406 153.329
12.6423 22.0076 155.036
12.3148 22.6931 154.79
12.2991 21.6375 156.186
11.9808 22.2342 156.002
9.1599 27.8193 153.354
8.90733 28.3045 153.051
9.15251 26.7968 154.581
9.12326 26.9269 154.445
8.97291 27.1872 154.3
8.65087 27.6151 154.151
8.20077 28.1549 154.002
7.79679 28.6334 153.862
10.2827 26.3821 153.534
9.82574 27.0662 153.365
10.8301 26.6182 152.42
8.2294 29.4338 152.479
8.6283 28.8346 152.738
7.48107 29.0139 153.731
7.22655 29.3231 153.608
8.19647 26.9126 155.466
8.53959 26.5156 155.575
7.51054 27.7281 155.187
7.66684 26.3944 156.565
9.17037 23.2441 158.714
9.08222 23.4488 158.563
8.87906 23.7861 158.382
10.7629 22.0205 158.173
10.496 22.4379 158.031
11.0042 21.6564 158.276
9.78441 23.5159 157.665
10.1615 22.951 157.856
10.1255 21.9567 159.083
9.70508 22.5055 158.957
7.99507 24.8216 158.075
9.43265 24.0437 157.476
8.87205 24.8668 157.161
8.50193 24.2732 158.204
7.56466 25.2228 158.024
7.25264 24.3057 159.334
8.95103 22.3765 159.95
9.26406 21.9587 160.102
8.60119 22.7713 159.852
8.23337 23.1468 159.783
7.88107 23.504 159.707
7.59906 23.822 159.599
8.23304 22.0057 161.074
7.92045 22.3537 160.966
7.6292 22.6771 160.856
8.58385 21.614 161.185
7.36034 22.9699 160.752
7.29825 21.7153 162.21
9.50189 42.7741 134.546
9.10147 42.4182 135.618
10.7245 40.9813 134.393
10.4436 41.6769 134.168
10.2263 42.2278 133.947
10.0981 42.6172 133.701
10.3261 40.9054 135.394
10.0727 41.4795 135.222
9.89611 41.9556 134.925
9.12403 43.4474 134.319
8.80039 44.0455 134.075
8.56037 44.531 133.821
8.42594 44.8784 133.565
8.23302 43.8536 135.08
8.7658 42.9813 135.426
7.67412 44.5948 134.854
7.96653 44.2267 134.956
7.37562 44.9507 134.755
7.30861 44.3151 135.511
9.08339 41.3398 136.946
9.46185 41.8126 135.803
8.77318 41.8612 136.754
8.37357 42.48 136.555
9.33296 40.9222 137.09
7.24573 42.7445 137.55
7.7887 41.9594 137.954
7.4348 42.5772 137.573
9.8925 40.9247 136.211
9.73457 41.3044 135.994
9.94471 40.6591 136.476
7.64322 43.4509 136.291
7.83926 43.3642 136.141
7.78564 43.6439 135.841
7.92636 43.092 136.41
8.30458 41.0785 138.409
8.02558 41.5278 138.206
7.77864 40.8764 139.292
7.51689 41.2793 139.069
8.56491 40.6843 138.554
7.9277 40.5745 139.51
-12.0293 3.44116 35.9939
-12.5026 3.03401 36.8265
-12.1712 4.10457 36.7248
-13.009 2.69922 37.8185
-12.6555 3.86529 37.7435
-11.834 5.23623 36.6245
-12.3037 5.08173 37.6754
-11.9516 6.36668 37.6156
-12.0492 7.59828 38.6743
-6.9903 4.14622 20.9696
-6.98912 3.19064 20.9823
-6.99486 5.2081 20.9531
-7.0046 6.3126 20.933
-7.01485 7.24771 20.9123
-7.31938 4.15766 23.9871
-7.12568 6.71077 22.9499
-7.20795 5.34862 23.3863
-7.02032 7.96314 20.8958
-7.02026 8.53995 20.8816
-7.01757 9.30269 20.8622
-7.01535 10.3265 20.8341
-7.01899 11.5179 20.7985
-7.06976 8.09854 22.6456
-7.03404 9.47767 22.416
-7.01504 10.8364 22.2178
-7.45997 3.1597 24.6788
-7.55504 7.37077 26.0772
-7.78801 6.20913 26.8659
-8.05865 4.99457 27.59
-8.37373 3.65954 28.2609
-7.34901 8.8057 25.283
-7.18553 10.572 24.5719
-7.43799 11.9452 26.862
-8.00272 8.93713 28.5782
-7.67815 10.5237 27.7085
6.81086 2.87197 20.2641
6.80904 3.91368 20.2599
6.81262 5.06126 20.2502
6.82408 6.251 20.2364
6.8371 7.21418 20.2237
7.17473 3.84466 23.3875
6.94469 6.4494 22.461
6.84468 7.90699 20.2153
6.84603 8.41743 20.2104
6.84425 9.14382 20.2006
6.86939 8.64956 21.9853
6.84212 10.1672 20.1802
6.84651 11.4057 20.1505
6.85847 10.2049 21.8428
6.86073 11.2614 21.8301
7.03328 9.27129 24.2243
6.89527 11.8345 23.4625
7.13308 11.5017 25.9967
6.85788 12.5661 20.1201
6.8708 13.5739 20.0927
6.88106 14.4349 20.0695
6.86576 12.3106 21.7751
6.87572 13.4455 21.687
6.8862 15.1546 20.0523
6.88522 15.7342 20.0397
6.86683 16.6376 20.0259
6.89162 14.5973 21.6238
6.90373 15.4589 21.6392
6.90641 15.9784 21.705
6.89378 16.5111 21.7903
6.88014 14.3929 23.0043
6.91516 16.0471 22.8936
6.92558 16.6388 23.0159
6.88605 15.4619 24.09
6.86186 16.6758 23.792
6.86354 16.7311 24.1659
6.84983 17.0679 20.0202
6.81801 17.5459 20.0273
6.34066 18.7096 20.1255
6.85642 17.2195 21.7192
6.39322 18.4427 21.4062
5.73528 20.9987 20.0343
5.67821 21.1384 21.2239
6.85463 17.1331 23.0368
6.36586 18.5471 23.1559
6.83746 17.2898 23.8314
6.82466 17.1294 24.1653
6.61628 17.6119 24.1685
5.68816 21.1087 23.087
6.15648 19.2568 24.3088
5.57805 21.5599 24.3985
6.94945 13.6595 24.8671
7.00279 14.1478 26.2511
6.89472 15.3184 25.4672
6.83253 16.184 24.9299
6.78794 16.7741 24.6194
6.67401 16.7038 25.4615
6.81973 15.6627 26.051
6.95055 14.7144 26.6364
7.21562 12.5544 27.2623
7.14499 13.5063 27.4383
6.72479 17.1046 24.6419
6.57713 17.5622 24.5572
6.56759 17.2048 25.3957
6.40101 17.8699 25.4582
6.25324 18.7459 24.6714
6.16108 18.7767 25.6385
5.75763 20.6821 24.8852
5.79754 20.2277 25.9096
-7.02646 12.5784 20.7633
-7.03132 13.4229 20.7351
-7.03152 14.1341 20.711
-7.00982 12.1565 22.0747
-7.01439 13.4262 22.0296
-7.47993 14.7138 20.7446
-7.02719 15.9375 20.6448
-7.03734 16.5124 20.642
-7.02468 14.5929 22.0965
-7.01753 16.7287 21.9382
-7.08205 12.5281 24.0181
-7.03787 14.169 23.6322
-7.27707 15.5771 22.3508
-7.19438 15.9106 22.6627
-7.00572 16.2368 23.2913
-6.98864 16.7855 23.2831
-7.01966 15.3967 23.3987
-7.13798 16.0891 23.5214
-6.98326 16.7287 23.709
-6.95506 17.1594 20.6262
-6.82429 18.2849 20.5904
-6.97669 16.9114 22.0106
-6.84759 18.0027 21.9186
-6.84777 18.0779 21.9855
-6.59157 18.4935 22.687
-6.93909 17.2612 23.5516
-6.87892 17.7132 23.4645
-6.89458 17.0877 24.3406
-6.46578 19.1131 23.769
-7.01256 17.1576 20.6074
-6.99103 16.9997 22.0201
-6.98912 16.8808 23.3588
-7.15456 14.3118 25.4567
-7.27044 13.1981 26.0965
-7.06957 15.3029 24.9849
-7.00074 16.1369 24.6976
-7.7216 13.0211 29.1143
-7.48989 14.3619 28.6645
-7.31772 15.468 28.3387
-7.19221 16.3141 28.1313
-6.94293 16.766 24.5398
-6.72852 17.7036 24.7652
-6.29667 19.8887 24.8764
-6.86064 18.8367 28.823
-6.57641 20.6942 28.9824
-7.10372 16.9132 28.0373
-7.00103 17.8415 28.5301
-9.69932 3.24973 31.4417
-9.26563 4.40492 30.8169
-8.83504 5.717 30.1478
-8.40527 7.24959 29.407
-10.5219 4.02018 33.3621
-9.30731 7.0816 31.8595
-9.89019 5.52746 32.6301
-8.79844 8.61663 31.0866
-8.36802 10.1236 30.351
-8.01207 11.5941 29.6841
-9.69258 9.06977 33.7322
-9.15937 10.7768 33.1661
-11.1311 2.76976 34.0292
-11.6293 4.47677 35.7292
-10.7211 6.56902 34.8929
-11.1897 5.52212 35.3621
-11.4978 6.44596 36.5432
-10.2249 7.68401 34.3326
-11.1623 7.76334 36.4867
-10.8051 9.30726 36.4435
-11.1933 9.5043 37.5282
-11.5905 7.77399 37.5628
-11.586 9.48657 38.594
-10.4339 11.0899 36.3996
-10.7887 11.5986 37.5274
-11.0914 11.9552 38.5522
7.17457 14.2146 30.4312
6.88788 15.4542 30.0987
6.68544 16.372 29.9408
6.46155 17.4286 29.9118
