# .PCD v0.7 - Point Cloud Data file format
VERSION 0.7
FIELDS x y z normal_x normal_y normal_z curvature
SIZE 4 4 4 4 4 4 4
TYPE F F F F F F F
COUNT 1 1 1 1 1 1 1
WIDTH 594
HEIGHT 1
VIEWPOINT 0 0 0 1 0 0 0
POINTS 594
DATA ascii
-134.918 -21.600054 -39.492828 -0.02463875 -0.35836911 0.93325478 0.00018532229
-134.44267 -29.532194 -42.462521 -0.021658299 -0.35091412 0.93615711 0.00017591918
-134.1393 -32.85561 -43.694477 -0.022372667 -0.34113595 0.93974769 7.5465323e-05
-134.26186 -24.933268 -40.753719 -0.032101102 -0.3490257 0.93656319 0.00011552855
-133.49944 -36.174786 -44.911171 -0.013932181 -0.34848806 0.93720973 0.0001920026
-133.23152 -27.896423 -41.81485 -0.011991182 -0.33956429 0.9405064 0.00010635137
-133.34883 -22.896955 -39.928486 -0.028998649 -0.35167623 0.9356724 0.00014865112
-132.9357 -31.253571 -43.036938 -0.023009015 -0.34839699 0.93706465 7.6737386e-05
-132.59152 -34.171295 -44.103889 -0.024547033 -0.3509171 0.93608475 0.00021448516
-132.30582 -25.809723 -41.026577 -0.024966666 -0.3542915 0.93480164 2.9614353e-05
-132.10825 -21.139723 -39.328541 -0.026230795 -0.34719568 0.93742579 0.00017881607
-131.72775 -29.644539 -42.37825 -0.021924773 -0.34361681 0.93885398 6.2494197e-05
-131.37827 -32.535172 -43.468365 -0.032753162 -0.34537748 0.93789214 7.6629854e-05
-131.39195 -23.788267 -40.194637 -0.025600757 -0.34418452 0.93855292 0.00012734487
-131.07483 -35.807102 -44.718216 -0.029883683 -0.34894398 0.93666703 0.00016107119
-131.1313 -27.505543 -41.626797 -0.024791438 -0.34266761 0.93912959 7.9154946e-05
-130.15359 -30.859041 -42.850067 -0.026539957 -0.34191191 0.93935716 0.00012434578
-130.21196 -25.469669 -40.807716 -0.023395004 -0.35658371 0.93397039 3.1598367e-05
-129.87906 -34.265182 -44.033276 -0.031227151 -0.35227373 0.93537599 8.4576968e-05
-130.15961 -22.08815 -39.564846 -0.017885771 -0.34423226 0.93871415 0.00025070869
-129.81082 -27.941435 -41.761272 -0.024077382 -0.34702128 0.93754816 4.9359413e-05
-129.68265 -32.605686 -43.416794 -0.028641811 -0.33824915 0.9406206 4.6595465e-05
-129.97546 -20.460739 -38.900581 -0.026073994 -0.35491064 0.93453652 0.00027204253
-128.29614 -26.726227 -41.259121 -0.032004133 -0.34596518 0.93770128 7.0366696e-05
-128.16574 -31.364616 -42.93959 -0.023852119 -0.34665462 0.93768948 0.00012858286
-128.33995 -24.199057 -40.327583 -0.014044205 -0.34145465 0.93979329 6.3860032e-05
-128.02643 -35.923439 -44.634102 -0.030897371 -0.35836563 0.93306994 0.00013366087
-128.37685 -21.627239 -39.41135 -0.023473568 -0.35077754 0.93616456 0.00018105401
-127.86662 -28.861549 -42.008797 -0.030380117 -0.34501979 0.93810362 5.5030574e-05
-127.73328 -33.462864 -43.696438 -0.016649146 -0.34723997 0.93762851 8.4753032e-05
-126.78053 -25.522951 -40.74715 -0.031261794 -0.33935609 0.94013846 7.2617986e-05
-126.3594 -30.576166 -42.591782 -0.0215884 -0.34844863 0.93707925 6.1582032e-05
-126.52179 -23.388214 -39.979877 -0.036608174 -0.34645239 0.9373529 0.00011512422
-126.1814 -34.753674 -44.121452 -0.02025965 -0.34275037 0.93920803 5.3914911e-05
-126.3513 -27.655846 -41.502567 -0.031305198 -0.34882894 0.93666345 9.5805495e-05
-126.52379 -20.479563 -38.853924 -0.025477121 -0.35162857 0.93579286 0.00018718481
-125.91393 -32.606419 -43.390305 -0.022892272 -0.3480413 0.93719971 3.0684507e-05
-124.96674 -24.739059 -40.386314 -0.035723135 -0.33963811 0.93987751 1.1535562e-05
-124.82676 -29.298176 -42.129269 -0.028414728 -0.34962064 0.93646038 9.9172212e-05
-125.00141 -22.188192 -39.457874 -0.03038553 -0.34516317 0.93805075 0.0001250818
-124.61972 -35.990868 -44.57568 -0.026652735 -0.34410417 0.93855309 7.2722061e-05
-124.36549 -33.920227 -43.804333 -0.022033418 -0.34922323 0.93678045 8.786338e-05
-124.53873 -26.870029 -41.146458 -0.019748792 -0.35349905 0.93522638 0.00015464614
-124.07005 -31.475849 -42.847179 -0.026705567 -0.34967244 0.93649137 0.00012680089
-123.43235 -23.48275 -39.897732 -0.025061181 -0.33159566 0.94308865 2.2906104e-05
-122.81112 -35.197556 -44.237659 -0.028657716 -0.3429254 0.93892545 4.2781048e-05
-123.16199 -21.315939 -39.139488 -0.019176627 -0.34799132 0.93730158 5.3499709e-05
-122.97363 -28.148663 -41.588783 -0.020817563 -0.35012174 0.93647289 0.000219425
-123.01155 -25.644358 -40.645561 -0.010861779 -0.34486711 0.93858862 0.0001672237
-122.50412 -32.717426 -43.304161 -0.020773122 -0.35221934 0.93568695 1.3625517e-05
-122.5435 -30.241993 -42.361156 -0.026209328 -0.35015121 0.93632644 7.4857489e-05
-121.59564 -22.629503 -39.570721 -0.021764776 -0.3404668 0.94000453 2.2064864e-05
-121.63426 -20.116035 -38.611492 -0.014024893 -0.34305432 0.93921083 6.6202112e-05
-121.42135 -26.817902 -41.148613 -0.017778132 -0.34819388 0.93725389 0.00018002726
-121.00148 -34.416187 -43.891022 -0.023011895 -0.34055486 0.93994302 1.4081944e-05
-121.18102 -24.811457 -40.310989 -0.020290934 -0.34431031 0.9386366 0.00017171002
-120.97514 -31.482658 -42.820992 -0.020484006 -0.35270911 0.93550879 6.007505e-05
-121.01428 -29.01326 -41.868919 -0.013475851 -0.3424992 0.93942142 0.00018951033
-120.05827 -21.393976 -39.064606 -0.014699395 -0.33971685 0.94041294 3.0788764e-05
-119.47375 -33.194069 -43.403915 -0.030935885 -0.34527689 0.93799084 0
-119.63358 -23.52776 -39.836269 -0.012169762 -0.33496392 0.94215232 4.1660365e-05
-119.45205 -30.290215 -42.310562 -0.019831667 -0.34646091 0.93785483 0.00016859856
-119.48097 -27.782204 -41.374458 -0.022447802 -0.34661582 0.9377386 0.00019709792
-119.21273 -25.665888 -40.599415 -0.023407994 -0.34583336 0.9380039 0.00012229411
-118.42404 -35.727142 -44.299744 -0.028820949 -0.34437728 0.93838882 4.6497869e-05
-117.94387 -31.979151 -42.909424 -0.029682219 -0.33505023 0.94173259 7.3132025e-05
-118.20454 -20.500633 -38.755028 -0.16088602 -0.50945729 0.84532177 0.026103055
-117.89761 -28.974251 -41.865837 -0.017788095 -0.34640568 0.93791622 0.00014615631
-117.78671 -22.658869 -39.51696 -0.010422825 -0.33646691 0.94163764 2.5477698e-06
-117.6515 -26.971508 -41.030457 -0.013294037 -0.35262707 0.93566954 0.00014461781
-117.19414 -34.136028 -43.635643 -0.023847779 -0.34952378 0.93662393 1.1271059e-06
-117.37199 -24.817879 -40.272289 -0.018452916 -0.33349982 0.94256955 8.0861719e-06
-116.41342 -30.776442 -42.404652 -0.017653257 -0.33154148 0.94327545 0.00013446419
-116.07909 -28.218706 -41.492836 -0.019660233 -0.34878603 0.93699616 0.00026289962
-116.23534 -21.392046 -39.026669 -0.17448902 -0.53452998 0.82694095 0.025632031
-115.65334 -32.888458 -43.160721 -0.012273897 -0.3368156 0.94149059 0.00011105108
-115.80811 -26.117626 -40.708462 -0.010751818 -0.34335199 0.93914527 4.5995937e-05
-115.81829 -23.538431 -39.793736 -0.027382195 -0.33691141 0.94113809 0
-114.8829 -34.940071 -43.945312 -0.012187643 -0.35507447 0.9347586 8.7110471e-05
-114.5557 -29.853682 -42.127762 -0.02482228 -0.33522013 0.94181281 0.00016186608
-114.79348 -20.438917 -37.969524 0.44779676 0.72361577 -0.52522224 0.033754878
-114.23482 -27.368013 -41.170933 -0.025167206 -0.35185489 0.93571615 0.00013064322
-114.26411 -24.889803 -40.203793 -0.018361297 -0.34924054 0.93685317 8.241777e-05
-114.27316 -22.313541 -39.281559 0.28535256 0.51148963 -0.81052589 0.018347492
-113.82017 -32.06802 -42.830025 -0.023113716 -0.3426075 0.93919426 0.00016288192
-113.05854 -34.154003 -43.598804 -0.017490368 -0.35533801 0.93457425 0
-112.98792 -21.86198 -37.559082 0.52410549 0.80124307 -0.28865716 0.038328975
-112.68661 -28.717819 -41.576843 -0.032347236 -0.33773261 0.94068611 0.0001559994
-112.68163 -26.109865 -40.685318 -0.017571811 -0.34329951 0.93906158 0.00015961764
-112.70602 -23.616577 -39.7206 0.19075601 0.58016676 -0.79184508 0.021374082
-112.27983 -30.854939 -42.329742 -0.029199896 -0.34304994 0.93886322 0.00015379347
-111.51874 -32.942963 -43.101715 -0.020812327 -0.35255402 0.93555999 7.1813607e-05
-111.37435 -22.964336 -38.109528 0.49072668 0.83345771 -0.25403839 0.032251317
-111.13622 -27.479877 -41.082333 -0.020881604 -0.33473557 0.94208074 0.00013405697
-111.13301 -24.886978 -40.176537 -0.14723817 -0.53886187 0.82942683 0.015415866
-110.80894 -35.413677 -44.042019 -0.024659205 -0.34274399 0.93910509 0.00011453776
-110.72546 -29.596582 -41.851292 -0.0074386769 -0.34382543 0.93900412 3.611164e-05
-109.96112 -31.672352 -42.63472 -0.012215222 -0.3413299 0.93986422 7.1743423e-05
-109.56335 -33.81831 -43.375546 -0.019897841 -0.34342468 0.93896943 5.3373395e-05
-109.56413 -26.165022 -40.627007 -0.15136679 -0.51401669 0.84431922 0.011786477
-109.4268 -24.305647 -38.915474 0.58392882 0.75805414 -0.29048404 0.036958307
-109.15538 -28.288931 -41.3969 -0.0068918653 -0.33747533 0.94130921 6.0639537e-05
-108.40858 -30.438141 -42.143795 -0.014335348 -0.33582273 0.94181603 2.1529524e-05
-108.01286 -32.590755 -42.885574 -0.015981805 -0.34093618 0.93995059 5.2508185e-05
-108.0181 -25.527674 -37.833942 0.50055504 0.86108333 -0.089331694 0.04014302
-107.65562 -35.069397 -43.827377 -0.015210457 -0.34577435 0.93819439 0.00017998509
-107.59145 -27.022661 -40.915703 0.30738032 0.7500177 -0.58565414 0.057137869
-106.84085 -29.156393 -41.67598 -0.18045749 -0.42649809 0.88630384 0.018394686
-106.44144 -31.290915 -42.432732 -0.011451616 -0.33668023 0.94154936 1.5423982e-05
-106.55981 -26.169155 -39.42205 0.35366112 0.91879123 -0.17534655 0.021054827
-106.10101 -33.835667 -43.343071 -0.013079314 -0.3480072 0.93740064 5.9982125e-05
-105.59315 -27.590158 -40.974022 0.30318949 0.73379254 -0.60796756 0.052822188
-105.50218 -27.199337 -38.057362 0.56280804 0.8241806 0.063036188 0.01006043
-104.88278 -30.059011 -41.938229 -0.11999033 -0.47365564 0.87249792 0.019876542
-104.5423 -32.600391 -42.856182 -0.021060426 -0.34196517 0.93947661 0.00010636014
-104.26109 -35.546848 -43.927048 -0.028551336 -0.34271371 0.93900591 0.00012419344
-104.03854 -27.822004 -39.655338 0.50701076 0.77921283 -0.36846626 0.050766639
-103.34519 -28.716488 -37.977268 0.54684347 0.81813329 0.17782089 1.8966986e-05
-102.97688 -33.845039 -43.317451 -0.020339521 -0.33767986 0.94104123 0.00011055618
-102.96741 -31.313889 -42.39455 -0.029272225 -0.37049761 0.92837209 0.0003543857
-103.01974 -29.023977 -41.327648 0.4314591 0.769876 -0.47024885 0.05942113
-101.98211 -29.88673 -36.533615 0.53380615 0.83177197 0.15233631 0.00045771481
-101.87177 -29.30076 -39.595615 0.56314439 0.8263557 0.002159318 0.013773576
-101.44166 -35.203163 -43.713455 -0.021342656 -0.33714426 0.9412111 0.00016024803
-101.4307 -32.683025 -42.788174 -0.027620455 -0.34804529 0.93707073 0.00024200397
-101.13704 -30.600464 -41.997952 0.30227539 0.6792556 -0.66876113 0.030809816
-100.52641 -30.537342 -38.111904 0.52893198 0.83047426 0.17476666 0
-99.859779 -33.906628 -43.262367 -0.021389095 -0.34660944 0.93776566 0.00011130653
-99.920074 -30.410898 -40.134319 0.51117569 0.8481409 -0.13912763 0.019007381
-99.571861 -31.859415 -42.455143 0.18891232 0.65390062 -0.73261601 0.026495399
-99.145576 -31.614393 -36.718948 0.52485073 0.84211546 0.12398903 0.00057707581
-98.574821 -31.634323 -38.656387 0.52146304 0.83493501 0.175954 0.00033180366
-98.008118 -33.118141 -42.911449 -0.092764713 -0.52523196 0.84588778 0.024117619
-97.94838 -31.439594 -40.718151 0.45871639 0.86232227 -0.21442847 0.03342279
-97.619987 -35.234619 -43.672306 -0.022073481 -0.33508208 0.94193029 2.6871896e-05
-97.219444 -32.798119 -37.213833 0.52300698 0.83774525 0.15699227 0.0012322422
-96.621574 -32.721085 -39.206108 0.50783938 0.83846146 0.19769026 0.00023862971
-96.256706 -32.376076 -41.748093 0.36902621 0.88925534 -0.27026784 0.037621118
-96.046547 -33.999176 -43.185272 0.28090563 0.59923166 -0.74967557 0.058384888
-95.386002 -33.978268 -36.93029 0.48476329 0.8651256 0.12869421 0.0015563249
-94.876244 -33.439289 -40.35585 0.45001224 0.89170235 0.048536602 0.032066125
-94.494232 -35.289848 -43.621967 -0.08741352 -0.41622648 0.90504938 0.0037099388
-94.301842 -33.468563 -42.295971 0.39866453 0.83658814 -0.37574846 0.042873945
-93.881111 -34.447495 -38.608479 0.47984469 0.85806531 0.18295652 0.00019979016
-92.964302 -34.505093 -40.525917 0.47685385 0.86415786 0.16075315 0.0015437638
-92.675735 -34.477428 -42.893005 0.34975064 0.74738491 -0.56488085 0.050197437
98.941925 -29.264542 -36.328857 -0.3609755 0.76943928 -0.52693444 0.026928248
101.9463 -29.010162 -36.863525 0.11362768 -0.52103943 0.84593546 0.012370224
103.82596 -28.096312 -36.520004 0.13186073 -0.48022878 0.86717534 0.013283467
106.84085 -28.616049 -36.624958 -0.02647445 -0.34700185 0.9374907 9.1050584e-05
108.95414 -28.215868 -36.411243 -0.023689462 -0.33799139 0.94085091 3.1656433e-05
111.32659 -28.270428 -36.361332 -0.011398719 -0.34225377 0.93953842 9.536896e-05
114.79601 -28.712442 -36.50687 -0.027303254 -0.34710228 0.93742979 0.00024444639
116.90032 -28.352827 -36.269772 -0.013629613 -0.33779082 0.94112253 0.00019200756
119.60863 -28.732571 -36.456696 -0.0035993936 -0.34374705 0.93905538 0.00017489708
129.10579 -27.993328 -35.947693 -0.010639418 -0.34224698 0.93954974 1.1641552e-05
131.14128 -27.978905 -35.938679 -0.023384027 -0.34962612 0.93659747 9.1399634e-05
-121.48228 -18.180347 -23.718876 0.65273637 0.74521106 0.13636619 0.0004283881
-120.22169 -18.633087 -26.552456 0.63824087 0.74554986 0.19184364 0.00012611123
-120.01176 -19.525366 -23.367729 0.63453257 0.75816333 0.15018921 0.00042011144
-118.76763 -19.872581 -25.868488 0.64323676 0.74355543 0.18267956 0.00015199838
-118.43262 -20.734303 -23.858055 0.64858186 0.74613369 0.15041961 0.00038933783
-117.09926 -19.191954 -33.985237 0.62661761 0.77536106 0.078521162 0.0024224962
-116.87978 -22.052643 -24.289429 0.64697909 0.74771243 0.14947949 0.00022359817
-116.89145 -20.871126 -28.792774 0.62111622 0.75407648 0.21350262 0.00067116576
-116.55582 -21.716888 -26.783279 0.63114995 0.75170743 0.19127385 0.00045489971
-116.40108 -20.166565 -32.277206 0.58478761 0.77894485 0.22642528 6.5450826e-05
-116.17092 -19.4498 -36.569469 0.46933651 0.84759635 -0.24759588 0.056619518
-115.72628 -21.231878 -30.523979 0.5872162 0.77392602 0.23709835 8.9620975e-05
-115.52907 -23.33634 -22.813169 0.59573323 0.79676473 0.10132993 0.00015709497
-115.4867 -20.300034 -34.533287 0.59931427 0.78957152 0.13190655 0.00065671623
-115.27959 -23.154943 -24.834538 0.60116684 0.78498691 0.14964609 0.00017785143
-115.10619 -22.341278 -28.363899 0.58552361 0.77938348 0.22298762 0.00021809871
-114.77618 -21.207863 -32.859993 0.59909797 0.77698785 0.19331688 0.00061830343
-114.4258 -23.354374 -26.647385 0.59173614 0.7831682 0.19103913 4.8819667e-05
-114.10165 -22.259441 -31.112553 0.61559999 0.7541033 0.22883373 0.00022436856
-114.08358 -21.167604 -35.996254 0.61603296 0.77951407 0.11340683 0.00033252258
-113.86912 -24.34576 -23.790894 0.58544743 0.79971766 0.13305265 0.00030322853
-113.49506 -23.410555 -28.92812 0.61043632 0.7619797 0.21622784 0.00020312281
-113.11147 -22.255619 -33.828232 0.6285736 0.75603044 0.18251911 0.00058076181
-112.99309 -24.634834 -25.938869 0.5810681 0.79320216 0.18218166 0.00039100804
-112.6395 -23.620319 -30.744106 0.633295 0.7444042 0.21165946 0.0002382337
-112.07622 -24.756104 -28.181992 0.5911532 0.78348804 0.19153172 0.00031492536
-112.03538 -25.727844 -23.795181 0.57188034 0.81128943 0.12150002 4.5301236e-05
-112.01849 -22.953901 -35.384724 0.63482249 0.75834662 0.14802325 0.00057528488
-111.78402 -23.836653 -32.560158 0.64333707 0.74109167 0.19209531 0.00023238768
-111.22422 -24.982746 -29.986462 0.60447025 0.77426708 0.18741985 0.00031978003
-111.18025 -25.930882 -25.602741 0.56204599 0.81356812 0.14903465 6.1946368e-05
-110.6475 -26.800915 -22.430429 0.53713173 0.83840895 0.092519991 0.00042406752
-110.55793 -24.326828 -35.00568 0.62077481 0.76460379 0.173262 0.00027494496
-110.29369 -26.188969 -27.770767 0.56000459 0.81190288 0.16495031 0.00031669973
-110.32027 -25.177082 -32.200371 0.60410148 0.77820146 0.17165016 0.00021907662
-110.00098 -24.350519 -36.939564 0.60732692 0.77396172 0.17926876 0.00035161068
-109.774 -27.108818 -24.563694 0.53598797 0.83455139 0.12743914 0.00023038212
-109.4307 -26.37339 -29.596436 0.55235291 0.81686574 0.16624305 0.00030051873
-109.18037 -25.67034 -33.863586 0.58895725 0.79139632 0.16377226 0.00036597881
-108.92236 -27.335793 -26.359558 0.53291082 0.83264357 0.1507007 0.00010360763
-108.71104 -27.902012 -22.967112 0.52191931 0.84841764 0.088248178 0.000281713
-108.60642 -25.626127 -35.83149 0.56867212 0.80333751 0.17680703 0.00037520946
-108.57193 -26.583508 -31.412083 0.53242654 0.83020258 0.16518423 0.00024736443
-108.05493 -27.503309 -28.190922 0.51824051 0.83942789 0.16366878 1.563307e-05
-107.58987 -28.445192 -24.585506 0.51650417 0.8505829 0.09865208 0.00023452606
-107.40468 -26.961723 -33.135696 0.530312 0.83163673 0.16477153 1.1783826e-05
-107.184 -27.663912 -30.030018 0.52092278 0.83875287 0.15853372 0
-106.97275 -26.613855 -36.441349 0.55027831 0.81660777 0.17419988 0.00032867113
-106.68536 -28.640192 -26.783813 0.51076359 0.84506756 0.15805511 7.4383832e-05
-106.54273 -29.287922 -22.962309 0.50292927 0.86146557 0.07027901 0.00018749015
-106.02302 -28.066986 -31.737129 0.52639902 0.83556914 0.15725194 8.4008396e-05
-105.93432 -27.533199 -34.753178 0.54848814 0.8216365 0.15515874 0.00012591443
-105.81187 -28.792252 -28.624096 0.52336711 0.83699715 0.15975806 0.00012071768
-105.64513 -29.513348 -25.139969 0.49541271 0.85836262 0.13334103 0.00016193134
-104.78412 -29.716972 -26.948708 0.51322359 0.84722447 0.13715792 0.00018080142
-104.69172 -30.367435 -22.740959 0.4883109 0.87049836 0.061523736 0.00019549722
-104.65917 -29.228821 -30.309776 0.52475625 0.83753067 0.1522273 2.4753699e-05
-104.58215 -28.755871 -33.287251 0.53619206 0.83219337 0.14125267 0.00025744704
-104.51147 -28.308262 -36.261307 0.55091143 0.82008541 0.15477945 8.7094129e-05
-103.79224 -30.592937 -24.917717 0.49469528 0.86277473 0.10438549 0.00037188205
-103.64276 -30.195507 -28.607986 0.50776643 0.84892827 0.14660829 0.00013884125
-103.1967 -29.824211 -31.907837 0.51611966 0.84673363 0.12908444 0.00018180253
-103.14348 -29.460499 -34.830818 0.53837264 0.83178955 0.13520713 0.00012945071
-102.77039 -31.332912 -22.96435 0.48500317 0.87375963 0.036275636 0.00045627711
-102.65925 -31.102392 -26.556374 0.49446681 0.86228877 0.10936537 0.0003833576
-102.16904 -30.740118 -30.230198 0.49771509 0.85576731 0.14121649 8.3497427e-05
-101.7445 -30.469566 -33.481224 0.50674558 0.8538695 0.11880971 0.00048163562
-101.65321 -31.90168 -24.567402 0.48801622 0.86933452 0.078087501 0.00022240549
-101.47458 -31.409679 -28.307228 0.47815436 0.86745161 0.13746306 4.2130327e-05
-101.00591 -32.385067 -21.989172 0.471035 0.88207167 0.0086993892 0.00031407055
-100.78564 -32.092186 -26.381504 0.4738993 0.87193614 0.12307244 0.00030924843
-100.69549 -31.29388 -31.850296 0.49597532 0.86108625 0.11197749 0.00031048316
-100.62187 -31.049805 -35.096134 0.51947647 0.84607375 0.1195964 0.00051700871
-100.02094 -32.036785 -29.883541 0.47206485 0.87124705 0.1344745 1.3690004e-06
-99.538025 -31.732786 -33.53989 0.48118597 0.8731916 0.077437334 0.00092202646
-99.322624 -32.675419 -27.978004 0.4714509 0.87114662 0.13725032 0.0002349432
-98.83477 -32.35733 -31.633945 0.46790841 0.87872201 0.094389118 0.0012458147
-98.127396 -32.956917 -29.745712 0.46026728 0.87593377 0.14454786 0.00022629225
-98.124794 -32.542465 -35.024349 0.49189073 0.86808515 0.066870704 0.00079818687
-97.088104 -33.035843 -32.795769 0.47292453 0.87812269 0.072408594 0.0011286525
-96.253777 -33.569736 -34.826439 0.4875637 0.87280101 0.022363689 0.00064667413
100.75235 -28.116077 -35.281834 -0.39624345 0.81319624 -0.42626628 0.029114341
101.26468 -28.602652 -31.259781 -0.5299266 0.8480112 -0.007403912 0.011449115
101.61766 -27.858337 -33.331161 -0.63047022 0.77603906 0.016454155 0.026256673
102.31548 -27.502541 -26.868259 -0.53259623 0.84548807 -0.038615547 0.0045499895
102.77142 -26.927128 -35.086857 -0.42085084 0.84393179 -0.33266169 0.036241643
102.96835 -27.663639 -30.094463 -0.50781077 0.86146545 0.0023535371 0.0058297943
103.37482 -26.999296 -32.536945 -0.54100138 0.82411069 0.1678064 0.00058865169
103.74483 -26.916206 -25.097576 -0.5050078 0.85858196 0.088340953 0.0020204617
103.77191 -26.753466 -28.504837 -0.53421772 0.84260142 -0.068075955 0.0025851724
104.32509 -27.026833 -22.547777 -0.52148414 0.84188753 0.13885167 0.00042056717
104.63805 -25.682457 -34.084747 -0.36250094 0.91061312 -0.19843599 0.069097124
104.83925 -25.923763 -26.451633 -0.54333431 0.83912247 0.025715873 0.0065791244
105.20582 -26.234955 -30.436932 -0.55778432 0.8291778 0.036616165 0.0063899583
105.40016 -26.829426 -35.954102 0.15330136 -0.50762302 0.84783119 0.017691424
105.80981 -25.532948 -28.315224 -0.55749941 0.82322156 -0.10724073 0.00076048175
106.3133 -24.940735 -34.896351 -0.17531882 0.5716809 -0.80152625 0.016159741
106.95995 -24.546732 -26.341534 -0.57283193 0.8190943 -0.030792881 0.0012892531
107.20761 -24.734373 -29.567757 -0.56349099 0.82273138 -0.074773259 0.0028176007
107.40371 -26.818323 -35.94286 0.14078058 -0.44101408 0.88639003 0.019471988
107.76501 -23.5574 -33.549335 -0.45009395 0.84389788 -0.29197913 0.040003784
108.01917 -23.812664 -27.975655 -0.55737942 0.82950658 -0.035312694 0.0026076699
108.3118 -23.737192 -30.93475 -0.58742732 0.80441266 0.088597663 0.004706589
108.39294 -24.969179 -35.280373 0.073977925 -0.49949366 0.8631531 0.010490297
108.59702 -23.571247 -24.769428 -0.56374919 0.81725216 0.119523 0.00081444858
109.46325 -22.423531 -33.735275 -0.47775516 0.71301895 -0.51318032 0.06372676
109.63904 -23.381454 -21.950787 -0.54115582 0.82605779 0.1574129 0.00043112255
109.76226 -23.127541 -29.162045 -0.55336541 0.83211035 -0.037136227 0.0021540464
109.78114 -22.602144 -26.526367 -0.52970982 0.84806633 -0.013822922 0.0026030971
109.93903 -26.382294 -35.743179 -0.014761966 -0.33227929 0.94306552 2.7269673e-05
110.27948 -24.066374 -34.921795 0.12828739 -0.46049467 0.87834334 0.010708599
110.46457 -22.515823 -24.065945 -0.52751631 0.84592628 0.078327656 0.00095054141
111.24088 -21.878424 -28.15202 -0.54954797 0.83545482 -0.0035184843 0.0025881047
111.34492 -21.715717 -33.684612 0.15047954 -0.42826524 0.89103585 0.0049768696
111.6628 -21.526634 -25.832409 -0.5686807 0.82234454 -0.018752716 0.0020143709
111.82121 -25.491764 -35.379883 -0.023170823 -0.34005582 0.94011974 9.2769915e-05
112.39335 -23.683712 -34.692661 0.027933916 -0.41239914 0.91057491 0.0023517064
112.68501 -20.83218 -29.120289 -0.59868675 0.80066943 0.022419199 0.0018737039
113.01405 -20.291161 -33.186546 -0.3435103 0.8256833 -0.44749042 0.095443033
113.25541 -27.295452 -36.047428 -0.017411737 -0.34767801 0.93745226 0.00012846966
113.1467 -20.584496 -27.157146 -0.59798843 0.80121958 -0.02137924 0.0013834672
113.94697 -25.088545 -35.163403 -0.023655204 -0.34828681 0.93708956 5.5678163e-05
114.02695 -22.331127 -34.160023 0.019936822 -0.38029659 0.92464966 0.00061230856
114.57639 -19.075508 -32.571815 -0.48214576 0.76854092 -0.42057142 0.091708504
115.36882 -26.916695 -35.819511 -0.026476657 -0.34380662 0.93866718 9.8897064e-05
115.60249 -23.700197 -34.652786 -0.019056175 -0.34350115 0.93895888 2.3263552e-05
115.66265 -20.979717 -33.622917 0.026310857 -0.39186612 0.91964591 0.00090324535
116.24966 -17.653624 -32.064663 -0.38268006 0.73297322 -0.56241107 0.071466506
116.99508 -25.588579 -35.279556 -0.0143223 -0.33637807 0.94161808 4.0488365e-05
116.80269 -17.45804 -28.799721 -0.5977546 0.78958821 -0.138708 0.060483046
116.90647 -17.528509 -25.824432 -0.63577574 0.76999956 0.053758882 4.0207633e-05
117.23074 -22.368565 -34.107464 -0.014234358 -0.34211823 0.93954915 2.4265277e-05
117.31935 -19.593941 -33.100605 0.052988287 -0.39029443 0.919164 0.00074116379
117.82806 -16.417503 -31.453873 -0.46097347 0.69150651 -0.55616742 0.070600912
118.17521 -16.430117 -27.656281 -0.40809479 0.91279036 -0.016504318 0.031331111
118.56729 -26.954151 -35.771183 -0.0073108329 -0.34539804 0.93842781 6.1477018e-05
118.64894 -24.213985 -34.761253 -0.013014875 -0.33907917 0.94066781 6.0947612e-05
118.91418 -20.938377 -33.611782 -0.014806557 -0.34228125 0.93948084 3.1404852e-05
118.97536 -18.215012 -32.570774 0.055329442 -0.40744451 0.91155231 0.0011201
119.35912 -16.947914 -31.991096 0.063166216 -0.45266923 0.88943839 0.0012890878
119.57793 -25.100027 -35.10537 -0.011586356 -0.34353173 0.93906957 7.3168544e-06
119.44328 -15.116341 -30.874523 -0.4829751 0.76949799 -0.4178611 0.072707877
120.02619 -27.418049 -35.922012 -0.013363007 -0.3396976 0.94043976 8.8427325e-05
120.15613 -23.299189 -34.408882 -0.014968869 -0.34429595 0.9387418 6.5739019e-05
121.32428 -15.938761 -31.672123 0.041782614 -0.41445109 0.90911198 0.0020602767
121.44575 -20.561903 -33.370136 -0.025866428 -0.34433228 0.93849146 3.8233931e-05
121.40932 -18.208664 -32.547047 -0.016915174 -0.35421586 0.93501067 0.00019840004
121.67265 -26.067947 -35.393284 -0.013284821 -0.33605859 0.94174743 3.8941456e-05
121.53342 -13.872242 -30.677013 0.095975854 -0.4394967 0.89310205 0.00067345717
122.07505 -22.375866 -34.055096 -0.025186246 -0.34927633 0.93668127 7.2914212e-05
122.68337 -24.221922 -34.718937 -0.016172394 -0.3512342 0.93614787 3.3758188e-05
122.82568 -12.425184 -30.173523 0.030351855 -0.39963639 0.91617107 0.00046968996
123.23939 -27.444046 -35.880341 -0.017756177 -0.33928338 0.94051665 8.6084416e-05
123.35112 -19.669275 -32.994461 -0.029692397 -0.34329227 0.93875915 4.0030591e-05
123.303 -17.339594 -32.154686 -0.021859493 -0.34271738 0.93918419 4.0337349e-05
123.24787 -15.014812 -31.305241 0.013500053 -0.37205186 0.92811382 0.00051563617
123.96046 -21.521202 -33.661884 -0.021754069 -0.35460332 0.93476373 3.7124657e-05
124.26565 -25.576637 -35.220577 -0.01478351 -0.34086984 0.93999428 6.712888e-05
124.58297 -23.341608 -34.342655 -0.019130923 -0.35930705 0.93302333 3.9589022e-06
124.66238 -13.162786 -30.598011 0.029897129 -0.39257619 0.91923344 0.000456154
125.26627 -18.765587 -32.622723 -0.018447176 -0.33935493 0.94047755 0
125.22791 -16.418837 -31.787926 -0.017006518 -0.34049386 0.94009298 0
125.7856 -27.041643 -35.660522 -0.019156419 -0.32984325 0.94384134 5.6782528e-06
125.86205 -20.642973 -33.27935 -0.013252741 -0.35130578 0.936167 7.4107098e-05
126.16914 -24.692982 -34.848003 -0.020502198 -0.34486407 0.93842876 7.8236051e-05
126.25337 -14.541359 -31.102154 -0.015894171 -0.34163249 0.93969917 7.4743031e-05
126.75803 -22.888607 -34.148769 -0.020639557 -0.35561404 0.93440497 0.00010987608
127.19562 -17.842159 -32.259377 -0.014772071 -0.33580589 0.94181538 5.8361878e-05
127.72215 -26.101635 -35.320995 -0.021342034 -0.33754241 0.94106835 8.2513827e-05
127.80058 -19.703129 -32.928051 -0.012877713 -0.34622186 0.93806434 0.00013738836
127.8067 -15.985237 -31.570091 -0.028399145 -0.33640453 0.94128925 0.00022640461
127.95155 -13.113033 -30.583286 -0.028545542 -0.34334427 0.93877578 8.6897191e-05
128.3102 -24.305052 -34.620171 -0.030634839 -0.35067779 0.93599492 4.8223868e-05
128.42467 -21.522692 -33.615437 -0.02520993 -0.35052705 0.93621331 4.8600512e-05
129.25067 -17.807474 -32.254997 -0.029835308 -0.34379819 0.93856949 0.00013608263
129.74316 -26.114193 -35.296082 -0.020713218 -0.35266477 0.93552047 7.4400785e-05
129.48253 -14.604551 -31.028511 -0.028872944 -0.33683461 0.94112104 0.00014339839
129.8069 -19.756104 -32.877625 -0.018231306 -0.34009618 0.94021386 0.00016173426
129.95564 -22.983397 -34.065273 -0.025216101 -0.35069019 0.93615198 0.00013952293
130.85086 -16.571102 -31.639545 -0.021980977 -0.34711608 0.93756455 0.00016088839
131.36984 -24.831989 -34.723248 -0.016613711 -0.35112378 0.93618166 6.0678558e-05
131.14868 -13.246275 -30.47094 -0.024370894 -0.35006836 0.93640703 8.2726496e-05
131.36722 -21.16996 -33.355957 -0.019875439 -0.34531733 0.93827546 0.00023013543
131.49319 -18.363403 -32.350082 -0.012124901 -0.34577841 0.93823791 0.00024903408
132.01582 -22.936558 -34.070873 -0.0058050067 -0.34622106 0.93813503 0.00019438118
132.80835 -26.628546 -35.406746 -0.026310366 -0.34804678 0.93710786 6.5449829e-05
132.59055 -15.083088 -31.155178 -0.011241552 -0.34225163 0.9395411 0.00011909191
133.09653 -19.705158 -32.870087 -0.016753327 -0.33276814 0.94285983 0.00012278238
133.18781 -16.961342 -31.823795 -0.0072925757 -0.35182625 0.93603694 0.00010495615
133.41489 -24.811829 -34.715366 -0.015577919 -0.34921592 0.93691278 0.00014497201
133.63902 -21.667105 -33.483093 -0.020518783 -0.3535988 0.93517214 0.00021323927
134.3405 -28.070322 -35.861431 -0.01360326 -0.35087448 0.9363237 0.00013096549
134.27945 -13.694098 -30.613861 -0.022150993 -0.35236433 0.9356007 7.3445932e-05
134.96216 -26.233175 -35.184139 -0.020411471 -0.33937693 0.94042897 9.7586038e-05
134.76678 -18.352571 -32.319534 -0.017863763 -0.34197077 0.9395408 0.00015253689
134.871 -15.585199 -31.279621 -0.019332679 -0.34976801 0.93663687 7.317547e-05
135.11307 -23.411858 -34.202209 -0.017691081 -0.35064062 0.93634301 0.00012025195
135.31981 -20.29771 -32.945797 -0.0093543353 -0.34338826 0.93914694 0.00027294358
135.96239 -12.320871 -30.060177 -0.020514822 -0.34216329 0.93941653 9.8741373e-05
136.55504 -27.568636 -35.698814 -0.01240053 -0.35550585 0.93459183 0.00014021319
136.44876 -16.984324 -31.773643 -0.01445719 -0.3543621 0.93499655 6.9084745e-05
136.6537 -24.850832 -34.663986 -0.022952851 -0.34614757 0.93789923 7.6030614e-05
136.52974 -14.258387 -30.705162 -0.02199235 -0.35111913 0.93607247 9.0823909e-05
136.75406 -22.119923 -33.626354 -0.0066510066 -0.35166782 0.93610114 0.00019917046
137.05228 -18.840733 -32.451851 -0.011068581 -0.34125784 0.93990457 0.00019347582
138.19728 -26.279734 -35.129894 -0.026378397 -0.34836039 0.93698943 9.5944306e-05
138.34572 -23.472198 -34.137794 -0.022153087 -0.33622479 0.94152117 9.4482377e-05
138.15784 -15.572277 -31.24736 -0.018580427 -0.35681963 0.93398851 4.7723155e-05
138.23582 -12.851078 -30.16996 -0.022418793 -0.34975117 0.93657428 0.00010771363
138.50005 -20.64385 -33.146503 -0.014433449 -0.34724036 0.93766505 0.00022032268
138.74719 -17.456577 -31.914646 -0.033296671 -0.35152525 0.93558609 0.00012259137
139.8038 -27.592649 -35.658131 -0.021812467 -0.35596326 0.93424535 9.6788797e-05
139.89095 -24.903709 -34.604881 -0.022019442 -0.34500811 0.93834144 0.00015730961
139.82156 -14.246754 -30.670853 -0.019805113 -0.35245219 0.93562019 8.4099382e-05
140.02573 -22.120638 -33.59301 -0.022823479 -0.34394342 0.93871301 0.00012355734
140.14218 -19.359791 -32.558842 -0.03126765 -0.35281482 0.93517065 8.1987884e-05
140.41725 -16.122499 -31.346695 -0.028869057 -0.34438041 0.9383862 8.2542181e-05
141.43002 -26.342201 -35.066887 -0.0094912788 -0.35273698 0.93567437 0.00016230234
141.58907 -23.52537 -34.077278 -0.016623858 -0.3412444 0.93982762 6.5107735e-05
141.69939 -20.785175 -33.03574 -0.027052457 -0.35591969 0.93412489 0.00014871873
141.50694 -12.887651 -30.108528 -0.018646663 -0.3420361 0.93950176 7.7632858e-06
141.80261 -18.04788 -31.982647 -0.021673203 -0.34418455 0.9386518 7.4313793e-05
142.06155 -28.113806 -35.773434 -0.012827067 -0.35374939 0.93525225 0.00018708792
142.11337 -14.746218 -30.797504 -0.020472288 -0.34482455 0.9384439 4.8550814e-05
143.15866 -24.914846 -34.568607 -0.01004192 -0.34515852 0.93849069 0.00012323054
143.30788 -22.115307 -33.563046 -0.018225139 -0.34886435 0.93699598 3.7776339e-05
143.40526 -19.397499 -32.502964 -0.013186614 -0.35403055 0.93514091 3.6184218e-05
143.77988 -26.708061 -35.267395 -0.0047503044 -0.35364598 0.93536729 9.0704052e-05
143.54308 -16.597836 -31.476803 -0.016391866 -0.34682816 0.93778545 5.263725e-05
143.8141 -13.367165 -30.245975 -0.022394802 -0.34847888 0.93704903 3.184536e-05
144.83762 -23.58077 -34.015541 -0.012704442 -0.3440221 0.93887562 8.5427098e-05
144.98489 -20.784342 -33.00193 -0.016706211 -0.34988403 0.93664402 0.00018818685
145.10443 -18.026773 -31.956963 -0.015808854 -0.35435423 0.93497765 8.3619692e-05
145.45567 -25.381962 -34.71386 -0.014728279 -0.35270748 0.93561774 4.0538474e-05
145.22334 -15.260454 -30.906631 -0.017053936 -0.3510358 0.9362067 2.040773e-05
145.5163 -11.990589 -29.689217 -0.016648715 -0.34599373 0.93808907 0.00018537135
146.05789 -27.204876 -35.396618 -0.019667035 -0.3473379 0.9375338 1.6910335e-05
146.59288 -22.117901 -33.52877 -0.022259779 -0.34280509 0.93914276 0.00015475746
146.72086 -19.354404 -32.490463 -0.025365805 -0.35492349 0.93455124 9.8126075e-05
146.81653 -16.638308 -31.416691 -0.016015776 -0.35618654 0.93427759 6.832213e-05
147.15399 -24.021261 -34.175385 -0.018413933 -0.35116607 0.93613213 0.00013501501
146.93948 -13.864069 -30.364155 -0.0096251732 -0.34362686 0.93905699 0.00010227769
147.74409 -25.867796 -34.849178 -0.017942026 -0.35034981 0.93644708 2.499107e-05
147.63332 -11.901972 -29.709415 -0.016025221 -0.35645902 0.93417346 0.00016853213
148.33684 -27.703289 -35.525192 -0.014165144 -0.34083417 0.94001669 3.7544803e-05
148.23782 -20.853331 -32.930351 -0.023963161 -0.35335705 0.93518162 0.00019082331
148.38489 -18.056059 -31.904198 -0.015367568 -0.34281787 0.93927616 0.00015624787
148.53738 -15.239374 -30.878094 -0.0057786307 -0.35250106 0.93579358 6.8622096e-05
148.84558 -22.677315 -33.623978 -0.015113001 -0.34992948 0.93665409 0.00012232062
149.44444 -24.510923 -34.308781 -0.010328406 -0.34926996 0.93696523 1.1035931e-05
149.16862 -13.395035 -30.163502 -0.015605558 -0.35428056 0.93500894 0.00018108422
150.04358 -26.337765 -34.993446 -0.019119175 -0.34965435 0.93668371 3.8276383e-05
149.95122 -19.473562 -32.390522 -0.013085364 -0.34074837 0.94006348 0.00019408524
150.14972 -16.585878 -31.406433 -0.011983338 -0.34347674 0.93908471 8.9029403e-05
150.21559 -11.545843 -29.440914 -0.01951538 -0.35440725 0.93488747 0.00024987065
150.57663 -21.269892 -33.103249 -0.0055123889 -0.35487622 0.93489707 5.615249e-05
150.76176 -14.781553 -30.673038 -0.020105153 -0.35708207 0.93385667 6.4732238e-05
151.18343 -23.092365 -33.798119 -0.011764592 -0.34906539 0.93702453 4.8973234e-05
151.6264 -27.69931 -35.499813 -0.033135436 -0.34117347 0.93941611 2.8751774e-05
151.75461 -24.970406 -34.458935 -0.02237656 -0.34503195 0.93832415 9.1426955e-05
151.7097 -18.020065 -31.886456 -0.0064846487 -0.34092948 0.94006646 0.00012919496
151.82457 -12.91177 -29.964279 -0.0061455709 -0.3576299 0.9338432 0.00013281623
152.29579 -19.887659 -32.564732 -0.0066653998 -0.3398858 0.9404431 7.5216849e-05
152.33086 -16.206192 -31.160919 -0.012985904 -0.35877296 0.93333453 0.00013766329
152.8625 -21.78241 -33.224438 -0.017940035 -0.35001647 0.93657172 5.5690511e-05
153.28554 -26.426683 -34.915947 -0.031793334 -0.33847499 0.94043821 4.7621474e-05
153.47253 -23.595516 -33.924568 -0.018650152 -0.34062544 0.94001406 0.00010809141
153.38161 -14.364225 -30.440327 -0.0076344023 -0.34967288 0.93684077 0.00012510069
153.79713 -17.987736 -31.880642 -0.014297725 -0.34780827 0.93745661 0.00023016123
154.34715 -19.915762 -32.527489 -0.01393103 -0.34692919 0.93778789 0.00017420328
154.44864 -16.125851 -31.179531 -0.016160132 -0.35415858 0.93504578 0.00022392406
155.01367 -25.039585 -34.390892 -0.01335758 -0.33251292 0.94300413 7.2562201e-05
154.94212 -21.759239 -33.216049 -0.0090691624 -0.34585574 0.93824387 5.0843169e-05
154.74927 -12.877253 -29.94569 -0.015590624 -0.3490817 0.93696254 8.0943144e-05
155.79417 -18.116978 -31.787846 -0.023946377 -0.34721941 0.93747818 0.00017762712
156.35155 -23.61771 -33.884773 -0.0097855935 -0.3431592 0.93922627 5.3775468e-05
156.1442 -14.795702 -30.599934 -0.012603968 -0.35451749 0.93496442 0.00018235714
156.43835 -19.879704 -32.524857 -0.021221377 -0.35052806 0.93631184 0.00014274714
156.61111 -26.383131 -34.910789 -0.0088981083 -0.33888322 0.94078642 5.8886362e-05
157.00781 -21.76503 -33.19194 -0.013368091 -0.35183325 0.93596715 2.6753753e-05
156.79671 -12.931303 -29.890553 -0.019776819 -0.36015779 0.93268174 7.7195436e-05
157.1472 -16.66548 -31.28183 -0.020416509 -0.34427118 0.93864816 0.00020337466
158.14604 -18.535389 -31.960327 -0.0032816625 -0.35466003 0.93498951 0.00019534916
158.32216 -25.035999 -34.362507 -0.01900672 -0.33932883 0.94047576 7.989828e-05
158.25478 -14.739717 -30.604553 -0.018523406 -0.34960702 0.93671334 0.0001155073
158.71631 -20.422184 -32.630661 -0.11594917 -0.36793494 0.92259395 0.007701545
159.01225 -23.133228 -33.699505 -0.020226123 -0.34666398 0.93777132 6.9051115e-05
158.86702 -12.949963 -29.854206 -0.01459217 -0.36109352 0.93241549 4.9569939e-05
159.2881 -26.932228 -35.00938 -0.12648465 -0.36479989 0.92245466 0.0081990929
159.19734 -16.712631 -31.232365 -0.0023495797 -0.3462958 0.93812245 0.00019573541
160.37941 -25.058119 -34.331493 -0.17016806 -0.31795919 0.93270826 0.0062025725
160.26578 -18.462364 -31.976662 -0.1358756 -0.34147424 0.93001783 0.0069289985
160.29823 -14.804766 -30.544483 -0.12079299 -0.36003339 0.9250865 0.0056211273
160.47879 -21.31979 -32.974213 -0.12256637 -0.37824693 0.91755474 0.0073235151
161.02383 -23.238174 -33.622341 -0.097540155 -0.29323977 0.9510501 0.0052908664
160.8569 -12.02737 -29.470356 -0.19650365 -0.35555911 0.9137637 0.012303406
162.13257 -19.53462 -31.371929 -0.17107497 -0.35396796 0.91947806 0.0052294792
162.34317 -27.003912 -34.091702 -0.22741452 -0.30302987 0.92544878 0.0063599711
162.09785 -13.846214 -29.330101 -0.24383971 -0.35352626 0.9030844 0.0072405664
-125.76591 -16.329042 -9.4219494 0.41106471 0.89339441 0.18130714 0.00047471171
-124.68161 -17.112976 -7.8571835 0.42059645 0.88929886 0.17957206 0.00051268627
-124.01224 -16.87649 -10.629885 0.53324682 0.83822864 0.11410781 0.0022859466
-124.00742 -16.729343 -13.761227 0.61874241 0.78453666 0.040743373 0.0015166376
-123.80321 -16.885832 -15.973911 0.66204876 0.74944681 0.004563557 0.00025822551
-122.96653 -17.831516 -8.9758034 0.5240795 0.84449923 0.11028052 0.0020617486
-122.78133 -17.552845 -20.21628 0.66085273 0.7458716 0.083361916 0
-122.66753 -17.92104 -11.973131 0.62297863 0.78203803 0.017725322 0.00060336408
-122.46673 -18.097313 -14.170702 0.65454453 0.75602049 -0.0020944832 0.00035756247
-122.19814 -18.332905 -17.107574 0.66382164 0.74724323 0.031118242 0.00018035475
-121.7087 -18.295656 -21.732456 0.65794933 0.74620771 0.10137417 0
-121.5974 -19.039743 -7.5686054 0.56114882 0.81519318 0.14343001 0.00033139234
-121.58794 -18.711555 -10.400282 0.60525393 0.79531771 0.033724882 0.00097393204
-121.39004 -18.886221 -19.106987 0.65311092 0.75369108 0.073457152 1.5314051e-06
-121.14564 -19.257599 -15.456295 0.65468025 0.75589722 -0.0036218725 0
-121.11838 -19.232668 -12.410501 0.6266396 0.77850217 -0.035456154 0.00039306239
-120.35854 -19.904457 -17.403147 0.63758439 0.76895458 0.046851426 0.00013151584
-120.27888 -19.633343 -21.002453 0.64835286 0.75490129 0.098806001 9.8090612e-05
-120.20069 -19.829853 -9.0360069 0.58627111 0.80442435 0.095852531 0.00069686107
-119.79171 -20.355305 -13.712669 0.62727451 0.77769822 -0.041377492 0.0003801533
-119.6866 -20.151163 -11.145168 0.58855146 0.80632579 -0.058701973 0.00093546865
-119.30571 -20.809198 -15.7617 0.6105063 0.79196674 0.0084126983 0.00012139743
-119.25535 -20.682205 -19.278475 0.62755299 0.77639908 0.058152884 0.00017010116
-119.1604 -20.768234 -7.3933449 0.55639201 0.81983185 0.13529104 0.00040142733
-118.71204 -20.886915 -21.468727 0.63542199 0.76645923 0.093696862 0.00026354071
-118.60608 -20.909611 -9.5902042 0.58190757 0.81314963 -0.01308611 0.0018249432
-118.38349 -21.371801 -12.394926 0.58918142 0.80443949 -0.075778402 0.00029674979
-118.20145 -21.577618 -17.638254 0.61063206 0.79175788 0.015747957 0.00052990101
-117.89117 -21.799759 -14.45422 0.58696818 0.80927998 -0.023113096 0.00034671364
-117.67301 -21.851742 -19.787781 0.62765157 0.77597976 0.062520348 0
-117.24519 -21.931339 -7.8970127 0.53739029 0.83772743 0.097078636 0.00048008398
-117.14427 -22.128681 -21.940195 0.62720352 0.773112 0.094412081 0.00043452336
-117.01358 -21.994709 -10.141102 0.56737155 0.82206136 -0.048007775 0.0014239523
-116.79755 -22.612591 -16.304577 0.59730381 0.80184931 -0.016304942 0
-116.55766 -22.585131 -12.112301 0.56501949 0.82059914 -0.085848652 0.00041154597
-116.31518 -23.092871 -18.342653 0.60452062 0.79653275 0.0095079532 0.00051455508
-116.09056 -23.12929 -14.109966 0.56925654 0.81933433 -0.068104893 0.00051616831
-115.77568 -23.325567 -20.514229 0.60332221 0.79542607 0.057442289 0.00023664047
-115.59021 -22.910601 -8.8799534 0.52468991 0.85115552 0.015320922 0.0025449714
-115.09945 -23.349749 -10.926178 0.53498507 0.83912176 -0.09831477 0.00038268449
-115.00365 -23.971083 -15.943438 0.57407957 0.81770939 -0.042238224 0.00023227838
-114.73264 -24.240593 -18.861216 0.59002227 0.80734265 0.0084672272 0.00014813316
-114.6472 -23.959797 -12.887341 0.53400046 0.83960724 -0.099514812 7.0736729e-05
-114.53973 -23.762787 -7.2810707 0.53774416 0.83438236 0.12098453 0.00019742506
-114.19709 -24.497644 -21.020229 0.58694351 0.80653191 0.070735857 0.00025906303
-113.68335 -24.103085 -9.367691 0.52376521 0.85143346 -0.027039878 0.0026369519
-113.64858 -24.962435 -17.312531 0.55639726 0.83033538 -0.031067718 6.8021232e-05
-113.56153 -24.804928 -14.716593 0.53028053 0.84444225 -0.075629093 0
-113.19883 -24.575348 -11.396929 0.51971424 0.8473559 -0.10901882 0.00021139624
-113.12932 -25.293179 -19.429077 0.56738013 0.82317746 0.021415049 0.00030871324
-112.68257 -24.975811 -7.378727 0.50460416 0.85689068 0.10541772 0.00033578707
-112.59977 -25.583277 -21.571198 0.56823498 0.82113105 0.053412817 0.0004399606
-112.20724 -25.795288 -16.084314 0.52922493 0.84541458 -0.072077245 0.00019121286
-112.14144 -25.539377 -13.162136 0.51220626 0.85188186 -0.10927985 7.1368479e-05
-111.80578 -25.235384 -9.5062504 0.50603187 0.86181152 -0.034823932 0.0032021729
-111.70651 -26.208265 -18.154861 0.53494859 0.84482783 -0.0097912345 0.00011927584
-111.19312 -26.570713 -20.255512 0.5446043 0.83856505 0.014653071 0.00010376408
-111.02712 -25.921293 -11.418396 0.48518783 0.86566597 -0.12335017 0.00059183821
-110.8257 -25.999886 -7.1936817 0.48227945 0.86992091 0.10317041 0.00023510173
-110.77751 -26.482197 -14.552567 0.50657064 0.85591298 -0.10391911 0.00014603171
-110.30323 -27.010946 -16.559294 0.50883836 0.85803956 -0.069653727 0.00025430965
-109.94617 -26.255203 -9.3227577 0.47582641 0.87853533 -0.042011395 0.0024627589
-109.79362 -27.392332 -18.646494 0.51443708 0.85720372 -0.023583284 0
-109.67395 -26.905071 -12.785633 0.47640789 0.87009048 -0.12640423 0.00036777143
-109.27781 -27.752045 -20.748968 0.51703632 0.85566014 0.022786526 0.00015776666
-108.88969 -27.574776 -14.709974 0.48750535 0.86559063 -0.11441776 0
-108.87259 -26.969734 -7.7930832 0.48493081 0.87026972 0.086443879 0.00058699929
-108.55304 -27.064896 -10.777702 0.47225693 0.87840736 -0.073307618 0.0018714461
-108.42096 -28.131491 -16.701632 0.49011809 0.8683089 -0.076314993 0.00025149403
-107.91235 -28.523716 -18.782818 0.4934046 0.86914521 -0.033741292 3.5192119e-05
-107.80478 -27.885971 -12.620632 0.47942895 0.8645063 -0.15091981 0.0001375799
-107.3898 -28.86108 -20.896828 0.50517982 0.86294907 0.010603674 0.00036494655
-107.19146 -27.823862 -8.8373089 0.46236125 0.8855322 0.045329362 0.0015591257
-107.13469 -28.116619 -6.7876883 0.45298588 0.88616204 0.097574122 0.00068673742
-107.03329 -28.611969 -14.51475 0.46577358 0.87583816 -0.12634243 0
-106.66906 -28.154819 -10.936619 0.44775701 0.89088064 -0.076454006 0.0025130268
-106.55133 -29.116495 -16.532837 0.47220945 0.8764841 -0.093774892 0.00022004673
-106.04913 -29.541092 -18.596237 0.47914806 0.87656558 -0.045274343 0.00015508868
-105.90292 -28.903286 -12.816717 0.42596313 0.88946676 -0.16554259 0
-105.52965 -29.898325 -20.698921 0.49043643 0.87142771 -0.0092656054 1.0344181e-05
-105.39722 -28.73226 -7.9527931 0.43373683 0.89790839 0.07505279 0.001247214
-105.11972 -29.584345 -14.7341 0.44159347 0.88303977 -0.15885821 0.00027332391
-104.82745 -28.874107 -10.147842 0.43831223 0.89774001 -0.04410588 0.0029330899
-104.71693 -29.444847 -6.0548296 0.4533014 0.89112508 -0.020345559 0.0034450949
-104.64819 -30.137197 -16.726784 0.46228185 0.87852561 -0.12036689 0.00040461417
-104.15343 -30.597727 -18.771023 0.47342366 0.87830096 -0.066763684 0.00012872703
-104.0418 -29.544792 -12.067106 0.42170286 0.8926903 -0.15896748 0.00036207205
-103.63789 -30.976898 -20.861923 0.47393551 0.88039851 -0.016843276 0.00019685843
-103.55505 -29.790209 -7.7488537 0.44335848 0.89351457 0.071168378 0.0011988478
-103.28436 -30.333473 -13.927092 0.42451987 0.8883487 -0.17498387 0.00033087371
-102.96021 -29.839455 -9.9909859 0.42816809 0.90369135 -0.0037514262 0.0024963
-102.8351 -30.980087 -15.869081 0.4447324 0.88454896 -0.14066315 0.00057230529
-102.34904 -31.480404 -17.890547 0.45092794 0.88861233 -0.083858073 0.00025749305
-102.22343 -30.62607 -5.7749691 0.40766123 0.91278452 -0.025231911 0.0033850733
-102.15343 -30.426983 -11.95278 0.4118692 0.89633828 -0.16413857 0.00062078086
-101.83993 -31.889984 -19.96328 0.46039602 0.88715798 -0.031404696 0.00051081431
-101.61111 -30.608177 -8.0467262 0.40844819 0.90984493 0.073158748 0.00079380529
-101.39204 -31.202057 -13.81941 0.4135673 0.88709432 -0.20500177 0
-101.0156 -30.665466 -10.285521 0.42894307 0.90008712 -0.076491699 0.0029149461
-100.94511 -31.86128 -15.754244 0.4209556 0.89181423 -0.16572195 0.00027042354
105.2158 -26.713572 -20.638905 -0.52849585 0.83925664 0.12782963 0.00031638556
106.76206 -25.901625 -18.988153 -0.52916521 0.83935165 0.12439019 0.00025882083
107.38644 -25.921606 -16.494978 -0.51921773 0.85260457 0.058977582 0.0006766718
107.82363 -25.766678 -12.869576 -0.51382589 0.85638291 -0.050905138 0.0007358368
107.98084 -24.856592 -20.76935 -0.55239081 0.81824785 0.15916952 0.00029948974
108.18658 -25.169905 -9.8958511 -0.49562317 0.86325145 -0.095678553 0.00023647131
108.45698 -25.262024 -14.769854 -0.53169423 0.84657425 0.024764726 0.00051250472
108.50437 -25.071869 -18.167255 -0.54324341 0.83223563 0.11077204 0.00080272486
108.92165 -24.441624 -6.579319 -0.47056472 0.87188548 -0.13558936 0.00040485983
109.49162 -24.573977 -16.353937 -0.55485582 0.82626206 0.09708754 0.00056410232
109.58838 -24.534666 -11.43507 -0.51848578 0.85334706 -0.054510321 0.00083834934
109.87409 -24.085009 -8.3841591 -0.49132782 0.8662352 -0.090739213 4.9996437e-05
110.14017 -24.367966 -13.568851 -0.55063099 0.83472955 0.0056660231 0.00043509211
110.15274 -23.616367 -19.331877 -0.55076158 0.82058507 0.1526496 0.00037144797
111.09167 -23.143681 -6.8031712 -0.50136262 0.85769415 -0.11400166 0.00028155441
111.30022 -23.408689 -9.9419098 -0.53466338 0.84356558 -0.050320666 0.00079847442
111.40449 -23.340506 -12.030741 -0.55823874 0.82952547 -0.016031891 0.00026573765
111.62216 -23.234503 -14.554256 -0.55310857 0.83305216 0.0097473869 0.00052191876
112.43333 -22.631683 -8.2740593 -0.50649595 0.8588407 -0.076515406 0.00069479703
113.05595 -22.199223 -15.490248 -0.56557208 0.82366025 0.04137687 0.0006716128
113.12157 -22.210848 -10.535395 -0.53150731 0.84701133 -0.0084687294 0.00013775186
113.20377 -22.187284 -12.605247 -0.55323178 0.83283401 0.017947106 0.00066489703
114.16587 -21.60573 -8.7758293 -0.53591383 0.84275514 -0.050598301 0.00084743713
114.65212 -21.126986 -6.5505571 -0.52147084 0.8455373 -0.11460723 0.00048061454
114.90251 -20.788204 -15.791471 -0.55489761 0.83148903 0.026734011 0.00068565167
114.94913 -21.144407 -13.122688 -0.55499971 0.83142 0.026759798 0.00064462289
115.84853 -20.504007 -8.9062309 -0.54344344 0.838256 -0.04467757 0.00066382153
116.45612 -20.067003 -10.770891 -0.53712285 0.84333944 -0.016663715 0.00011861951
117.00647 -19.687023 -7.2503414 -0.54088658 0.83713561 -0.081520543 0.0013724392
125.01581 -12.785679 -8.59021 -0.34499937 0.90448517 0.25076279 0.00027093894
125.94772 -11.76231 -10.761925 -0.38506088 0.89124644 0.23959918 0.00011609854
126.90767 -10.689642 -12.96586 -0.56457549 0.80742836 0.17121314 0.00017550321
-128.60812 -14.179518 4.942399 0.59591281 0.79343319 -0.12390202 0.00053840043
-127.95626 -15.264509 0.22548485 0.61477995 0.78593546 -0.065961964 0.00022577177
-127.48295 -14.56926 6.664887 0.55537671 0.81249464 -0.17722638 0.00013322865
-127.30005 -15.351059 3.6745367 0.59412718 0.79444158 -0.12599738 0.00038274316
-127.27816 -16.0522 -4.2777119 0.59145641 0.80629545 -0.0081813121 0.0010525356
-126.89732 -16.194317 -1.5493174 0.60527045 0.79408664 -0.055446066 0.00031849515
