# Geomagic Studio
# New Model
349.5432734 31.3960128 171.8187034
349.6032357 49.6879704 173.5430658
349.8229086 37.5820547 170.6433296
349.8633206 26.8063284 168.9864546
349.8828709 18.4172019 167.4502343
349.9551713 48.0021425 170.9187925
349.9936759 23.5421695 167.5010175
350.0344455 16.4560862 166.0032719
350.0458300 42.1054475 169.5892215
350.0769436 11.0248439 164.9104655
350.1058519 27.9689319 167.3963666
350.1071334 21.5662941 166.3207710
350.1926064 19.2231704 165.2473360
350.2207696 36.7927961 167.7533388
350.2230942 33.1024230 167.2761440
350.2427936 25.6947540 165.9948528
350.3715992 23.5989969 164.6104604
350.4112065 11.7569389 162.3410285
350.4641950 36.9215757 165.9533232
350.4726291 55.4581508 168.0127531
350.5261242 41.4286032 165.9947336
350.5920470 29.5531172 163.8586819
350.6006002 27.0962026 163.3665860
350.6326973 24.4889688 162.6196057
350.7059216 22.2198851 161.5701169
350.7682979 36.6345793 163.5076851
350.7897258 12.1947788 159.0993255
350.8675098 27.3970477 161.0901058
350.9221971 51.1552170 164.0236974
350.9458005 48.1323190 163.4014547
350.9600461 33.6015187 161.3476574
351.0861993 42.7137762 161.5930945
351.0981500 45.8974205 161.8350595
351.1558771 36.5377590 160.0880772
351.1776328 15.8887524 155.8504701
351.2568176 12.4816988 154.3633342
351.2999713 25.0972882 156.3515663
351.3196409 35.0798294 158.1570953
351.3581455 28.8835075 156.5297544
351.3644338 51.5757017 160.2380425
351.3778150 55.5390008 160.8112156
351.4200151 40.6287648 158.1452787
351.4418900 20.2270169 153.6975205
351.4564037 42.6015332 158.0876112
351.4600694 23.3665220 154.1404277
351.4728248 37.8133841 157.0565999
351.5120447 26.1742696 154.1205943
351.5343964 45.2165194 157.6372087
351.6905308 31.0039707 152.9155821
351.6908884 35.1385996 153.8803130
351.6975939 43.9357162 155.6718349
351.7035246 52.9799275 157.2317779
351.7066836 38.8143249 154.5501649
351.7128229 50.1832291 156.6086411
351.7492115 46.0114293 155.4665416
351.7910242 33.3516784 152.1438658
351.8625796 37.6516655 152.2697508
351.9600630 41.1454849 151.8782824
346.4406431 84.8576576 194.6798712
346.4571238 91.0383612 195.6947297
346.6465771 75.4541308 192.9394901
346.6777503 61.6192557 191.5750653
346.8726873 64.2898530 190.8536851
347.0400870 58.2718253 189.4390136
347.0628262 79.5920119 191.1489516
347.0941186 62.4301769 189.5596534
347.1562564 60.5693907 189.0625209
347.2547233 75.3322467 189.8242086
347.3524451 82.3589712 189.9557412
347.3712504 56.5383621 187.5530183
347.6247191 87.5708535 189.2442256
347.7647007 66.1137626 186.2979233
347.7783203 84.6765935 188.0439371
347.8648961 90.7435268 189.9912208
347.9480445 92.1806246 192.2578961
347.9579389 63.2218570 184.9441528
347.9777575 82.9965100 186.7810786
348.0093181 68.3840662 185.1079315
348.1726646 66.1575869 184.0109229
348.2293487 76.1595666 184.5928580
348.3340144 58.5711114 182.3715419
348.4771550 62.5833273 181.8888783
348.5769331 72.5344941 182.2771430
348.6218154 74.5738298 182.2398305
348.7054408 80.4985985 182.4011207
348.7089276 60.6312528 180.3495884
348.7269282 77.7687952 181.9468141
348.7934470 57.9035580 179.5739979
348.8259912 85.1203129 182.5679839
348.8422930 70.2034011 180.4888099
349.0199447 81.7658901 180.7867140
349.0822315 72.4378079 179.2802662
349.1049111 79.5281604 179.9420267
349.1869271 60.8516410 177.4151921
349.2020369 88.3778632 182.4429929
349.2310643 67.5495416 177.8274179
349.3156433 70.5818087 177.6416600
349.3358195 59.0588525 176.2763113
349.4162560 57.0340380 175.5499840
349.6916294 85.6964290 178.1217158
350.2251506 62.4241717 170.6668735
350.3924906 84.3310282 173.4779775
350.5456448 79.6601549 170.6712842
350.6769240 68.5376748 168.1067348
350.6959975 74.7680143 168.8004583
350.7526815 59.5003851 166.4812118
351.0226011 62.0627478 164.6815985
351.2067199 77.5114223 165.2269810
351.4579237 57.6122589 160.4212523
351.4651656 64.7883564 161.4294946
351.4931798 78.2128870 162.9078686
351.5820801 72.0206201 161.3916457
351.5820801 84.2748955 167.6022857
351.6016603 86.0186219 172.2093821
351.6460061 69.4187582 160.4146361
351.7983556 72.7649257 159.5369428
351.7985344 56.2775619 156.8024755
351.8943191 91.0177156 185.7484281
352.0515561 60.0698143 154.7611654
352.0543575 85.1919726 169.4623977
352.0797193 69.4852620 156.0554802
352.0983160 66.6566119 155.4817259
352.1010280 90.4766172 184.0121597
352.1376848 77.3322508 156.9410861
352.2075713 74.8897344 155.5362195
352.3268700 77.2623122 154.4312537
352.4907529 79.4223845 154.1460156
352.5506556 97.0165208 194.6520656
352.5566757 99.7075886 194.3109930
352.7101576 95.4123288 193.2246089
352.8123200 87.9579931 176.3855964
353.1716466 99.6497720 191.4501786
353.4794152 97.2151235 190.0549978
353.6812663 87.4219164 174.2151380
353.7638485 89.6123573 180.1193357
353.9236486 96.7394188 187.6539737
353.9678454 90.4319361 182.1476966
354.0695608 91.4316028 184.4850481
354.1036546 86.7996439 172.1414328
354.1182876 93.9966440 186.5685880
354.1193008 81.1581463 155.5068940
354.2334437 96.2671041 185.8782470
354.2832732 98.5145867 185.7301891
354.3120921 82.0377097 157.9199582
354.7254801 83.4072381 161.5780294
355.1735878 95.3123048 180.8286905
355.3737998 92.9873437 179.9469590
355.6488752 82.9329416 159.1826975
355.7863832 95.3229442 176.7750382
355.8558226 90.5579031 176.2655377
355.9015989 98.4142572 176.2203723
356.0498059 96.1116105 174.9110222
356.2078178 81.6158205 154.5606107
356.2491238 87.8396705 171.9230562
356.7179739 93.4432372 170.1835990
356.8521142 96.5528935 169.3272591
356.9440842 93.1341201 168.1454629
357.0005894 100.2480388 168.0952311
357.0220470 86.8161246 167.1753079
357.4788570 94.4612175 164.4626707
357.7159345 90.6159505 162.1706337
357.7410877 83.4980756 158.4636867
357.8619957 87.8117085 161.7546380
357.9105437 93.1607708 160.7163697
357.9386175 95.7860351 160.2649242
358.1374884 89.2303362 158.3213061
358.1389189 82.7520862 155.6610167
358.1585586 98.4620005 158.7446332
358.2254350 93.0253714 158.1133902
358.3754301 86.8950859 156.6304713
358.3916128 93.7169194 156.1381370
358.5030138 100.6541327 157.0761502
358.6771786 87.2316137 153.8182050
358.7378561 92.7296728 153.2443166
358.7827981 96.7349708 152.8742015
358.9251935 85.2383226 152.2976905
358.9619100 92.6018283 150.7446766
359.0995669 100.1397818 152.8025419
346.7406332 137.0763183 195.6019849
347.0759988 142.7256614 194.0803230
347.1360207 144.7201967 193.7987208
347.1525311 132.1687251 193.3850795
347.3463655 134.1258138 192.6918626
347.6101458 130.1867068 191.9240505
347.6602733 132.7695549 191.1476701
347.6950824 144.5192248 191.0735369
347.8929400 141.3464695 190.0865436
348.1421471 136.7442906 188.7710690
348.2800424 140.8805996 188.1956309
348.3192623 134.6630156 187.8302693
348.6976624 140.6454444 186.0177219
349.0964472 128.3538491 191.9762194
349.1680026 128.5749227 182.9641014
349.2406011 135.8940154 182.9745471
349.3771553 129.8507154 181.5464795
349.6720493 143.3988810 180.6431264
349.7278988 132.8643262 180.0707877
350.0240445 141.8950558 178.6480844
350.2162993 127.3361742 189.1399175
350.2440751 126.4762133 183.7584823
350.3828049 134.7150058 176.0634333
350.4726887 144.9839920 176.0360897
350.6439328 141.2796527 174.6919900
350.7041931 132.2133839 173.9817709
350.8572876 144.5313096 173.6035198
350.9806991 132.5587332 172.1944511
351.1258960 143.6587423 171.6498286
351.1783183 130.4406226 170.7505286
351.4264822 141.9967413 169.5142239
351.5037596 145.0966895 169.0447628
351.5404761 131.2621534 168.2550162
351.5766263 123.9319593 171.1888462
351.5865207 124.6139407 176.9970357
351.6359329 137.1831149 167.7974313
351.7403901 129.5650899 166.5757895
351.9074321 140.3869092 165.8742875
352.0061970 138.5311931 164.9857759
352.0423174 125.7099360 164.2648727
352.1226048 144.4141269 164.3649191
352.2275388 127.5248677 162.5774503
352.2657156 122.7658913 163.0831361
352.2921205 123.6802191 174.2391437
352.3209095 142.9888904 162.7030224
352.4923325 114.4398600 194.5809126
352.5174558 123.7334460 159.4258398
352.5217474 138.6581212 160.4022682
352.6012301 122.7638870 169.0619439
352.6056707 106.5024436 194.2247301
352.6188433 121.7808127 193.8328892
352.6445329 140.2223855 159.3175977
352.6658714 116.7456806 193.8814670
352.6738584 132.4972957 158.6487740
352.7019620 136.5447044 158.6986482
352.7217805 123.2195795 157.1622491
352.7747989 134.3896985 157.7740461
352.8130651 126.8408000 156.7824930
352.9049754 121.8957007 165.1507914
352.9122472 124.7874722 155.4281414
352.9317677 121.2068647 155.2710682
352.9445231 112.4157831 193.0881143
353.0061841 143.2915032 155.4146856
353.0260026 122.7710322 153.5438001
353.0407548 124.8334646 192.2638118
353.1085551 126.5698075 153.1130672
353.1388044 137.8707737 153.7058651
353.1574011 124.2617294 151.9369781
353.1745374 131.5065920 152.7674347
353.2400131 107.2878763 191.2957281
353.2696664 128.1195581 151.3526142
353.2700241 136.6607249 151.8091559
353.3079326 134.5315576 151.0196775
353.3397317 145.1617479 151.1347741
353.3434868 117.3545569 190.4522032
353.4027338 122.7938682 190.4201508
353.5368145 102.9310599 189.4529462
353.5898626 109.1805622 190.1251078
353.6977768 114.9411872 188.9743656
353.7827432 111.6228849 188.5192096
353.7915647 123.8729283 188.5503829
353.8038731 118.8020855 187.8511906
353.9367616 103.3712775 187.4650419
354.0461659 116.4195314 186.7461354
354.1920781 109.0546548 187.1581376
354.4614613 116.2256524 184.4968945
354.5577526 107.8218371 185.0063950
354.8167348 120.9152937 164.7709757
354.8399210 122.6879358 182.2119653
354.8400402 118.5489148 182.4665368
354.8848927 103.4758240 182.0587218
355.1263809 120.8233908 180.7936281
355.3002179 102.6232094 179.7958910
355.3355932 117.7960336 179.7597557
355.4639816 107.2235331 179.7904670
355.5030227 110.4988828 178.4048676
355.5477858 121.5978339 178.4271300
355.7426333 112.2194156 176.8496931
355.7881117 103.4618914 176.7942011
356.0360670 117.4506992 175.2106547
356.2619686 105.8782414 174.6556461
356.4896286 119.0554425 158.4257632
356.5942943 119.6910068 171.9446927
356.7430079 103.0660719 171.0317880
356.7442000 118.1971580 154.6481252
356.7806780 119.8852137 164.8604423
357.0055068 119.6763963 167.6485687
357.0419848 104.9243435 169.5278734
357.1673632 107.1444675 167.0089364
357.3534489 104.8569605 166.5734649
357.4130535 117.1590611 166.1198437
357.4432433 111.3385260 165.0848538
357.5776219 102.8543040 165.1651412
357.7266634 109.9350601 162.7973169
357.7498198 114.3274978 162.1321738
357.8029275 104.7663167 162.5100970
357.8335941 107.5491831 161.6957188
357.8743935 102.3893878 162.6184136
357.9169512 116.6124195 161.3733321
357.9598665 111.5782112 160.8795226
357.9844236 109.5916331 160.5345607
358.0491841 100.9062678 160.5958045
358.1782877 116.6503057 159.1798514
358.2529128 103.0849442 158.7435603
358.3797812 106.9562063 157.1986973
358.3852649 112.0160297 157.4578583
358.5083783 102.9732898 156.4756781
358.5508466 110.0473627 155.5997431
358.5790694 115.6438068 155.5452645
358.6410582 105.9418693 154.9569368
358.7624729 101.3802886 154.9863517
358.9335978 106.2929258 151.3068378
346.7862010 159.0007991 195.4017431
346.9482660 152.2776783 194.6394742
347.0883965 155.6412280 194.0614134
347.1156955 165.7814085 193.8763559
347.1271694 163.3521467 193.8254386
347.2557962 160.1855904 193.2335198
347.2569585 168.8257903 193.2086796
347.2945988 188.4066463 193.1718588
347.4445939 152.9602110 192.3149377
347.4692702 175.1236469 192.2103763
347.6171196 186.9420558 191.6171759
347.6300836 180.9831560 191.4381981
347.8069007 153.7692100 190.6345785
347.9533792 166.8628156 189.9992228
348.0147719 190.4059649 189.8888052
348.1019735 160.6311053 189.2917007
348.2093513 153.5094976 188.6690855
348.3185172 174.1653234 188.2754564
348.3466804 188.8100952 188.1581992
348.3580351 167.8950489 188.0255193
348.4115005 179.6063781 187.6647174
348.5520184 161.6556048 187.0088428
348.7114310 152.9210061 186.0961765
348.9018083 180.8507293 185.1691455
349.0350842 151.0345340 184.4018102
349.0611911 171.1104810 184.2922121
349.0953147 166.2170589 184.2328012
349.2736816 180.9704751 183.2271069
349.2864966 178.4651428 183.2011193
349.3345082 187.1933490 183.0392480
349.5033681 146.9373405 181.6886514
349.5423198 184.2322350 181.8068624
349.6396244 167.6645428 181.1857820
349.7419059 152.1372944 180.4237515
349.8812020 147.5507021 179.4893593
349.8906791 155.1275104 179.5013249
349.9953449 168.8732505 179.1653782
350.0724733 152.2642076 178.5896122
350.2511978 190.1108772 178.0557781
350.3185213 167.0918465 177.2599816
350.3789306 152.7351141 176.8070608
350.6082892 164.4876450 175.4116565
350.6143689 176.7968982 175.4497141
350.6295085 171.7056334 175.2902418
350.6373167 148.9593387 175.0966161
350.7240713 153.2265842 174.6515781
350.7277966 183.8668287 174.9294698
350.7460952 188.4894669 174.9745309
350.9144783 166.8847054 173.5075414
350.9419858 146.7643678 173.0977893
350.9683311 163.9119536 173.1633544
351.0295153 180.6347519 172.9104072
351.0334194 177.1282554 172.7961153
351.0391414 157.5162709 172.6070493
351.2469232 146.1582631 170.8421558
351.2502909 153.4170657 171.1757481
351.2707055 161.4848375 171.2132841
351.2820005 156.1317891 171.0107177
351.3104022 185.3256971 171.1994112
351.3734043 149.4958848 170.1366007
351.3978720 166.4185524 170.4082340
351.4530659 177.0438254 170.0538695
351.5189886 160.4196578 169.4820374
351.5834510 174.9565303 169.1612303
351.6483009 187.4958426 168.9234823
351.6499400 163.4358764 168.5153544
351.7003953 173.1426120 168.2753563
351.7383635 153.5512060 167.7266657
351.7647088 178.3284545 167.8480208
351.8051505 147.6908475 167.1113521
351.8398404 165.3381586 167.1285927
351.8921733 188.4227246 167.1611369
352.0497978 183.2892150 165.7551825
352.1395028 148.5445201 164.3826067
352.1704674 167.2571301 164.5692289
352.1928489 156.5224081 164.3052250
352.1978259 174.4467765 164.4004583
352.3668647 172.9539782 162.8976315
352.3772657 170.5334634 162.9661620
352.3982763 168.1893319 162.6505852
352.4115086 149.9023438 162.0895565
352.4232805 175.3756851 162.3954475
352.4281681 159.8554403 162.2435600
352.4483144 183.2034141 162.4106765
352.6033461 186.1335933 160.9479636
352.6218534 163.7656987 160.4215354
352.6615202 173.5458523 159.9666774
352.6795506 161.5281105 159.7316861
352.6930809 150.8362442 159.5288068
352.8447747 183.7943494 158.0862254
352.8713882 149.4280994 157.4302018
352.9212475 186.3429546 157.4077904
352.9389501 175.7140607 156.8973958
352.9397845 182.1540892 156.8073183
352.9960811 167.9574102 156.3218832
353.0327082 180.6125790 155.4644406
353.0793488 150.8302838 154.8172832
353.1582654 155.6829810 154.3674916
353.2205522 189.0360266 153.1533301
353.2485664 165.3828323 152.7732760
353.2654643 186.4266545 152.3060054
353.2674313 156.9932401 152.8819054
353.2682657 174.4132489 152.1040648
353.3098996 179.7746122 151.3552070
353.3370495 152.7058929 151.4703333
353.3408940 155.3859711 151.5171528
353.3643782 176.2934476 150.7314146
353.3960879 161.0886008 150.8894563
346.7448950 235.1540327 195.6551969
346.9588757 210.8266056 194.5096701
347.1082747 232.8630388 193.9625591
347.1979201 193.8309520 193.7236339
347.2209573 204.4135481 193.3784783
347.2281098 206.5600902 193.2512224
347.3527431 201.9690871 192.8543746
347.4061787 217.2024101 192.5308704
347.5315571 225.5648226 192.0192540
347.6535380 192.5696731 191.5874779
347.7304876 210.4224712 191.0606474
347.7788568 216.2853181 190.8175647
347.8529155 224.2866457 190.5309260
347.9393721 207.9092115 190.0354326
348.0371237 213.1804526 189.5984262
348.0692804 220.4753906 189.4567907
348.2859135 194.4022477 188.4890646
348.3466208 211.8530422 188.1047189
348.3648300 224.5315760 188.0390346
348.4368324 198.4158158 187.7822727
348.5255837 218.7620401 187.2857064
348.5750854 207.3641866 186.8772954
348.6117423 210.0856304 186.7025048
348.6875296 216.4654881 186.4821613
348.6875892 226.0370702 186.3584816
348.6937284 202.8954327 186.3230765
348.7004638 212.8964812 186.2551719
348.8247097 223.4253436 185.7386231
348.9393890 233.3539724 185.1415932
348.9624560 220.6013054 185.0892752
349.0555286 231.0805619 184.4955534
349.0988910 204.1354179 184.1243953
349.1533399 218.4616923 184.0934157
349.1984606 226.9233614 183.8136911
349.2763340 233.4728390 183.2987815
349.3201137 229.0445119 183.1074655
349.3219018 212.2630477 183.0260605
349.4367301 193.1560040 182.7505231
349.4816720 202.2848725 182.3326200
349.6333361 204.8724592 181.3754737
349.6391475 210.6639892 181.3618243
349.8002887 193.0510700 180.7584316
349.8615026 202.1538019 180.2896261
350.1011431 223.8653153 178.9136082
350.1534164 233.6552590 178.5309911
350.1625657 192.6061064 178.6495298
350.1943052 221.1487442 178.5353273
350.2652049 202.6606202 177.9367477
350.2841592 217.5020725 177.7549386
350.3631353 215.0521129 177.2173494
350.4149616 229.9832106 177.1700382
350.7699370 221.8328565 174.9441475
350.7981300 192.5120503 174.7598499
350.8905172 204.1728199 174.0034521
350.8985639 198.6986697 174.0047187
350.9289622 223.7778008 173.8538891
351.0817587 208.0219388 172.7708280
351.1206508 212.5933468 172.3438799
351.1561453 197.2796917 172.3424941
351.1753678 214.8914933 171.9540954
351.1921167 229.5337617 172.1188128
351.2857556 205.4834217 171.4435816
351.3149321 202.4127543 171.2840497
351.4063060 219.7433561 170.6108451
351.4901102 231.8597585 170.0606048
351.5195847 196.1136609 169.8901951
351.5793979 204.4368535 169.4605798
351.6347408 225.5783379 169.1765934
351.6669273 207.1003169 168.8839197
351.7269790 220.9787220 168.4932858
351.9271612 196.9205439 166.9153124
351.9639075 225.0727117 166.9072658
352.0054519 199.2968172 166.4624214
352.0714045 201.3576627 165.9808755
352.0865738 207.6806128 165.7600105
352.0868719 219.6852267 165.7135487
352.1518409 231.3410640 165.4245853
352.1720767 197.3306388 164.8702919
352.2468209 235.0939661 164.8272723
352.2744775 205.4869086 164.3086523
352.3347974 233.2436442 163.9379859
352.3398042 223.3591974 163.7761593
352.3505926 191.4727241 163.3032858
352.3821533 230.9156507 163.3197963
352.4123728 217.5000012 163.1644964
352.4582982 196.3859051 162.4640226
352.4731100 198.3493268 162.4683589
352.5090218 221.5788662 162.2709036
352.5160253 225.1490653 162.3512655
352.5384665 204.3729424 161.9556248
352.6256680 229.7207266 161.1844897
352.6315391 212.6143873 161.2325013
352.6429534 206.6217512 161.1315310
352.6436687 232.7919453 161.0624492
352.6559472 196.4557320 160.6383622
352.7121246 203.1669021 160.3354067
352.7813256 214.5292312 159.7477198
352.7842462 217.2862440 159.8467231
352.8131843 226.3118625 159.7549915
352.8139889 191.6867495 158.6399227
352.8325856 211.7322534 159.4724804
352.9330790 209.9329680 158.3177447
352.9571891 197.4055916 157.6901674
352.9678285 233.9648306 157.8663439
353.0021608 227.5419086 157.8420252
353.0395031 204.5467943 156.8764597
353.0818224 222.6500362 156.7101032
353.0984521 218.1381583 156.5276533
353.1692028 232.6327413 155.6350589
353.2208502 192.0171529 153.4866691
353.2941043 221.5580046 154.3017030
353.3121645 225.9895355 154.1291773
353.3277214 219.4397002 153.7998170
353.3483148 198.6119151 152.4668038
353.3534408 195.8723664 152.2273123
353.4060121 192.4625337 150.8475244
353.5223007 222.0982611 151.5072286
346.4700878 273.7896442 194.6562827
346.8760252 280.0141275 192.4538612
346.9780087 273.8444209 192.4952418
347.0067382 264.8581266 193.0564344
347.0237851 260.2706850 193.3400184
347.1192718 276.1347592 191.7581707
347.1649587 247.5747913 193.3231354
347.1753001 249.9300092 193.2394207
347.2173214 240.3843254 193.4018582
347.4247158 255.0168931 191.9176877
347.4838138 278.3492804 189.9733245
347.5014269 273.6989260 190.2544200
347.5511372 244.7949946 191.7387545
347.7077186 235.9917313 191.2136972
348.2411802 280.0340354 186.3399595
348.2937515 256.5442026 187.7314448
348.4167755 262.4910474 186.8024319
348.6568630 246.9022125 186.4572167
348.7407863 240.5022681 186.2096637
348.7421274 270.0954080 184.6785098
348.7786353 275.7536173 184.1301024
348.8424122 244.7238714 185.6089830
349.0149975 248.5676259 184.5920384
349.0240276 260.5562210 183.9599609
349.1013646 246.0383326 184.2436492
349.2281735 252.0147264 183.3607852
349.3347466 265.8522129 181.8790585
349.5726585 237.4727428 181.7758530
349.5956063 278.6857188 179.5632839
349.6888876 274.8588324 179.3414056
349.8660624 280.4339528 177.7907610
349.8816788 271.5296447 178.5364896
349.9026000 243.6734438 179.9341440
349.9155045 239.3411845 179.6560585
349.9409854 237.3986095 179.5829535
350.0727713 241.5933758 178.8805127
350.2629995 250.3782511 177.8018773
350.3205478 243.3944792 177.5393039
350.4212201 264.6636963 175.9169400
350.4302502 247.3035157 176.8245101
350.5212665 277.0029306 174.2185205
350.6967127 279.3409228 172.6412624
350.7030308 270.4688013 173.6345142
350.7249355 267.5498724 173.8207340
350.7696092 259.3422532 174.2973924
350.8148193 265.2842999 173.3926982
350.8440256 257.1348250 173.9708185
351.1103094 238.1177098 172.5516319
351.1458635 241.6409552 172.4360883
351.1576355 270.4164088 170.6265211
351.1892557 252.6394427 171.9921082
351.2801826 248.5352457 171.5641022
351.4150083 254.0230751 170.3585535
351.5282273 270.5723941 168.0362970
351.5367806 267.2418952 168.3935076
351.6127765 261.2377703 168.2989448
351.7359197 238.9559746 168.7260717
351.8962562 253.0789673 167.0147181
351.9637585 242.1768308 167.0731902
351.9836366 271.2785602 164.5862311
352.0148993 238.6406958 166.7254120
352.0362973 250.1188815 166.1390960
352.0552814 278.8887322 162.7797931
352.1385491 266.9571340 163.7712270
352.2320688 247.6738691 164.8925245
352.3804247 239.6849543 163.8148725
352.4086177 271.3017762 161.1379981
352.5052667 247.7097660 162.6458168
352.5407612 256.2434971 161.6707146
352.5583148 265.1979923 160.7084870
352.6028991 237.7898395 161.7165506
352.6270986 253.1221807 161.1799300
352.7003825 258.0163777 160.0895375
352.7326286 242.2210723 160.6448293
352.7908027 277.0966887 157.1697295
352.9260755 253.4763515 158.4708095
352.9366255 274.8852968 156.1179608
353.0389369 239.1895205 157.2187096
353.0595303 247.1073121 157.3696285
353.1475365 236.7609143 156.0522914
353.1484306 250.2836287 156.4664394
353.2252312 238.9646024 155.1520228
353.3152342 258.4623098 154.1562974
353.3177376 265.2408481 153.4482986
353.3195555 277.3912549 152.4843723
353.3250690 254.8191845 154.3152034
353.4435928 270.5426812 151.8231183
353.4453213 238.4656370 152.5756717
353.4687459 249.1097152 152.9903412
353.4854650 245.8953261 152.7297646
353.6103368 259.2054307 151.0655880
345.5316424 311.6936088 195.3800768
345.5809355 313.7879372 194.9578971
345.7228541 304.8098087 195.1771379
346.0012674 294.8105931 194.9477196
346.0562825 306.6976368 193.5195625
346.2868929 309.4358742 192.3645586
346.3180959 296.1288393 193.4778094
346.3953435 325.1915872 190.4180348
346.4028835 318.9679384 191.1074519
346.4432359 285.7450247 193.8272864
346.5048671 321.8048513 190.3897077
346.6260135 316.2201345 190.4350817
346.8244374 298.3029485 191.0550147
346.8766809 286.2222791 191.8594390
346.9392955 306.8760335 189.7490919
346.9969034 317.8676963 188.6236519
347.0685482 301.0506332 189.6687895
347.1126854 288.5484695 190.6355023
347.1384346 283.4506035 191.0131872
347.2271264 291.5740907 189.8863316
347.2633958 319.5116520 187.2124970
347.5397527 320.9170997 185.7127100
347.5891054 312.9792511 186.2835884
347.6330638 289.9815738 188.2244498
347.8375077 325.2022266 183.6881787
347.8502929 284.1782570 187.7586097
347.8884995 295.7428694 186.4574850
347.9703963 307.4185848 184.9159896
348.3818471 282.8468978 185.4074597
348.3821154 319.4396198 181.6378087
348.4180272 303.0941188 183.1838042
348.4714329 314.4884408 181.5678477
348.5476077 288.8977528 183.9553714
348.6225009 324.2128789 179.6198934
348.6830592 320.1114833 179.8966229
348.7088382 300.1534939 181.9931120
348.9320278 286.6431773 182.2390109
348.9675224 282.9166949 182.4873984
348.9832580 312.7639294 178.9994687
349.0552008 307.5619936 179.2215258
349.0970135 300.4724681 179.8595339
349.2099047 291.5553451 180.1259816
349.2303491 318.7370300 176.8049151
349.2420018 287.7680957 180.4272234
349.2634892 304.6262562 178.4286648
349.2701948 285.8412564 180.5052310
349.3005335 309.9677861 177.5509715
349.3778706 323.6594796 175.1866490
349.4180739 313.5181665 176.4044613
349.6632278 317.5098896 174.2890775
349.6697545 314.8953021 174.6057421
349.7332931 322.9198754 172.9062498
349.9273956 289.9435461 176.1925519
349.9647081 298.7076342 174.8913080
349.9843776 306.4303100 173.8129109
350.1450419 316.0787821 171.3033319
350.1759470 297.2052097 173.7323552
350.3559530 294.4439352 172.8915870
350.4108787 312.9419088 169.9611694
350.4118919 284.1780484 173.7832725
350.4481316 305.4681420 170.8752662
350.4517674 289.5691395 172.7712005
350.5318761 315.7212436 168.7383801
350.5872488 307.5266480 169.6441174
350.6232798 311.5473092 168.7302738
350.7189453 288.8130844 171.0764468
350.7431746 282.4026346 171.8917787
350.7683873 302.4050593 169.1023707
350.7805765 313.1625056 167.3819572
350.8067131 309.2975914 167.9366231
350.9678841 290.5528247 169.1703349
351.0258794 282.9297781 169.8514521
351.0869741 301.4086485 167.0350581
351.1710167 310.1997972 165.1273370
351.2146771 312.4682903 164.5191461
351.2316048 299.3310094 166.1892831
351.2519896 285.3208184 167.8977758
351.3551354 292.9046154 166.1746055
351.3799012 282.6277614 167.3780978
351.3909280 307.2542250 164.1589403
351.4508009 316.7742789 162.5790894
351.5397310 304.4733405 163.5127664
351.5933156 319.7642565 161.0392779
351.6950309 323.3653605 159.8787606
351.7937362 313.6747777 160.5344862
351.8668413 288.6114120 163.0621254
351.8739939 306.3943386 160.9216779
351.9062996 321.3223219 158.7626040
352.0900309 324.0559995 157.1715325
352.1103561 289.5836234 161.1885130
352.1401286 282.7501595 161.7922336
352.1468043 296.4475751 160.0148231
352.1829844 314.0412569 157.7897221
352.3632586 324.1778016 155.3012729
352.3664773 310.8878136 156.7034274
352.3837924 283.4654152 159.8759443
352.4109125 307.9808354 156.5536559
352.4389267 300.4863858 157.4590802
352.5550067 314.4660890 155.0792456
352.6310325 296.0029840 156.3382000
352.7057171 309.2911243 154.1684866
352.7537286 302.1753728 154.7611952
352.7617157 294.1706479 155.4981023
352.7881503 299.9288738 154.7614783
352.8964520 285.5264544 155.5587053
352.9503942 314.2304420 152.0773768
352.9697061 304.4594526 152.7642161
352.9716134 307.1818650 152.3500830
353.0583680 292.5111055 153.2734632
353.2096744 285.6557071 152.9410779
353.3576131 290.0092006 151.1435658
353.4096777 287.2157693 150.9562880
343.7674046 366.4089441 195.3127384
343.9310789 369.0829277 194.2778826
344.3513513 369.9339330 192.4991459
344.3934321 350.9251773 195.1339096
344.5562124 360.8482480 193.0405647
344.7852135 341.9133425 194.8690116
344.9261785 346.3216722 193.6833262
345.0032473 367.6179051 190.2144849
345.1887965 354.0991545 191.4785951
345.2861905 347.5808799 192.0482516
345.2953994 330.2090764 194.3302304
345.3135490 357.0724726 190.5177534
345.5562294 366.9286370 188.0069226
345.5826640 327.1323740 193.5334057
345.7706571 364.7474349 187.4395609
345.9947407 336.4637494 190.6753331
346.0778594 370.3253567 185.2714270
346.1023271 357.2078943 187.1865243
346.2644219 341.6869044 188.7743473
346.2744951 327.3078501 190.6802803
346.4693427 355.3509712 185.9047264
346.6833830 344.2338705 186.5638494
346.7022181 335.9426856 187.6812130
346.7255831 341.5331841 186.6381168
346.7355967 360.0984812 184.0402335
346.9444215 345.7098603 185.2156073
347.0970094 360.6967330 182.3186725
347.1341133 329.3711543 186.5769923
347.1725285 364.5404577 181.2423915
347.2443819 338.5435939 184.8280728
347.2615182 368.5612977 180.2150756
347.3486900 326.2610137 185.9070808
347.3925889 342.8928852 183.4907532
347.4084735 351.7275751 182.2013706
347.4628329 366.4241135 179.4950217
347.5694060 359.7013354 180.1577359
347.6358354 349.6377170 181.3773215
347.7061987 343.7654674 181.8322837
347.7075100 330.7642341 183.5110337
347.7087915 355.1843762 180.1372468
347.7610350 336.3388777 182.5998574
347.9408324 370.2571094 176.5982062
348.1258452 353.9803624 178.1437397
348.1636643 327.5918961 181.6419363
348.2204974 367.3966229 175.5306274
348.2422829 346.8137681 178.5342097
348.2451737 330.8672011 180.6737781
348.2506573 339.7721946 179.5243621
348.3559191 361.5707755 175.6365001
348.3977616 364.1524017 174.9952883
348.4050333 342.3259854 178.3491522
348.4060764 370.2325225 174.0856469
348.5065997 354.7841907 175.8795977
348.6106694 346.4071155 176.4846444
348.6304283 358.3774865 174.6419370
348.6684561 360.2602780 174.1332412
348.7000763 334.0367079 177.6614934
348.8537967 342.6257372 175.6316125
348.8620222 352.1490097 174.2830575
348.9198387 368.6112165 171.4327335
348.9452302 329.5593858 176.9289821
349.0905762 346.6357589 173.5631973
349.1726816 343.9366519 173.4836847
349.2514491 352.6007831 171.8088388
349.2725492 329.1521072 174.9296039
349.3034542 355.9805155 171.0217297
349.3750989 331.2723339 173.9535630
349.4651616 333.2861662 173.1495112
349.5360911 369.9443936 167.5171405
349.5716453 353.8751900 169.6677804
349.5722115 358.4466577 169.1326797
349.6430516 337.9118443 171.2510437
349.6650755 349.6350944 169.7239429
349.6914506 328.9372325 172.2636372
349.8844802 352.2915542 168.0465043
349.8904705 331.8419158 170.6979424
349.8991132 364.2036617 166.2157774
350.0612080 329.5084834 169.8617786
350.0624895 356.5934002 166.4973646
350.0808775 335.6000483 168.8748002
350.1316309 362.3725772 165.0892794
350.2515554 359.3386114 164.8642272
350.3004014 331.0872614 168.1086272
350.3653407 347.7978110 165.7638550
350.3719270 328.1183839 168.0449545
350.3764570 349.9840498 165.4018462
350.3925502 352.2102833 165.0193185
350.3991961 342.1891928 166.1958247
350.4981399 334.6214890 166.3041413
350.5158126 344.7572589 165.2033925
350.5175114 368.1555986 162.1043235
350.5823016 338.0235434 165.3641611
350.6999016 329.2340338 165.6685621
350.7664800 340.6817019 163.9930755
350.8345485 364.9626672 160.6328040
351.0145843 343.7384367 162.1077508
351.2333632 333.0469429 161.6353691
351.3606787 328.8381398 161.3991857
351.4245749 356.9433987 158.2441032
351.4251709 338.1867409 159.8930359
351.4295816 361.9117737 157.5437039
351.4524102 371.0066974 156.2779248
351.4839709 367.9527044 156.5243751
351.5287638 333.5336447 159.6501321
351.5976071 340.3365612 158.6239785
351.7028689 337.5189602 158.1581980
351.8452048 356.6654027 155.9071392
351.9253135 351.9978523 155.7733566
351.9982696 328.4647167 157.0849568
352.0211279 339.5623267 155.9957117
352.0619571 357.8536510 154.4764042
352.0661592 335.1181149 155.9365690
352.0794213 344.9529707 155.4223895
352.1265686 363.6488318 153.3835828
352.2377312 348.2086658 154.2883217
352.2560298 360.5750799 152.9507488
352.3994684 355.3132713 152.7267992
352.4300754 341.3207233 153.2295048
352.4377346 357.4492633 152.2529274
352.5994122 348.9338160 151.9072354
352.6804447 359.1082394 150.6767422
352.7786732 332.7551484 151.2601823
352.8243899 329.6046853 151.3093859
342.6882029 403.2588005 192.5372481
342.7503109 394.4461048 194.2644417
342.8656459 399.5418847 192.7193701
343.0713415 404.1710496 190.8830702
343.2256579 408.5563421 189.3972456
343.5189724 381.3614547 193.8766986
343.6862826 396.3882923 190.3027892
343.6965644 402.4331868 188.8954192
343.8521624 406.4844549 187.3407513
343.8849151 382.8110695 192.2138482
343.8870311 384.9649727 191.8198764
343.9612389 378.2099187 192.7196980
344.0677822 399.9925256 188.0054772
344.1355228 394.4567740 188.9348477
344.2026675 409.3986750 185.5651438
344.2165852 397.8089988 187.8966987
344.5183933 415.1936769 184.2959523
344.7082639 374.4889796 190.3505176
344.7260559 400.0318348 185.3380054
344.7367251 389.4369900 187.5683367
344.7900414 392.9283321 186.6079867
344.8433280 411.2189710 182.9340607
345.0335264 376.1044145 188.7401789
345.0504243 403.4246802 183.1864268
345.1582789 398.9572525 183.7747693
345.3415036 378.7816167 186.9946867
345.3601897 380.6597590 186.5768731
345.4601467 407.6336622 180.6396395
345.6033766 398.9411592 181.8935573
345.6853330 414.2381847 179.5205623
345.9482789 400.6655514 180.0204664
346.0387290 373.7608790 184.8700196
346.1948633 390.5470073 181.1425686
346.2560773 411.9449556 176.9768596
346.2953568 397.3239362 179.2389750
346.4542031 384.6789598 181.1471432
346.4869857 400.9458721 177.5336415
346.5933800 379.9296618 181.3990623
346.6141224 374.4442463 182.1706742
346.6221988 408.6968899 175.4959375
346.7715681 383.0036521 179.9517721
346.7979729 385.6375515 179.3715358
347.0208645 403.3227265 174.5183319
347.0423520 408.1052244 173.6425310
347.2171128 387.5970542 177.0699918
347.2473621 395.6905305 175.2822697
347.3774195 373.5652268 178.7827313
347.4084139 404.1443765 172.5415140
347.4451602 378.3329725 177.6129454
347.4727571 393.4728503 174.6812612
347.4840522 375.7714927 177.8525412
347.6473689 407.9963863 170.8294451
347.6794064 383.8850856 175.6232232
347.7563262 388.5994554 174.3084490
347.8409350 376.6656518 175.8899391
347.8818536 386.5983784 174.0935445
347.9566872 396.9406188 171.4606732
348.0416536 406.4202309 169.1662073
348.4818637 405.5836499 167.1880782
348.6093879 378.3935606 171.6202646
348.6436903 376.1874735 171.7668176
348.7658501 391.1418319 168.6274111
348.8414586 383.5620582 169.5877612
348.8548398 388.3464932 168.7669456
348.9059210 372.3056614 170.9375232
348.9709496 378.9916933 169.5091873
349.0864635 374.2816746 169.5183516
349.1480947 395.9876299 165.6886190
349.1620421 398.4028399 165.1573777
349.2667973 385.0074112 167.0874804
349.3200541 382.3626935 167.1185046
349.3642211 392.2539949 165.3071046
349.3831158 377.7415454 167.3651040
349.5717943 374.4277954 166.6677445
349.6513069 401.2964964 162.1627212
349.6753871 397.2856998 162.7666503
349.8069048 390.6750381 163.2220149
349.9183953 410.7445180 159.0899378
349.9388397 376.6258955 164.2693728
349.9393761 382.3369443 163.7168378
349.9828577 374.4044602 164.3353105
350.0336409 395.0006664 161.2834334
350.2451181 372.3630607 163.1096303
350.2758443 415.3262377 155.7027102
350.3222764 381.6162944 161.6146117
350.3349721 391.1374807 160.2466702
350.3518403 401.2310505 158.6008370
350.4331410 395.8216012 159.0561420
350.4463136 403.5950601 157.7382237
350.4473865 374.8518229 161.6415977
350.4915237 413.3759737 155.3653777
350.6526649 379.6283007 159.8878950
350.6913185 376.5239418 160.0782573
351.0260284 372.8181422 158.4243029
351.3260186 379.4963062 156.1636180
351.3271213 384.1281235 155.6575894
351.4148891 392.7581012 154.1062295
351.4951169 399.0695477 152.7938694
351.5248597 394.8822916 153.2009691
351.8626392 393.5992122 151.5057683
352.0029783 387.4756396 151.4658630
352.0340919 372.3607659 152.9355943
352.2207737 382.7241063 150.7897377
342.1793282 452.3732960 178.7310988
342.2275186 432.2401881 185.3053719
342.3415720 418.4929729 191.8670535
342.5332606 434.8452389 190.4112995
342.5643742 445.8503127 193.4855580
342.6075280 455.7648599 175.9615690
342.7705765 427.6083410 185.4339242
342.8260982 452.7003765 176.1138588
342.9664373 430.6880236 182.8065366
343.0742919 456.3824236 174.0816832
343.0902064 433.2383275 182.1624041
343.4505761 450.6306350 174.4726598
343.4790969 424.2461920 185.4970902
343.4791565 430.6505620 180.7718873
343.6143100 449.3181705 176.0693341
343.6945379 433.8370562 180.1025122
343.7137306 435.1916611 186.4968687
343.9035416 430.7905436 178.9664179
343.9812362 424.3905842 183.5298389
344.2078233 444.5569515 194.0740496
344.3582356 453.6368847 169.6497798
344.4399536 447.6919770 178.9578646
344.5602357 440.8329725 194.2470670
344.5671797 431.7967594 175.8613884
344.6533680 459.0813220 166.5990651
344.7726667 439.0336275 193.5806423
344.7728157 451.0446787 169.3169475
344.8358774 422.8234887 181.2441647
345.0408578 435.6023073 187.9854053
345.0920284 427.2097647 176.4625609
345.1932073 430.6583703 173.3861268
345.2500701 424.5108068 178.2408059
345.3719020 420.5859601 180.1047325
345.3818262 416.6399240 180.7823181
345.4991579 437.0688200 190.8049285
345.5786109 431.2017858 171.4397967
345.7918465 452.7469277 163.9885306
345.7931578 424.3054092 175.8898199
345.7936943 421.7122495 177.6799560
345.7954228 459.0839446 161.8950814
345.7973599 417.7998602 178.8843870
345.8371758 461.1048400 161.1038297
345.8548188 427.0760715 173.1082499
345.8712101 435.5371594 176.1666387
345.9490538 437.5852048 189.0087724
346.0255861 419.7032750 177.4889529
346.4038968 439.9359822 187.0027632
346.4516997 418.2551801 175.7945269
346.4978635 458.2168162 159.6301049
346.5318978 436.2559617 183.2661182
346.5664685 443.1076944 186.2458587
346.6061354 452.9445171 160.4683548
346.6401994 421.8648672 173.4619141
346.7095494 431.0417175 166.0839915
346.8062282 446.7046261 181.4572513
347.0024467 436.3399148 179.2227924
347.0160365 428.2158613 166.2734449
347.0354378 458.2626224 157.5748920
347.1562564 425.3029525 168.0882424
347.1583724 435.0663722 164.4673944
347.2400010 430.1072657 163.9269292
347.4943936 449.2126405 166.3852930
347.5052118 422.4681258 168.2483256
347.5705981 425.5957603 165.4787362
347.6714194 434.8422587 161.6340280
347.7349877 431.8690598 161.1821651
347.8865325 420.8048880 166.9562459
347.9385376 425.2017736 163.5932177
347.9385376 438.4418428 181.2513173
348.0270505 442.7928329 181.3769639
348.0994105 432.7971637 159.1958255
348.2115567 429.9098253 159.3664885
348.2131660 421.9547212 164.1299874
348.3354449 418.4325337 165.4579043
348.3570218 438.5418594 179.3385446
348.4399915 427.0039797 159.4506204
348.4541774 451.8135488 156.6060483
348.4808207 458.2648575 151.2626857
348.5309780 423.8389730 160.8291864
348.5940993 441.9662058 178.8906753
348.6601710 433.7113202 156.4760059
348.6752808 430.2983284 156.9050848
348.6849666 421.4023650 161.4406109
348.7477303 446.5950727 176.8613011
348.9612639 436.7663562 163.1728113
348.9667177 423.2379496 158.5031003
349.0291536 428.1342626 155.8280736
349.2175639 417.8832769 160.3348851
349.3414819 446.4496672 175.0687659
349.3493199 450.2084851 159.0113044
349.5113850 436.9590282 160.9542370
349.5119512 418.6203182 158.1377685
349.7234583 422.6495624 154.6839029
349.8639762 448.6753047 166.9787169
349.9857783 444.0208077 172.8900373
350.1799703 419.1419482 154.2329043
350.2961993 440.7145083 171.9601899
350.4044712 439.4468367 170.4975218
350.5479395 420.4552472 152.0239562
350.5516350 450.3153861 157.1065485
350.7348895 442.9020584 170.1565981
351.0025740 418.5794592 150.9184688
351.0175645 450.9420097 153.0826837
351.5396416 437.6704991 155.9974998
351.8756628 444.7518289 165.1659608
352.3245454 440.1388764 163.3100361
352.4016440 445.6194341 162.8584266
353.2423079 446.2879896 159.2330337
353.2535136 440.7091141 159.6751064
353.6322117 444.9231625 157.8961611
354.0121913 448.3667016 155.7109058
354.0507555 439.5179451 155.2219689
354.0618718 443.9198971 156.0682505
354.3833494 441.9804811 154.6203345
354.4231355 444.7781742 154.0060937
354.7553718 439.8607016 152.2749662
355.2057445 441.7640269 150.9510577
342.1026170 474.6593237 173.0033606
342.1707153 488.7763262 169.9762195
342.5286412 465.8436179 173.4166890
342.5323367 468.0666924 172.7241725
342.6626325 461.8496001 174.0463376
342.8090215 470.7148969 170.9286869
343.0316150 478.2319367 168.7714159
343.0738151 481.4689755 168.0412889
343.1833386 485.5308235 167.0035273
343.1985378 501.9763708 191.0021901
343.2817161 488.0233109 166.1580950
343.3026969 488.5182679 187.8975481
343.3266282 497.4175394 192.3511922
343.3427513 490.4277027 194.8211938
343.3745205 464.4846916 170.5121249
343.4439301 467.3224986 169.4710553
343.5340524 491.6477501 165.7321453
343.5683250 493.6299920 168.1041718
343.6234593 469.3648219 168.3882475
343.6368406 493.0141866 182.1095347
343.6421156 472.3777771 167.4720496
343.8406885 482.1512103 165.2106047
343.8988030 464.2442763 168.3805883
343.9006507 473.7683833 166.2145257
343.9846933 494.6839511 191.7048991
344.0364003 495.0779378 177.1155894
344.1697657 495.2928722 174.0240902
344.1966176 498.1366098 189.9416596
344.2051709 505.0168633 187.4827892
344.2404270 481.0357690 163.7434363
344.3036079 469.0241516 165.6450629
344.3138301 487.0856106 193.5015470
344.4210887 488.5368049 162.1255130
344.7288573 506.0449839 185.8390570
344.7417021 489.2776012 191.6636527
344.9269831 475.2586484 161.7316902
344.9843526 490.4465079 187.6532137
345.1458216 497.7599382 187.6530349
345.2020288 491.0770655 189.8513436
345.2924192 488.6451066 160.0914598
345.3304172 485.6445789 158.7368250
345.3525603 493.1668639 164.4667387
345.4867899 505.5239201 184.1312200
345.6413746 495.5515862 178.9893508
345.6883430 467.0446515 160.2120250
345.6952870 471.5025127 159.2734158
345.7199931 494.8278069 180.9255332
345.7424045 495.8041906 172.0453054
345.8355367 476.3720632 157.8415334
346.0491598 469.7437584 158.2181901
346.1739719 497.8927970 184.9306971
346.2761343 496.4037240 175.1508564
346.3323116 479.3335199 155.2783698
346.3388681 477.4103165 155.5336714
346.6594517 484.7572148 154.8279822
346.6612995 495.0356185 183.5277677
346.7374146 468.0708945 155.6794792
347.0910192 504.9808025 180.2374721
347.1381664 497.2782433 182.4613363
347.1632302 496.4435399 180.6110442
347.3771811 470.6698656 152.2028893
347.8021622 483.8160574 152.8874636
347.8697240 506.0602427 177.9282242
347.9990363 462.4405503 152.3129046
348.0780721 496.1479604 170.4751253
348.3089805 499.2609918 178.5472333
348.9406407 500.7182360 176.6389608
349.6423364 485.7782125 153.6788344
349.6839404 488.1177247 156.1415642
349.7098386 500.0061989 174.8071611
349.7591615 502.6657581 174.1865128
349.8342335 495.9355593 167.6219702
349.8933315 504.8753023 173.2027382
350.3423333 497.6105690 171.0730344
350.6152630 500.9785891 172.9645282
350.6243825 484.0197563 151.6471505
351.2496054 503.4275055 170.0641066
351.4425755 490.3134406 157.9091996
351.6008854 498.0292022 169.0503806
351.9888818 500.8208752 169.0002531
352.2113860 495.1244295 164.0266329
352.5290787 494.1111803 162.3556167
352.5889516 487.4815941 154.4707716
353.4201086 492.2808111 159.4389975
353.6337018 498.4913170 164.7513062
354.4818461 502.9971600 161.4429057
354.7534347 504.6380162 160.3532881
355.1768363 497.9509413 160.8477980
355.5161953 491.1631942 156.5674841
355.7532728 497.5031018 159.1225564
356.6862047 498.2651472 156.4967483
357.1514785 501.9612908 154.0810466
357.2562039 489.2998636 153.0748904
357.6502204 498.7497330 154.0058255
357.7305675 503.5865307 151.9719213
358.3582342 499.7262955 151.8228948
359.0924740 493.7980473 151.9937366
342.2268927 537.1654034 180.4206073
342.3753083 543.1184173 177.9163778
342.8156674 517.8197026 186.1869246
343.2171345 528.4966826 181.4817935
343.2763815 507.0428252 188.9984757
343.7326252 532.1940184 179.0680438
343.7468410 512.3647451 186.0076040
343.8362181 522.4207044 182.2680980
344.0402150 528.7496448 179.6098500
344.2223668 516.0370469 183.6230755
344.2525864 519.0947652 182.4906915
344.4769084 533.4621072 177.0284176
344.5735276 530.7495594 177.7503192
344.9895084 539.8881435 173.7093925
345.1216519 519.0862417 180.4801077
345.4145491 531.0184956 175.8013964
345.4382122 541.5564179 172.1827835
345.5192149 550.1971245 169.0158248
345.7145095 511.7781758 181.4980954
345.8153903 516.5902376 179.6743870
345.9227681 526.2826085 176.2331128
346.1450338 545.3410149 169.3953574
346.3516533 508.2392693 181.0759604
346.4230895 521.0398436 176.7792404
346.5311229 550.5596995 166.8045223
346.5917706 547.0860004 167.8618044
347.2295105 531.5518379 171.5493798
347.6657569 539.9482846 167.8891182
347.8446305 529.1344523 170.9022075
348.0574489 510.1640821 176.2190759
348.0786383 531.9423079 169.4900692
348.2962251 549.3478775 163.4827554
348.4309912 542.1995521 165.4781997
348.5586345 540.1475430 165.8378392
348.9449620 538.1791592 165.5806452
348.9912748 546.5571284 162.8670692
349.0526080 530.0173163 167.8309888
349.0629792 518.4888840 171.2549627
349.0889668 535.9836817 165.9302115
349.1559923 533.7220430 166.4681882
349.2020071 548.8646030 161.6785973
349.6576846 543.9110398 162.2102410
349.7606218 538.1470323 163.7335271
349.9283493 529.0994644 166.0652459
349.9880135 531.2914848 165.2750969
350.0949144 518.6823010 168.7035114
350.1191437 507.3252320 171.9651222
350.2443135 550.0195026 159.0299308
350.9014845 508.9064240 169.5933789
351.0703444 524.6055722 164.6411568
351.1361480 545.0285673 158.5319340
351.2588441 541.9396162 159.1600776
351.2899876 528.1057954 163.1179005
351.3653278 512.4496818 167.4310714
351.8813252 529.6770334 161.2485796
351.9130647 547.9697585 155.8999270
351.9276083 525.4377127 162.3201072
351.9609869 539.2941833 158.2943350
352.1283269 522.7874517 162.5623107
352.1924019 545.8352566 155.8780223
352.4224460 532.4800014 159.1451019
352.4724245 508.4101558 165.8371687
352.5513709 510.7049942 164.9613082
352.7118564 513.4337544 163.7603194
352.8461158 540.7699347 155.7655931
352.9279530 544.3493724 154.5524448
353.0544341 527.1354318 159.0518653
353.1683087 534.2731476 156.8147987
353.3640504 523.0845213 159.3436748
353.4001112 518.2005167 160.5970860
353.4142077 550.6647825 151.6455263
353.6040485 520.4171538 159.4443917
353.7366688 531.1878920 156.2322527
353.9720178 544.3107486 152.1167457
354.0002406 539.5590067 153.3503681
354.0550768 513.8641596 160.0200981
354.0964127 521.4052796 157.8593999
354.1989923 535.7822180 153.8045108
354.3309271 515.6633258 158.6831659
354.3727994 508.8155866 160.3954881
354.3938696 532.4460864 154.2072445
354.3941677 527.4963975 155.4905772
354.5727432 525.4610181 155.6126475
354.5881212 541.3721204 151.3191760
354.5937836 511.8218660 158.9704603
354.6016216 522.9923725 156.1185420
354.9938500 516.3117647 156.5510631
355.0430238 528.5754204 153.5099596
355.1572263 534.0303779 151.8765539
355.3526700 523.0633020 154.1307867
355.5206060 525.2563953 153.1549692
355.7381630 527.7181864 151.9315094
355.7794094 515.4617429 154.6141803
355.8819294 518.3817148 153.7290365
356.3162088 509.8119378 154.4996798
356.3460708 522.5413442 151.4382511
356.5146625 513.0524039 153.1591266
356.6283286 518.1640387 151.6928375
357.2556376 513.3142471 151.0473192
357.5099111 508.9895129 151.1890888
357.7446640 507.0346594 150.9359181
342.2067165 565.3030872 169.8276699
342.4259424 556.1498404 172.8966385
342.7364826 593.5609341 158.6449593
342.9100811 578.5149336 163.7051105
342.9889083 590.6394720 159.2781693
343.3079422 557.9859614 170.5410779
343.3135152 565.6999946 167.6829159
343.5050547 588.4956121 159.2189223
343.8564837 567.9495335 165.8807695
343.8598514 594.3373442 156.7067355
343.9383507 556.0874343 170.0424254
344.2544639 586.4815712 158.7208062
344.3628550 577.7137280 161.5447849
344.3845809 560.5916977 167.5498039
344.5487022 575.0787854 162.1260047
344.8483348 568.8505173 163.7511402
344.9306786 592.4615860 155.6815207
345.0306654 556.5030575 167.7635014
345.0962007 572.6745725 161.9713306
345.2025652 564.4833446 164.6064669
345.4683423 575.3034949 160.4238153
345.5505669 569.9237585 162.0793790
345.7532525 596.4329839 153.0960500
345.8171487 589.2857909 155.2811116
346.1641073 557.8439236 165.0500596
346.1892903 564.5189881 162.7056450
346.3301957 582.8321576 156.4602703
346.7167616 578.4278512 157.1652889
346.7812836 566.2895441 160.9669775
346.8720615 570.4539418 159.4213992
347.1027613 559.9664450 162.4504030
347.2558558 575.4065514 157.1142375
347.7969170 587.8220201 152.4084657
348.0176330 563.6060834 159.4117284
348.0239511 573.0505586 156.3987732
348.0748236 576.9021511 155.1541090
348.4038413 551.9076586 162.4260545
348.4114707 585.7521892 151.9478559
348.7976789 580.7995796 152.6675671
349.0082920 573.6155510 154.3807387
349.0143716 570.6575513 155.2057117
349.2325544 584.3026638 150.9252191
349.2518365 567.9924488 155.5632353
349.5534658 552.9730320 159.6155316
349.7643769 578.0726671 151.6946852
350.9130180 569.2465305 151.9422382
350.9984612 554.3175936 156.0774893
351.0427773 562.0172620 153.6454558
351.4992595 565.6654239 151.7553478
351.8090546 556.7042828 153.5948962
352.7844548 558.5474968 150.9196758
353.1754613 555.4769039 150.9743184
353.5268903 552.4740815 150.8906931
342.3920870 613.7994528 152.3478925
342.9516852 597.4106193 157.0160538
343.3841169 604.6707034 153.9634913
343.6164558 608.7160707 152.3321867
344.8722363 605.5987477 151.5419632
