# Geomagic Studio
# New Model
324.9766827 -566.4144754 94.3287313
324.9786496 -575.3573179 90.6019211
325.1140714 -562.2183084 95.7307667
325.2457976 -557.9743385 97.0384404
325.4231811 -560.3379011 95.9879458
325.4361749 -567.9281950 93.0503830
325.6348968 -545.0515151 100.6502807
325.9234130 -531.8042040 103.9172113
325.9449601 -570.7805753 91.0137221
325.9784281 -563.2265210 94.1116214
326.0519207 -573.1575489 89.7425637
326.1420429 -538.5171175 101.9709557
326.1541128 -555.7200909 96.6404006
326.2303770 -536.1838341 102.5002599
326.2941241 -548.6181974 98.8350138
326.3595402 -543.1752205 100.4271060
326.4219463 -552.3014069 97.4624529
326.4977336 -533.8820219 102.8490141
326.6099989 -575.0489235 87.7363458
326.7095089 -541.1161184 100.6468609
326.7196119 -565.0014281 92.2199041
326.7404735 -568.6869025 90.5755833
326.7529011 -558.6097836 94.7391763
326.8119991 -546.3584065 98.9269987
327.3223639 -569.7088838 89.0084207
327.5420070 -549.9087572 96.7746377
327.5841773 -538.3005142 100.4853845
327.6400864 -556.2215447 94.2884088
327.7150095 -563.0005598 91.3551748
327.8417289 -552.2916913 95.4900756
327.9579282 -565.3504729 89.8561925
327.9900253 -573.6466050 85.6260210
328.1700909 -534.2891216 100.9490043
328.1982839 -560.5838299 91.5406346
328.2727003 -531.8193436 101.4978513
328.2763362 -541.2130356 98.7168998
328.3485770 -570.4516768 86.5578204
328.6238909 -554.1957021 93.4760123
328.6508918 -548.3338237 95.7086384
328.7421167 -567.5800443 87.1984586
328.8203180 -546.0966229 96.2617397
329.0039897 -551.9086123 93.7499553
329.0046155 -536.5951657 99.1958231
329.0762901 -558.8006377 90.7068402
329.1561604 -555.6654930 91.9154808
329.1994035 -549.5779514 94.3457559
329.2246759 -562.5134706 88.6843279
329.2933702 -538.6142731 98.1544033
329.5068443 -532.1784616 99.8553336
330.1425874 -545.5185771 94.3168923
330.1594853 -561.4629984 87.2437358
330.3424120 -556.3030839 89.3042684
330.3678632 -533.9654684 98.0796069
330.4202557 -551.6840219 91.2334919
330.4418921 -549.8162508 92.0023099
330.5902779 -563.9798641 85.0337446
330.6204081 -553.3827543 90.0747851
330.7266235 -535.8806252 96.8800336
330.9099376 -543.8943505 93.5765132
331.1920166 -541.4530635 94.0291956
331.2863708 -537.0849371 95.5324098
331.3691020 -539.1466618 94.6064368
331.4662278 -547.0219851 91.1707729
331.7607343 -550.5920649 88.9392421
331.7950070 -571.2570548 78.2397389
331.9914043 -552.7287126 87.4523297
332.1331441 -541.6979790 92.1238884
332.2584927 -534.6482992 94.7179049
332.3101103 -554.5656681 85.8573690
332.5101137 -573.2929111 75.4102543
332.5425982 -537.4155641 93.0881351
332.6012194 -539.1821861 92.2366157
332.8448534 -571.1734891 75.7678375
332.9468369 -542.5180197 90.0388882
333.0409527 -544.8179841 88.7901410
333.3188593 -535.4004502 92.3471600
333.4277868 -554.6934009 83.2091197
333.5672617 -532.6097608 92.9858834
333.6060345 -574.6814609 71.9978064
334.4003260 -532.6725245 91.1451578
334.4598413 -543.9634919 85.9546661
334.7702324 -546.2896228 84.1532424
334.9958658 -570.3662634 71.1945742
335.1313472 -565.7950044 73.3387172
335.6398940 -550.5170822 79.9871013
336.4164829 -568.0861473 69.4170743
336.5954161 -572.0036626 66.8509528
336.8187845 -543.9442992 80.4021135
336.9122446 -573.7966299 65.1490167
337.2283876 -564.6784306 69.2574680
338.0734026 -560.7134104 69.4089532
338.7550116 -537.6408696 78.7139460
339.0989900 -557.1316481 68.9336509
339.2330110 -567.3999786 63.7150183
339.5731747 -562.7313256 65.3907284
339.8084641 -538.6162996 75.7283121
339.9050832 -534.5633626 77.2348344
340.3697014 -565.6242967 62.2645430
341.3567245 -546.8561053 68.6607733
326.3656497 -528.0452371 104.4428572
326.9953132 -522.5262642 105.1979661
327.0612359 -530.2212238 103.2379419
327.6971877 -525.0524879 103.9650291
328.1968236 -528.1788111 102.5911123
328.6090791 -522.1659541 103.7864760
328.7554681 -519.8350549 104.2148098
329.1797340 -516.1054730 104.7260910
329.3966353 -525.0926018 102.0544022
329.6560645 -517.8671479 103.7819088
329.7820985 -528.1018019 100.6495133
329.8021257 -510.4831457 105.4767594
330.2277029 -521.2965012 102.0782515
330.4687440 -519.3468332 102.3469865
330.9039772 -530.1014185 98.4721929
331.0108483 -515.2620673 102.8670520
331.0263157 -526.5722871 99.3355066
331.1168253 -512.3206377 103.5602093
331.3756585 -508.1204176 104.3635011
331.5893412 -520.9020376 100.0443175
331.9852650 -513.5629177 101.8332839
332.0671916 -517.3122287 100.5550474
332.2252631 -529.2804837 96.6458619
332.3521316 -509.4408393 102.6760414
332.5016499 -527.0953774 96.9065949
332.5788677 -505.9580207 103.4638137
333.0200613 -522.3620534 97.3602906
333.0743909 -498.9492893 104.7652438
333.3852291 -516.8182254 98.4322727
333.4306479 -523.9087343 96.3321179
333.4839344 -502.2455454 103.2652259
333.5729241 -494.6490824 105.2486673
333.5981071 -508.3299279 100.9683907
333.7480128 -529.0077925 93.9583927
333.8040113 -506.0764551 101.4364213
333.9286149 -513.0466223 98.7127572
334.1069520 -520.7898021 95.9003493
334.1726661 -515.0502324 97.6526812
334.1949582 -524.5882273 94.6047157
334.1967762 -503.2561421 101.6915739
334.3681395 -496.5821207 103.5423353
334.3697786 -490.6672537 105.3262427
334.6635401 -509.1264248 98.8078937
334.7488046 -518.8509226 95.4254419
334.9678814 -493.4775233 103.4697145
334.9884450 -504.5131445 99.8495147
335.0447714 -522.8658319 93.5206488
335.1846933 -501.6351938 100.4765332
335.2171183 -516.4957643 95.3511596
335.2689147 -520.9667087 93.7237516
335.3890479 -513.4311318 96.0453227
335.7011378 -510.8585358 96.3481292
335.7215524 -494.3072200 101.8986106
335.7672393 -490.8926785 103.0237675
335.7721269 -508.4533095 97.0740467
335.8632624 -526.8007517 90.3340206
335.9942436 -518.6485648 93.1650847
336.0640407 -499.2195666 99.6722728
336.2818956 -501.9163489 98.3438343
336.2874687 -487.6289964 103.2444388
336.5017176 -495.4725206 100.1121923
336.8410468 -489.2230332 101.6546264
336.8890285 -505.3446889 95.9940031
337.0887637 -502.9115677 96.4299738
337.3354673 -519.2770958 90.1971161
337.3986483 -496.4454770 98.0973020
337.5078440 -494.3063855 98.6423865
337.8598988 -485.3382707 101.0839939
338.0762637 -489.6155596 99.2031991
338.1657302 -523.7572789 86.3662586
338.2081389 -525.4969597 85.5043679
338.2710814 -496.6908991 96.2908715
338.2792771 -510.1948977 91.5948674
338.4665549 -487.5853658 99.1502255
338.4754658 -491.3141727 97.8237018
338.7069404 -507.0489049 91.6104019
338.9421105 -494.0029979 95.8987549
339.1939998 -524.9010324 83.4073573
339.2012417 -489.0339077 97.1959159
339.3872678 -509.1129541 89.5233229
339.5124376 -485.4588807 97.8452414
339.5749032 -520.4164386 84.5062211
339.9308324 -490.0817573 95.3078717
340.1264250 -512.7562284 86.5638554
340.4894769 -519.7127461 82.6433450
340.5613303 -517.8156495 83.3287686
340.8837616 -498.7054765 89.8628086
341.1185145 -529.6958089 76.5677094
341.1245346 -494.4413900 90.9978747
341.2811458 -526.0613561 77.7729303
341.5237069 -485.4658544 93.5971141
336.2627625 -483.6524427 104.4842899
336.7687464 -478.5335958 105.2052751
337.5181556 -474.9271870 105.1173657
338.1350935 -477.0787954 103.2802835
338.1533921 -479.4613421 102.4963111
338.7409151 -472.4545777 103.7281454
338.9239013 -466.5496349 105.1499173
339.0395939 -481.2642634 100.2380773
339.2292559 -475.9793878 101.6206741
339.3407464 -467.9788351 103.9632931
339.4094706 -473.5073149 102.0951048
339.5426869 -482.9602838 98.6742526
339.5673037 -478.8997769 100.0214666
339.8513794 -460.7311785 105.2866131
340.0876224 -465.4609859 103.3561975
340.2673304 -468.0655599 102.2135541
340.3274119 -475.8894145 99.5346531
340.3569162 -470.8535373 101.1508778
340.4094279 -480.9936583 97.6175815
340.4982388 -477.8617024 98.5265151
340.9428000 -468.9996839 100.6280854
340.9846425 -458.5537910 103.8872376
341.0942256 -474.0133286 98.6394733
341.1448896 -464.0824199 101.7947793
341.1843479 -465.9960866 101.1122912
341.4400518 -451.6347349 105.1241755
341.4649665 -475.8699834 97.2433761
341.6451514 -461.3830149 101.6752720
341.6989148 -455.5406570 103.4507006
341.7875767 -471.0724354 98.2304290
341.8245614 -469.2203999 98.7981632
306.4516783 775.5972147 103.2795832
308.0864549 773.9673257 105.3942144
308.4428906 776.5551209 91.9212997
312.0566308 771.7591524 103.4864485
312.6827776 776.0691643 77.5808841
312.8153086 776.6679525 71.6917217
313.5289550 775.8790255 74.3066669
314.6032989 776.4009833 62.6233742
314.7205710 770.1876760 102.3892015
314.7590756 775.8046985 69.0325946
315.1568770 775.8401632 64.9144053
316.0848320 773.1982470 82.0867568
317.2064722 768.6066031 101.5564874
317.2980845 774.8367786 61.9492196
317.3579872 774.3681073 67.0169443
317.5446093 772.9096413 78.0472085
317.8588450 774.2486000 64.8679957
319.2634284 769.5933580 90.7765031
319.2953467 773.5885382 60.7354902
319.4161952 767.1363354 100.9824425
319.5182383 773.3711004 62.8474131
319.9112713 768.6983347 93.0057317
319.9223280 771.7171311 75.4528642
320.2007413 772.5713849 67.5963163
320.2473223 771.2176442 77.5250271
320.6297755 768.9085007 89.3296078
320.8455741 772.4055648 64.4984543
320.8577633 769.5732713 84.8563015
321.6233552 772.1151114 61.7894828
322.1838474 771.0705400 69.2417175
322.5508332 768.3332562 85.1410404
322.6197958 771.3828087 63.3956194
322.6853311 763.4272575 104.7970578
322.6912618 764.4282579 101.6901284
323.2425153 770.7586288 65.5830652
323.4250844 765.4119134 96.1661860
323.6054778 770.9310651 60.6792867
324.1414428 770.0068355 67.0972019
324.1487443 768.6816454 76.6288787
324.4184554 764.3305659 97.4362344
324.6814907 768.7752247 73.6094862
324.9696791 769.9037194 62.3195358
325.0309229 762.3742819 102.3506001
325.9737790 768.9765692 64.8370385
326.6608119 760.2953911 104.5041606
327.6861310 767.7202225 65.8986345
327.7248740 760.6006861 101.0752767
327.8393149 767.7894235 63.6296496
329.1884065 762.3789310 90.0543928
329.2419314 761.7977858 92.4555957
329.4042647 759.3694925 100.5184054
329.5359015 766.2941217 66.7199269
329.7422230 766.6618824 61.7536679
330.6696713 765.7300234 64.4839406
330.7236135 765.1875615 68.4307069
330.8874369 756.2094331 105.4559126
331.3150108 765.0227547 66.5768683
331.3376606 765.4024363 62.5628456
331.8688869 762.2734904 80.4875419
331.9175839 763.1561160 75.5289048
331.9482207 763.6242509 72.7340952
332.3880732 764.3812299 64.9951920
332.6651454 760.8133554 84.6469253
332.7949941 763.5174990 68.8060895
332.8675926 757.4174404 97.4728763
332.9921067 755.2706003 103.0519307
333.2524002 762.3546720 73.9708915
333.4022164 755.8836341 100.4678234
333.6007595 763.6318207 62.5304058
334.0246975 758.6081028 89.2991126
334.0957761 759.9567771 82.9921886
334.2564106 756.8328977 95.4257995
334.9021673 761.7767453 68.4805661
335.3522718 759.9083781 77.1308914
335.4043663 760.5853677 73.5338926
335.4209661 761.0747814 70.1614320
335.4561627 759.3587041 79.8451006
335.6243670 752.4412870 103.9794832
335.6324136 761.6867423 64.8398325
335.9626830 761.6661787 61.9765371
336.3011777 757.8468919 83.8086531
336.4224434 755.1724315 94.4227427
336.9598985 760.2225542 66.3419142
336.9637728 757.7453852 81.0998082
336.9872868 756.2417388 88.3342847
337.1673524 757.9149604 79.1075453
337.2435570 759.2096329 71.6161579
337.4484777 759.5132589 68.2067275
337.6204967 749.9418855 105.2275896
337.9204273 750.5941987 103.1423137
338.0752206 751.3123751 101.0207906
338.0857110 759.5498562 63.5536462
338.1782472 753.1735301 95.5771953
338.1909430 757.8175068 74.5053515
338.2833898 759.6440911 60.4286045
338.5956883 752.1954775 97.2815901
338.7683332 756.4470768 79.1624114
338.9848471 757.5876713 71.6714710
339.0814662 754.5422316 87.1490389
339.1005695 757.8943372 68.7187761
339.2252624 756.5692067 76.1670694
339.5372331 758.3619952 61.9150028
339.7149444 749.0682602 102.5311276
339.9766982 747.4241853 105.4399684
340.0300741 751.5310645 95.0167626
340.0658071 749.4586110 100.7686779
340.1167393 757.4696541 64.8874044
340.3539658 756.0979128 72.3917931
340.3574526 755.7473779 74.4937733
340.4208720 756.4892173 69.5169643
340.5019343 757.6178908 60.4180023
340.5415416 753.4556985 86.0825107
340.6936228 751.4735460 93.1882411
340.8208191 753.6349297 84.0803459
340.8538401 754.3932199 79.6690509
340.9647942 751.9220114 90.6342044
341.3527310 755.8101416 67.4757734
341.5186703 749.0178943 98.0922207
341.7763412 751.8605590 87.8669322
341.9117630 752.9058456 82.2163969
341.9367373 755.7626963 63.2793233
341.9456184 755.4141879 65.6959787
296.7839241 784.8836184 79.9666494
297.1845269 785.5352163 68.7731653
297.2889543 781.1389565 103.9898470
297.9835570 785.1858735 64.0050024
298.6600101 784.1327786 61.7196225
299.2000878 783.1075191 83.7464631
299.5138466 780.0957561 102.7307734
299.9947369 780.8396220 97.3065719
301.6326129 782.9900384 62.3898506
301.8846810 783.1968069 67.0710951
301.9801378 779.8780203 96.0535184
302.3482561 778.1023383 103.8598120
302.8163016 782.8017473 65.2727634
303.5283685 782.4395299 63.5119379
303.7108183 782.0979357 68.7284395
303.9408624 781.0608745 78.7651539
305.0196469 781.6433311 64.8775846
305.1288426 781.1171412 72.2024739
306.5817058 779.7430754 76.4731020
307.0465028 780.3188562 68.1293011
307.1523309 780.0921202 70.6755370
309.8719716 778.9473534 64.9515316
309.9313676 778.6338925 61.2549596
311.1473918 777.5226831 72.6547688
311.6919398 778.0694962 63.0241334
312.1104538 777.4029374 68.4936568
312.5374913 777.4320245 64.7549406
312.9510880 777.2166729 61.2129644
313.2199645 776.8939734 66.5741265
297.3895967 -589.8603797 109.3019545
299.0200222 -582.0754170 110.5838865
299.7757196 -576.9162178 111.6534919
299.9057174 -579.3019533 110.8013019
302.2606075 -588.0247355 106.5580323
302.8709292 -578.8816214 108.7990701
304.5691550 -584.5963955 106.0295701
296.4452803 -543.9820290 125.0295788
296.6711223 -561.2336993 119.4988340
296.7233658 -531.7943692 128.2945573
296.9283164 -552.2829294 122.1752614
297.1626818 -536.8429422 126.6663671
297.7256775 -566.1211610 116.9749573
297.9113758 -539.2077565 125.3961772
298.1137633 -553.4565449 120.9068596
298.1664538 -530.3344131 127.7836114
298.2079089 -533.7735415 126.8014759
298.5776067 -550.8410931 121.3734001
298.8613844 -541.0003066 124.1323799
298.9244759 -554.8853278 119.7870299
299.5735109 -548.2919812 121.3964969
299.6920347 -532.1520567 126.1533946
299.7176945 -556.3068986 118.6547205
299.9149859 -537.6245975 124.3345365
300.1454473 -535.2755189 124.8595268
300.5623519 -545.7413793 121.4056164
301.5078604 -537.8055573 123.0538785
301.5905023 -542.8309441 121.4829609
301.6265333 -548.5336781 119.5932105
301.9154668 -531.3842893 124.6055588
302.0670712 -559.8060489 115.3932214
302.2749424 -546.2567210 119.7715849
303.4666777 -561.0928535 113.7602776
304.1840494 -566.4557815 111.5146503
304.2747974 -532.6298475 122.2596318
304.6020269 -562.4630451 112.3955622
304.9184084 -537.0981693 120.3960925
305.4459095 -573.0983615 108.6489260
306.5865636 -543.9594388 116.5325865
307.1705401 -538.4687185 117.7945063
307.4048758 -550.6459475 113.6558726
308.0030084 -541.8842435 115.8571839
308.6284995 -538.7415290 116.2616685
308.9220226 -534.7928405 117.2752082
309.2903793 -564.9524331 108.1819236
310.3184700 -544.8673368 112.8258258
311.6085529 -563.1745458 107.0290431
314.1284585 -553.4415245 107.6831669
315.2075112 -539.7733450 110.2355719
315.9427941 -552.1686673 106.7035422
316.2841499 -536.6925597 110.1722270
317.0564473 -539.1323566 109.0143248
320.4845786 -537.2275710 106.9371626
322.0884204 -533.9869857 106.4779833
297.7011800 -527.7755260 128.7144125
298.0342805 -501.4874935 132.8562498
298.2975841 -520.1088786 130.0915778
298.4421551 -487.3040915 134.7592771
298.8200486 -506.9938898 131.9842935
298.8535464 -524.8648524 128.7393868
298.9587784 -513.0134225 131.1026067
299.1540134 -497.3520339 133.2471669
299.4017601 -517.5601840 130.1416606
299.4085252 -499.9162853 132.8175515
299.5846570 -495.0709939 133.4604621
299.6834517 -510.3449821 131.3263327
299.7203469 -514.7646070 130.5604875
299.8045683 -522.9718089 128.6144555
299.9636531 -527.6905298 127.2304058
300.1815081 -492.9146767 133.6398870
300.2802134 -490.5434549 133.9177638
300.4184663 -488.3860350 134.2054456
300.6332815 -504.4004321 132.0176870
300.8270264 -519.2311406 128.9090365
301.1901379 -525.7555246 126.8517822
301.5785217 -496.1437285 132.9609454
301.7189801 -522.0542550 127.4913102
301.8405437 -512.3044848 130.0440431
301.9164801 -516.6313648 128.8548559
302.0299077 -508.2609653 130.8701187
302.5254607 -490.1029170 133.5895061
302.6193380 -503.3088326 131.6265166
302.6540875 -487.8842831 133.8629723
302.7408719 -509.8751187 130.0858706
302.9898405 -514.8161054 128.5676807
303.3427596 -522.9139924 125.9734482
303.4782410 -492.8036928 133.0647320
303.6027551 -506.5086484 130.3856820
303.7385941 -527.7770162 124.1639107
303.7967980 -500.0214577 131.7752302
303.8797975 -512.6129389 128.5185665
304.0672839 -497.1780777 132.2160810
304.2635620 -529.4838548 123.2072562
304.6893775 -502.9953718 130.5606365
304.7434390 -489.9488688 133.2123131
304.7447503 -519.8469162 125.7096678
304.8857152 -486.9554639 133.5830241
304.8859835 -523.3903527 124.5125458
305.0146103 -504.9633980 129.7786236
305.1081896 -526.2488723 123.4444082
305.1725626 -494.5971966 132.2712749
305.4328561 -511.5235448 127.6149303
305.4357171 -509.6082687 128.1421632
305.5552244 -491.7572141 132.6670945
305.7375848 -517.1616673 125.6642491
306.0742319 -514.1111016 126.3038218
306.1321378 -500.3658533 130.2202344
306.2506616 -496.6732860 131.1472207
306.7868352 -502.4311543 129.1071326
306.7922294 -522.8650570 122.9752228
307.3198497 -505.2127242 127.8274208
307.3232174 -520.8309293 123.1119856
307.4732423 -507.6801777 126.9383281
307.4869215 -509.9866986 126.2507439
307.5008690 -518.5037255 123.6586198
307.7090681 -490.5034900 131.7151040
307.7280223 -487.9742563 132.3034763
307.7739775 -499.6200800 129.1017681
307.9529405 -494.4556355 130.4029822
308.1807792 -514.0917301 124.3771687
308.3337843 -511.8997693 124.9085069
308.5013628 -526.8031359 120.2116683
308.8779151 -502.2960901 127.3068041
309.1039956 -496.2939620 128.8424879
309.2815280 -488.9701605 130.8360845
309.4331920 -493.3143854 129.4191629
309.4776571 -509.4557405 124.5739236
309.6014261 -507.2123408 125.1345724
309.9060655 -491.2538230 129.6197623
310.0509942 -511.1818910 123.4620586
310.1533651 -499.0108013 127.0995736
310.2952838 -485.6229722 130.9219003
310.3877902 -513.6135817 122.3644912
310.4380965 -494.8220551 128.0595511
310.6145263 -501.1012554 126.0315180
310.9176457 -488.7132645 129.4622123
311.3026321 -496.6359138 126.7139316
311.3056123 -502.5601387 124.9296367
311.4398420 -505.7757497 123.8043979
311.7358088 -524.4707465 117.6824421
311.8931949 -491.0325408 127.8279424
311.9351268 -512.5986934 121.1094037
311.9778931 -487.0766997 128.9289445
312.0564520 -530.1828384 115.5646965
312.5655949 -500.6151795 124.2486387
312.9342198 -494.9439764 125.6294698
312.9809499 -504.1668415 122.7283776
313.1420612 -496.9110489 124.8199940
313.5221004 -502.0872355 122.8057072
313.5293126 -524.8143673 115.7095283
313.9665425 -487.6774251 126.7894357
314.4573569 -514.1229033 118.0226356
315.0402308 -494.3429232 123.6002967
315.2691424 -489.7245169 124.8025298
315.5225515 -491.8032587 123.8608286
315.7424629 -512.3986602 117.1639711
315.9505725 -507.7065825 118.3908582
316.0277009 -519.4747448 114.7944182
316.7143464 -488.2889688 123.6688346
316.8067038 -493.8267171 121.7713952
316.9396520 -491.8196797 122.2589687
318.0390894 -507.0127845 116.3196266
318.5654283 -517.3151493 113.0724326
318.8476264 -526.9851685 110.5270609
320.3310370 -503.7662387 114.9304137
320.8632767 -499.4827509 115.5287474
321.0040033 -525.9161592 109.1412082
321.3028312 -493.7576950 116.6023016
322.8219151 -507.1793795 111.9705513
322.9941726 -527.2200108 107.3282212
323.0916560 -503.7570596 112.5220135
323.5726953 -499.2176890 113.1697148
323.9947855 -522.2461224 107.6816842
324.3641555 -529.0609598 105.8476269
324.4485259 -504.8893690 111.1855283
324.5794475 -515.9128904 108.6557582
324.6213198 -500.8402467 111.9431704
324.6258199 -511.8252635 109.5263213
324.8978853 -524.8719454 106.3765064
325.8121610 -513.2506490 108.2736552
325.8606791 -509.8129511 109.0036780
326.0696828 -486.4862561 113.9336973
326.1071742 -491.4436936 112.8156334
326.2049854 -501.2972951 110.5745211
327.1707296 -503.0690432 109.4209924
327.7763128 -500.2386570 109.5499471
327.7870417 -517.6975131 105.6343839
327.8120458 -497.9809821 110.0030467
328.0985355 -514.9251223 106.0048565
328.4123838 -512.1060610 106.3766629
328.5653293 -495.2347279 109.9742725
329.0881217 -504.8559904 107.4430272
329.3155432 -500.5927682 108.1910655
329.3974996 -502.8001070 107.6293960
329.6097219 -507.8271627 106.2839106
329.8085034 -496.8842268 108.5905507
330.8794796 -491.0703003 108.9175791
330.9486806 -504.8109293 105.7247147
330.9504688 -494.0849841 108.1875339
330.9646249 -500.0854731 106.8156809
331.6692114 -501.7948747 105.6946963
331.6730857 -496.9019890 106.8495438
332.3028386 -487.3135686 108.4312350
332.6588273 -492.4934506 106.8863422
332.8593969 -489.8338616 107.3126867
333.7515891 -485.5487347 107.3428318
334.7082436 -487.5051677 105.6953296
297.5563407 -483.1158221 135.5785131
297.6246178 -441.7219162 142.3791349
298.3888984 -476.1580229 136.4156753
298.4443009 -485.2316976 135.0670904
298.4636426 -464.7200704 138.1827146
298.5295057 -455.5392563 139.7349536
298.7501621 -462.8179669 138.4283006
298.8898158 -443.7144399 141.6397095
299.9154031 -466.7438269 137.5167817
300.4959822 -480.3116918 135.3392005
300.6286025 -445.7398057 140.8335716
301.0964096 -443.6431825 141.0581023
301.1573851 -441.3327873 141.4621174
301.2254834 -449.8091638 140.0180012
301.2588918 -470.5404043 136.5909576
301.2835681 -476.5294194 135.7319653
301.3325036 -452.6043832 139.5110339
301.5845716 -483.1252098 134.7139180
303.1016886 -461.7174566 137.6151294
303.3925295 -481.1453521 134.6270889
303.8803935 -485.1700366 133.9921802
304.1684628 -474.4060040 135.4276240
304.2210340 -463.3419514 137.0872706
304.6214879 -448.5507905 139.3703371
304.6344519 -470.1161087 135.9402239
304.6628237 -440.5702949 140.7517791
304.9454987 -459.2951834 137.6045197
305.6795895 -455.0143182 138.1113529
306.3193858 -457.6328695 137.5698447
306.4887822 -452.0700574 138.3830309
306.6597581 -465.4785693 136.2319291
307.3582947 -449.9908388 138.5239512
307.4921072 -475.0778079 134.6488744
307.5716197 -477.8205156 134.2946887
307.5850606 -485.0198030 133.0372095
307.7524006 -472.6215005 134.9184364
308.1027269 -481.8018377 133.4217936
308.3647192 -455.7836056 137.4229491
309.1770709 -479.0166616 133.4744245
309.2170656 -445.4251826 138.8506591
309.2448711 -483.5883975 132.3811710
309.3076050 -459.9877000 136.5316957
309.4141483 -465.0650024 135.7763708
309.4622791 -452.5639713 137.7052516
309.5766306 -470.3851342 134.8760724
310.3640676 -473.2842743 134.0418756
311.0036552 -480.6272984 131.7257285
311.0961318 -468.5545564 134.6687078
311.1436069 -462.4314308 135.7766241
311.6671443 -453.0267417 137.1238828
311.8866980 -457.9609632 136.2853944
311.9862378 -482.6757312 130.2239448
312.0001853 -442.1078563 138.7517899
312.0154440 -471.5771079 133.4347427
312.1170402 -474.3907452 132.5934827
312.1437728 -466.1201835 134.6674263
312.8807545 -444.4656074 138.2481456
312.9811585 -463.1572366 134.8465681
313.1835163 -479.1897535 130.0963312
313.1971061 -456.0806751 136.2102330
313.3770525 -483.6601913 128.5702884
313.3891821 -459.8603249 135.3997290
313.4401441 -473.0606079 131.7786723
313.5600686 -469.6521461 132.6063126
313.7118220 -475.9035110 130.5681914
313.8371706 -465.8710659 133.4994137
313.9871955 -450.1279294 137.0294988
313.9926195 -441.2582815 138.4103000
314.3285811 -453.3106983 136.2739652
314.3466115 -485.2194786 127.1338314
314.4877851 -445.8191395 137.7333850
314.7793114 -461.1911178 133.9333355
315.0169849 -466.8036699 132.1098357
315.1700795 -471.8282521 130.4337382
315.2117729 -464.6995366 132.5359792
315.3750002 -458.2288265 134.2706382
315.4552281 -468.9582586 131.0243756
315.5545592 -455.2333951 135.0312084
315.5654371 -475.9984016 128.6822855
315.8592582 -450.5308867 136.0420585
316.3293600 -483.9368165 125.4371107
316.4223433 -442.6661730 137.4924928
316.4334297 -479.4467092 126.7079860
316.4506853 -470.3266919 129.5776218
316.6064918 -447.3825395 136.2149566
316.6426122 -445.0511336 136.7923468
316.9064224 -462.1008337 131.6362619
316.9641197 -460.0383043 132.1866512
316.9662356 -453.1182647 134.3005896
317.3727095 -464.7267461 130.4228008
317.5310194 -474.8621881 126.9409955
317.5952733 -466.6264057 129.6144277
317.7284300 -440.2406216 137.1990740
317.7322447 -472.5631177 127.5051087
317.8870976 -457.5003684 132.0386231
318.2424605 -455.2903473 132.3308349
318.2440400 -447.3636746 134.8125935
318.2643652 -443.0395365 136.0424161
318.3194697 -479.5736670 124.5603561
318.3277547 -469.6090817 127.8439760
318.3980882 -450.2970576 133.7099522
318.4243739 -477.0836830 125.2176315
318.4274733 -462.1953666 130.0875694
318.9845085 -463.9540017 128.9596856
319.3805516 -473.4196365 125.3182143
319.6003437 -444.5382059 134.3104690
319.7454512 -453.7896514 131.1858594
319.7662830 -470.5164135 125.9213686
319.8542297 -461.6248012 128.6808997
319.9633956 -450.5696595 131.9821775
319.9766874 -441.7592287 134.8014772
320.4760551 -468.2371020 125.8351207
320.5012977 -456.4023018 129.5813471
320.8969533 -458.5930407 128.4059733
321.0358024 -447.9517043 131.6697001
321.1236596 -443.4205592 133.0218613
321.2034106 -465.5422270 125.8223206
321.4532137 -481.9345772 119.9925244
321.6524124 -454.1510344 128.9011091
321.9216466 -451.3416886 129.5435131
321.9217360 -469.9419141 123.4129742
322.1551180 -476.3567746 120.8751276
322.3019838 -444.5207417 131.3251555
322.3097324 -455.6111395 127.6516467
322.4667013 -459.1715634 126.2705028
322.9662776 -479.4802368 118.9187616
323.1398463 -452.8251290 127.4885386
323.4527111 -474.4469821 119.8915094
323.5450685 -449.4119585 128.1882077
323.5717714 -443.6665475 130.0759166
324.2580891 -468.0424333 120.8868995
324.3558705 -447.4281967 127.7709752
324.7701526 -451.2493014 125.8800626
324.8130977 -444.5286691 128.1607449
325.4874647 -474.8984277 117.2841266
325.8007169 -463.8123214 120.1869771
326.3819218 -477.7539372 115.6106964
326.6014755 -443.1614578 126.0577440
326.9429505 -457.5110972 120.5830052
327.4538219 -455.3227425 120.5255091
327.5930882 -449.5935738 122.1788153
327.7404010 -460.9712958 118.5672060
328.0370831 -443.7825978 123.6146465
328.0905187 -479.9303412 113.5760993
328.5286129 -450.1738548 120.5808371
328.6104500 -483.0664396 112.4895141
328.6561072 -441.3479865 123.5335767
328.7778497 -474.4331837 114.1348183
328.9593756 -446.2444186 121.1740822
329.4576108 -442.2248602 121.8605489
330.0746381 -451.7018199 118.2838008
330.7376206 -454.3191195 116.9130355
330.8421671 -448.5352337 118.2100326
331.0231268 -441.8075085 119.6496785
331.2692642 -469.3854749 113.0446047
331.6378593 -475.0056267 111.5915254
332.1061134 -483.4441245 109.4473973
332.1867883 -465.3674662 113.0743995
332.2194815 -452.3309767 115.8732623
332.3093951 -458.9696229 114.2995358
332.4846923 -471.8616903 111.4998758
332.5005472 -456.5544128 114.6471128
333.2908452 -474.3092954 110.2729514
333.4850669 -446.3846385 115.9728616
333.6242139 -483.6954772 107.9234332
333.7398469 -443.5966611 116.3504347
333.9003921 -481.1982810 108.2072854
334.0302706 -467.6438570 110.9629646
334.1004252 -470.4594314 110.3245318
334.7969353 -450.3862262 113.7946025
334.8043263 -477.7010977 108.0413610
334.9852860 -474.3148386 108.6179987
335.0835443 -459.8686099 111.5781739
335.0982666 -465.1438594 110.4796007
335.2042139 -456.5846622 112.1306792
335.2784216 -482.5025201 106.2979624
335.7632160 -454.0533721 112.1196374
335.8567953 -479.9729884 106.1892956
335.8715177 -470.8444774 108.4441990
336.0384107 -475.6438732 107.1099415
336.2111151 -462.8491402 109.8539308
336.3032639 -473.1960893 107.3985994
336.5915418 -447.2536743 112.7200499
336.6986215 -457.2510421 110.5391383
336.7985785 -444.8769689 113.0051315
337.2076154 -461.0256553 109.1750488
337.2160792 -471.5697169 106.5701470
337.2396529 -455.3720951 110.3731617
337.4566138 -467.6191211 107.2210297
337.7050459 -465.1663005 107.5015515
338.0433619 -452.5772035 110.1231724
338.2174671 -458.8047564 108.4393188
338.2451534 -462.7077579 107.3758528
338.2674456 -444.6181953 111.5598381
338.8746679 -460.5394304 107.0022061
338.9030397 -456.0441673 108.1309691
339.4992352 -450.0354826 108.8129953
339.6073580 -442.9483414 110.4142964
339.9601281 -445.2587962 109.3479991
340.0219977 -451.4852464 107.6174527
340.7184482 -442.8357482 108.8142544
340.9690261 -448.6778378 106.7585349
340.9895599 -445.2102482 107.6983884
341.9178724 -440.6083226 107.3606983
296.3875830 -430.9085906 143.6919272
296.6681123 -413.9654636 138.6037916
296.7757583 -432.8319430 144.1383362
296.9361246 -436.1075163 143.6000466
297.0851660 -425.3431559 141.8659687
297.1106768 -402.6072323 143.8121945
297.2862720 -418.4123874 139.6367103
297.8145778 -411.2344682 139.4501328
297.9097962 -415.5842960 138.9326006
298.0687022 -407.3182344 140.9781277
298.0896831 -420.8879173 140.9163177
298.6671329 -428.3372462 143.5078830
298.8449931 -438.5728538 142.6257491
298.8516688 -397.2887397 145.8551288
299.2350161 -430.5289090 143.9017355
299.3019223 -436.3494217 142.9309547
299.3079126 -425.5668521 142.8740323
299.4113564 -413.3723974 139.1659677
299.5207310 -415.6965315 140.1959062
299.5309234 -409.1179669 139.7501379
299.5584011 -434.2710674 143.2470083
300.0391722 -403.6792815 141.9786215
300.1155257 -418.5873866 141.1181241
300.1170158 -406.7291021 140.4876262
300.1535833 -399.7511566 143.9671665
300.4951775 -421.3732481 142.2915757
300.8275926 -428.6798835 143.8637078
300.9894192 -401.7082751 142.5901949
301.0114729 -397.7127075 144.6581930
301.0942936 -413.0803645 140.4640079
301.3447523 -423.4652817 143.1438923
301.5570045 -410.0020826 139.0752345
301.6642630 -433.5807860 142.8170055
302.2118211 -415.5910909 141.3291395
302.3567200 -425.3721833 143.7215507
302.3777604 -405.6104124 140.2862221
302.4194837 -431.4726293 143.0450827
302.5808036 -411.6655290 141.0003752
302.6295304 -418.7168181 142.4962729
302.6566803 -403.1448364 141.2398368
302.7396798 -437.6178682 141.7301595
302.7783036 -421.6011167 143.2920545
303.0261695 -435.2794290 142.1053559
303.3185005 -408.3212912 139.7390515
303.3224046 -396.5097666 144.3161070
303.4383059 -398.6783624 143.1552470
303.7529588 -400.9556770 141.8889910
304.1042387 -428.8544953 143.1175172
304.1310608 -409.9275768 141.5117383
304.1409552 -414.8965180 142.1637684
304.5963645 -424.5420396 143.8240558
304.6463430 -406.0195684 140.1799768
304.6686947 -438.6135936 141.0815120
304.8147857 -419.5704162 143.5931623
304.9432635 -412.5937819 142.0625597
305.3540885 -427.2142947 143.1294531
305.4116964 -397.2476125 143.2865113
305.5558205 -416.8334007 143.3320343
305.5969179 -402.3905694 140.8452094
305.7521880 -432.7206016 141.9029981
305.7538867 -399.5612264 142.1733052
305.8583140 -435.5097413 141.3321197
305.8715463 -395.1371908 144.1867948
306.0587049 -422.1689105 143.9404935
306.5076768 -429.1189611 142.4389035
306.9394231 -410.6115401 142.6907480
306.9410026 -418.5913503 144.0062970
307.1373105 -404.3114781 142.0727521
307.5500131 -412.6082659 143.5488164
307.6506555 -407.4761271 142.9501474
307.7147901 -401.1721611 141.6912675
307.7373803 -425.3618419 142.9571211
307.8074157 -436.8545413 140.6455636
307.9592884 -439.6489263 140.1585490
308.0520332 -398.0657160 142.7921504
308.1433475 -395.5466151 143.5499042
308.2145154 -415.6658947 144.1989392
308.3276451 -420.3267395 143.9435631
308.7087274 -404.8404992 143.4369534
309.1611266 -422.8279889 143.1586891
309.1715872 -433.6614907 140.8974528
309.2141747 -410.1350904 144.0607905
309.5141053 -406.7069888 143.8355595
309.5919788 -430.8517277 141.3279474
309.8598421 -428.7411273 141.6814774
310.0617528 -418.0339277 144.0707743
310.0638092 -437.8913641 139.9478763
310.1910055 -440.0055707 139.5336688
310.2706075 -399.7886181 143.9069808
310.2929294 -396.3579834 143.3142126
310.4043305 -435.9444082 140.2155757
310.6558919 -408.6869359 144.7300762
310.8696938 -415.5388772 144.3085968
311.1187518 -404.5881927 144.8596716
311.5499616 -424.4297147 142.1735138
311.7083311 -419.7955132 143.1531757
311.8337393 -395.6777155 144.6902305
312.0468855 -401.5801549 145.4202831
312.0649755 -432.8426123 140.3883249
312.2796118 -398.2742727 145.3094184
312.2985363 -407.3808789 145.3964263
312.3433590 -427.7901649 141.2993222
312.8985763 -416.2405431 143.6178386
312.9936755 -403.7978053 145.9243298
313.0478263 -409.6571803 145.0307369
313.2137954 -434.8484874 139.7230178
313.2532239 -422.8998423 142.0585662
313.5135174 -405.6749046 145.7895637
313.7520850 -396.2221742 146.5758979
314.1604662 -436.6133213 139.1621530
314.2062426 -430.1206172 140.4302865
314.2874241 -411.5971923 144.2524344
314.5130277 -427.6930690 140.8268511
314.7463202 -420.0109541 142.2602832
314.8884475 -397.8559375 147.1326649
315.1789308 -425.4073501 141.1364973
315.3844774 -414.1380191 143.3315575
315.3911531 -401.9388855 146.4458704
315.4233396 -433.5972667 139.3893659
315.5615628 -395.2624798 147.6357281
315.5822158 -407.5345397 144.9429393
315.8238530 -416.7383313 142.6626444
315.8443868 -422.6498008 141.4963305
315.9460425 -404.8310518 145.6181705
316.0370290 -439.3198490 138.2205784
316.8360591 -436.6883337 138.4259313
316.9578910 -431.0633540 139.4947618
317.3261583 -396.6618180 147.5156099
317.6290989 -399.2191851 146.7021108
317.7304268 -402.5476873 145.7180083
317.8028762 -411.7214680 143.2001293
317.8748786 -420.1484323 141.4954662
318.0041909 -434.4571829 138.3949816
318.1287646 -416.4811075 142.0649737
318.3334470 -423.7649143 140.7714784
318.4287250 -414.0892327 142.4632818
318.4522688 -407.1907699 144.1604942
318.7188804 -426.6228676 140.0105059
318.8112080 -430.0807118 139.0192509
318.9695776 -404.8339128 144.6669102
319.0984726 -395.1131701 147.4806666
319.3940818 -437.5850260 136.6394162
319.6575344 -418.3725715 141.3461715
319.7687566 -409.8855257 143.0621445
320.1088011 -432.1864247 137.6854777
320.2801049 -397.1360326 146.4947760
320.3093410 -421.8314588 140.4885054
320.6603825 -402.0119905 144.9457705
320.6749558 -438.9124215 134.9643171
320.8063841 -424.6292114 139.3673122
320.8123147 -415.0437713 141.4834559
320.8525777 -398.9406824 145.7778960
320.9494948 -427.3605943 138.5068744
320.9505677 -403.8898945 144.3057060
321.2755322 -412.6711488 141.8511719
321.3450611 -436.2120330 135.1509541
321.5521574 -429.6000600 137.1454000
321.6662705 -407.5539708 143.0340409
321.9357729 -419.2545116 140.1011348
321.9374418 -417.3415005 140.4576749
322.1218586 -439.0964210 133.3611012
322.3141432 -425.0352979 137.8343254
322.4049211 -422.2345054 138.6818290
322.4298358 -410.7894599 141.8133378
322.7207363 -426.6448617 136.8430853
322.8430450 -429.8165441 135.6102824
322.9194582 -437.2970462 133.0749691
323.0344653 -405.0742388 143.1452185
323.1371939 -396.0392177 145.8593309
323.1834769 -398.6461759 145.0174451
323.2028484 -401.5913308 144.1367716
323.4367669 -412.8558338 140.6356990
323.6309588 -420.1334417 138.0628943
323.6543834 -424.1569042 136.5996748
323.8034248 -428.1334281 135.0778639
323.8395452 -440.0483370 130.9847236
323.8597810 -434.1259599 132.9944730
323.8774538 -408.5563719 141.5821612
324.1130114 -416.5675044 138.7820691
324.2422938 -403.4205079 142.9737657
324.4489133 -436.9199574 131.3329041
324.6449530 -430.3869903 133.3217919
324.8901069 -411.3135636 139.7385150
325.0424266 -414.5591259 138.4477317
325.0916600 -423.6833751 135.0522786
325.1153827 -417.6612794 137.1746510
325.1859248 -419.5228219 136.4135146
325.2312839 -425.8986115 134.1179311
325.3401220 -399.0853429 143.5297877
325.3635764 -395.3191936 144.8189169
325.4647851 -405.8837593 141.0233974
325.5854845 -434.0888858 130.8551580
325.6294131 -438.8406873 129.0720105
325.7711828 -401.8044472 142.1321332
325.8127272 -427.4655879 132.8600943
325.8273900 -408.5582495 139.6022439
326.4209628 -403.1374753 140.9088671
326.4547586 -418.3469117 135.2344751
326.4703453 -415.9104228 136.1394376
326.4788687 -410.6917381 137.9712224
326.5703022 -412.5338495 137.1880323
326.5846074 -436.9863570 128.3920407
326.6329467 -431.0672283 130.4848939
326.7855942 -421.2968647 133.7476522
326.8669546 -428.4441471 131.0717016
326.9394636 -400.3985226 141.3050443
326.9734681 -406.7696929 138.7777030
327.0262182 -434.4994426 128.6900789
327.0550072 -397.5306451 142.2474086
327.2598982 -424.5825708 131.9400668
327.3837864 -395.6193328 142.5050795
327.3951411 -408.9129269 137.3889297
327.4242282 -404.3826163 139.1202062
327.5261819 -401.7036557 140.0482953
327.5578618 -418.8834131 133.5808039
327.6340663 -416.1804318 134.5121115
327.8299272 -430.7285845 128.8787127
327.9195130 -436.3805652 126.5580952
328.0040324 -398.9410698 140.4187530
328.0742466 -422.4929512 131.4643621
328.1295300 -432.6150119 127.6943684
328.1959593 -428.1201363 129.3058842
328.5957277 -412.3043418 134.5017552
328.8013339 -406.0710073 136.5671903
328.8440108 -423.9713252 129.8245192
328.9003670 -402.7087688 137.7200931
329.0249705 -419.3150699 131.2446892
329.0285170 -395.4603076 140.3557956
329.2300999 -408.0251753 135.1753473
329.3503523 -415.4443443 132.3019117
329.4045627 -428.6517799 127.1644235
329.4164538 -417.3061252 131.4238906
329.4468224 -399.4594216 138.1147206
329.4667304 -397.2270787 138.9901638
329.6190500 -424.7733653 128.2769293
329.7237754 -410.1324379 133.6767524
329.7264278 -413.4784937 132.4089020
329.9686313 -404.0316641 135.5635524
330.1968575 -439.5638704 121.5896085
330.2251399 -419.1980958 129.3713748
330.2414715 -426.4294207 126.5371740
330.5017352 -401.9355476 135.5555505
330.6900561 -405.7609737 133.7940395
330.7240903 -395.4899609 137.7270073
330.7492435 -429.7931492 124.3405491
330.8051527 -423.3417809 126.8547326
330.8436275 -413.2934213 130.7440996
330.9538960 -399.1554976 135.9021962
330.9744298 -416.3087904 129.2991936
330.9804499 -407.8912437 132.5363666
331.1670125 -419.3824530 127.7096570
331.1980963 -397.0949948 136.3416165
331.4257562 -437.3260736 120.3720346
331.5557837 -409.6063972 130.9512258
331.6106498 -426.3058007 124.0486801
331.7080140 -433.1339002 121.2875396
331.8236172 -399.7270465 134.2173666
331.9553435 -414.7657156 128.1916797
332.0260048 -411.0894203 129.5250058
332.1349919 -417.5943732 126.6487539
332.2177529 -430.6044877 121.3379130
332.2885633 -420.8061099 125.1867265
332.3342502 -427.0799458 122.4802732
332.3388398 -434.8911643 119.7782233
332.5350881 -438.9078319 118.6657920
332.5792849 -407.6581895 129.9340427
332.7533007 -428.6279976 121.2363020
332.8546584 -415.3226316 126.1717379
332.9445124 -396.0590065 133.7969154
332.9631388 -399.2966115 132.4725151
333.0233097 -424.1299331 122.4296540
333.0868483 -412.1362865 127.0961761
333.6943984 -401.7231762 130.1761121
333.7014914 -429.7021031 119.5380688
333.8142037 -399.8244405 130.7482719
333.8429332 -425.3176749 120.6011474
334.0417445 -413.7966335 124.3709326
334.1818750 -416.8747962 122.7817610
334.5205486 -396.7280388 130.6231469
334.5482349 -433.8390231 117.6790521
334.6423805 -419.6412861 120.9713370
334.7405195 -414.3225849 122.7188334
334.7976208 -404.3045938 126.8052310
334.8774314 -400.0036418 128.5314709
335.1810873 -411.5854502 122.9217052
335.1996541 -416.6032672 121.0245118
335.2903426 -407.0488513 124.6984303
335.7110620 -395.6203759 128.5509020
335.8195424 -401.9900262 125.6527752
335.8285427 -420.5834270 119.0644577
336.2280130 -423.5384762 118.0268973
336.3517821 -436.2326562 115.2751222
336.4163339 -399.0213275 125.5831867
336.5673721 -406.1187208 122.3791391
336.7138207 -415.6656265 118.9692765
336.9751871 -403.2429457 122.5688234
337.1028006 -432.4133396 115.2881756
337.1470273 -400.1249075 123.4380081
337.6610875 -410.6717706 118.9730912
337.7517462 -426.0123968 115.8986837
337.7586305 -417.3277617 117.5233796
337.9938304 -419.7482467 116.8358549
338.1014764 -403.5059512 120.2863380
338.1801248 -438.9657378 112.8293350
338.8494253 -434.7093105 113.0071878
338.8814926 -408.6863697 118.0622429
339.3131495 -424.8655438 114.4833639
339.3279910 -400.1651704 119.2778125
339.3465877 -418.3804393 115.6270504
339.8419321 -397.6046443 119.2791238
340.2253985 -428.9164543 112.6886383
340.2782083 -435.8392954 111.1949086
340.5134678 -422.9495227 113.5564595
340.6624198 -438.1370842 110.1531237
340.7442570 -414.7910774 114.7642285
341.0835564 -426.5102744 112.1880263
341.2893713 -411.6019309 114.7177443
341.6571915 -429.9073219 110.6325835
341.7229056 -397.7741599 116.9700474
341.8166935 -423.6093760 111.7683351
298.1181145 -394.4788873 147.6616859
298.5298932 -390.6665146 149.5071501
299.8642325 -391.6420043 148.3861804
300.6432652 -393.4649229 147.0734775
301.8056452 -394.6133256 145.9440142
302.2432625 -389.0779316 148.6609280
302.9130995 -392.7027285 146.4670449
303.4487367 -386.1086965 149.6561766
304.0080369 -390.2649283 147.2625136
304.9166799 -392.7807212 145.6469148
305.7644069 -386.9597912 148.1634378
305.8830798 -383.6634457 149.8056650
306.1789870 -389.1522884 146.9125599
307.5724244 -391.8935061 145.1533735
307.8287244 -384.8264813 148.4170258
308.6721003 -386.2661719 147.3700404
308.9072108 -389.6782696 145.6821412
309.1749251 -381.4077377 149.6411264
309.9063039 -393.1506872 144.3353742
310.3617132 -384.8069906 147.5103647
310.7115626 -386.5425289 146.6394216
311.2140894 -379.7903955 149.7545391
311.6094768 -381.6739619 148.6897022
312.0435178 -391.3210928 144.9799538
312.9395843 -386.2287402 146.5800405
313.3037090 -383.7988377 147.2293884
313.3902252 -389.6352947 146.3266164
313.4033084 -393.6791420 146.2819278
314.2241538 -387.8320456 147.5080252
314.7811890 -382.5128078 148.7857103
315.0628805 -390.9733593 147.9480863
315.4073358 -386.4566088 149.0470767
317.4559474 -383.9616179 150.5746692
317.5192475 -393.8545585 148.1332183
318.6018765 -389.6757960 149.1779536
318.9130723 -386.8638575 149.8923302
319.4114268 -384.8773837 150.4494697
320.2358782 -391.3151324 148.3455896
320.4791248 -388.0975246 149.1926312
321.7510581 -389.4999623 148.4431475
321.9560385 -385.5286539 149.6479064
322.0815063 -394.0889835 146.8762010
322.9323030 -391.1472559 147.4921703
323.6246705 -388.4950876 147.9806304
323.7044215 -382.9806447 149.7968733
323.9210248 -393.0641115 146.4292407
324.3941069 -380.6999028 150.2703726
324.6476054 -384.8828971 148.7063468
325.5844116 -391.8806911 145.7390189
325.6844580 -378.4825802 150.3219008
326.1432946 -386.4389360 147.1920460
326.1700571 -389.1797364 146.2258250
326.5618086 -382.4496865 148.2709944
326.6752064 -379.9607158 149.0834057
326.7802894 -394.3124712 143.7579095
327.0106912 -376.9303560 149.8969495
327.1275759 -390.2308643 144.8780596
327.2016943 -387.4984086 145.7978040
327.4942040 -384.7516179 146.4535147
327.7555704 -391.5521801 143.6401606
328.1297088 -380.6689680 147.3567486
328.2599151 -388.7875378 144.0282762
328.4784257 -394.1708207 141.6331828
328.6113441 -375.8466840 148.5909075
328.7093043 -381.9586635 146.0871398
328.7607729 -386.0245645 144.4145441
328.8401663 -390.0929689 142.7619904
329.0126920 -370.5275655 150.1875669
329.2174339 -383.6100996 144.7627395
329.5659423 -373.0342984 148.4408379
329.5716345 -379.4912994 145.8905488
329.8944235 -387.3209953 142.2976851
329.9996555 -377.0607114 146.2253481
330.1942050 -374.8867214 146.8129307
330.3135931 -393.5592771 139.1542256
330.4403722 -381.0687959 143.9963728
330.6255043 -366.3352132 149.6847123
330.6538761 -383.0678165 142.8804547
331.0596347 -371.5042770 146.8783319
331.1480284 -376.5751123 144.7236240
331.4663470 -367.5760329 147.8937119
331.5366805 -388.1102502 139.4639313
331.6422999 -390.5839324 138.2131279
331.6458762 -380.3529143 142.3798352
331.8347633 -378.4636557 142.8371370
332.0474327 -392.5701380 136.7526352
332.1194947 -360.3567481 149.8802155
332.2013617 -382.4576735 140.5764818
332.2347701 -364.5865619 147.8789151
332.2429955 -369.6130812 145.8401978
332.2730958 -372.9436696 144.3665475
332.4120343 -361.9380891 148.7093419
332.4448764 -394.1474259 135.4280412
332.4908912 -385.2004707 138.9760524
332.5213492 -388.0533576 137.7404928
332.7986896 -357.8323126 149.9048024
332.8946233 -375.8829236 142.1492547
332.9537511 -377.6346743 141.3216293
333.2827687 -386.0799670 137.1772289
333.3088756 -369.5735335 144.0486610
333.5446715 -363.1623387 146.2856382
333.6272240 -354.8791707 149.7929841
333.6569965 -392.1551704 134.0774745
333.7115943 -380.7876110 138.6674196
333.7908089 -358.2793772 147.9713917
333.8482678 -373.9851117 141.2518620
333.8535726 -393.8084543 133.0833882
333.8708580 -388.5172307 135.2030486
333.9141905 -371.0705340 142.3292905
333.9309096 -376.4728010 140.0917470
334.0947628 -382.6223016 137.2100115
334.3486488 -359.9296808 146.2574899
334.4102800 -356.3282490 147.6882100
334.5484138 -369.0574765 142.0225352
334.6730173 -390.1620507 132.9091042
334.8658085 -350.4015803 149.4809538
334.9811435 -376.3130605 138.1810606
335.0654542 -370.9759116 140.2223259
335.0889981 -386.9659901 133.5388422
335.3441954 -361.9900346 143.5075253
335.3695571 -381.6401958 135.1339370
335.3914022 -390.6973898 131.2623620
335.3961110 -356.4619124 145.7576156
335.4559243 -353.4221947 147.0599622
335.5125487 -379.3887794 135.8384192
335.5428576 -392.6665187 130.1784962
335.6327415 -351.1587977 147.6738304
335.6779814 -368.7179089 139.9867088
335.8399868 -363.5169268 141.8094039
336.2238109 -376.0539293 135.7422918
336.3028765 -365.2505875 140.1313692
336.3398612 -357.9377234 143.2316005
336.5297318 -350.9347737 145.9466070
336.7085159 -381.4244568 132.4715465
336.7590904 -367.2869503 138.3493245
336.7927074 -359.3613803 141.7171508
336.7938101 -378.1470358 133.6435229
337.0238245 -394.0261602 126.3215393
337.0744884 -355.5864692 142.7609026
337.2581899 -363.8571203 138.7548596
337.5397921 -391.5511966 126.0578781
337.5657201 -375.1468360 133.1329495
337.5911415 -356.9463193 141.0353184
337.6596570 -350.8109748 143.5239166
337.8856182 -385.7788742 127.8446317
337.9034996 -358.7791324 139.5361573
338.2826149 -367.5189614 134.7517669
338.3589983 -364.3322885 136.0510886
338.4373486 -392.2742605 123.6657947
338.4918272 -356.3053012 139.2420083
338.6474848 -362.0372713 136.2784952
338.6895061 -352.2456288 140.5629367
338.8175070 -386.8651986 125.0104904
338.9499485 -350.2139449 140.8507824
339.1409814 -381.4649880 126.4512688
339.1945362 -364.1360402 134.0099871
339.4025862 -394.5644498 120.8504662
339.4237757 -353.5692692 138.1464601
339.5347595 -390.2037740 122.0001206
339.5426571 -351.1976898 138.8931870
339.8768902 -354.8873365 136.3259256
339.9301469 -353.1073332 119.7553128
340.1776850 -364.9505675 131.1185360
340.1787877 -352.2660136 136.7473155
340.2031064 -361.5867496 132.4913055
340.2366340 -380.5167079 123.9591911
340.4054940 -394.6573734 119.2098036
340.4205143 -350.5524099 118.6546385
340.4947817 -350.8392870 121.7869893
340.5867815 -356.5251827 133.7120086
340.7811224 -373.1579781 125.7074922
340.8165574 -390.2045786 119.6239665
340.8170938 -352.9779315 134.5757246
340.8308327 -359.9992394 131.4131618
340.8585787 -367.1688437 128.2685548
340.8890069 -355.4266393 118.0249751
341.0005271 -365.1595116 128.7765503
341.0200179 -354.4261456 133.3808899
341.0256505 -374.6131957 124.3671104
341.0387039 -376.6530156 123.4894842
341.3113058 -369.7582185 125.8403510
341.3276672 -381.2826574 121.2964877
341.5246010 -360.2587879 129.4478327
341.5344954 -362.9566133 128.2610744
341.5765464 -367.0920134 126.2771785
341.6802287 -356.8010926 130.5221021
341.7387903 -352.2409499 132.2754920
341.7469263 -364.8615777 126.7504096
342.0172334 -368.1597412 124.6047541
335.1641893 -348.1336236 149.9562860
335.7395828 -306.1386347 146.6769874
335.9973729 -313.2027984 142.7986175
336.0322118 -307.1135879 143.6139792
336.0337913 -346.7999101 148.7910300
336.0812068 -311.4077747 141.8018192
336.3198638 -310.2140725 145.0585425
336.3814950 -348.3062983 147.4020034
336.3988698 -317.4403310 138.1181777
336.4041746 -314.0223324 139.2988563
336.4399672 -321.3241398 137.3423636
336.5150988 -308.4568679 140.7991052
336.5772665 -310.9241724 139.5617872
336.5859091 -321.9486475 135.5710775
336.5974724 -308.7028861 146.2744772
336.6868794 -316.1561489 142.1802193
