4.649 7.204 8.84
4.649 7.931001 9.077
4.65 4.939 8.880001
4.65 7.265 8.87
4.65 4.737 8.87
4.65 5.03 8.858
4.65 3.034 7.755
4.65 7.244 8.859
4.65 4.557 8.767
4.651 4.726 8.859
4.651 8.409 1.955
4.651 7.342 8.906
4.651 4.65 8.796
4.651 4.673 8.81
4.652 2.255 1.886
4.652 7.645 8.931001
4.652 4.464 8.752
4.652 7.719 8.983
4.652 7.684 8.948
4.652 8.827 9.248001
4.653 7.075 8.813
4.653 9.411001 1.984
4.654 11.815 4.944
4.654 2.172 1.843
4.654 5.324 2.67
4.654 7.053 2.302
4.654 9.008001 1.945
4.655 4.77 8.878
4.655 7.05 8.815
4.655 11.778 4.364
4.655 6.207 8.994
4.655 7.771 9.068999
4.655 4.665 8.801
4.655 7.737 9.017
4.655 10.116 2.21
4.655 7.42 8.914
4.655 10.229 2.261
4.656 6.257 2.544
4.656 11.485 3.525
4.656 7.538 8.897
4.656 5.739 2.637
4.656 4.704 2.644
4.656 8.123 9.356
4.656 4.685 8.817
4.656 7.58 8.912
4.656 6.051 8.983
4.657 7.441 8.909
4.657 7.581 2.133
4.657 7.836 9.081
4.657 8.019 9.219
4.658 4.748 8.866
4.658 10.754 8.346001
4.658 4.395 8.73
4.658 4.715 8.843
4.659 6.321 2.53
4.659 4.803 8.875
4.659 10.176 8.803
4.659 2.793 6.229
4.659 7.397 8.917
4.659 8.03 9.239
4.66 8.141 1.995
4.66 5.884 2.619
4.66 7.255 8.867
4.66 10.583 2.458
4.661 7.124 8.815
4.661 7.665 8.94
4.661 7.616 8.925
4.661 2.134 6.063
4.662 8.012 9.203
4.662 7.764 9.064
4.662 8.003 9.184
4.662 3.935 2.533
4.662 8.135 9.361
4.662 9.876001 2.116
4.662 7.301 8.890999
4.662 4.73 8.852
4.662 11.772 5.65
4.662 7.355 8.911
4.663 11.525 6.946
4.663 4.959 2.669
4.663 7.805 9.087
4.663 6.706 2.423
4.664 4.636 2.647
4.664 10.335 2.316
4.664 4.7 8.824
4.664 7.195 8.838
4.664 4.576 8.758
4.664 4.785 8.868
4.665 2.996 2.247
4.665 7.758 9.057
4.665 11.787 5.481
4.665 4.609 8.766
4.665 6.453 2.502
4.666 7.168 8.827
4.666 8.060001 9.284
4.666 5.586 2.661
4.666 10.412 8.646999
4.666 7.557 8.907001
4.666 4.548 2.641
4.666 7.869 9.074
4.666 4.889 8.865
4.666 5.449 8.848
4.666 3.099 8.171001
4.667 11.577 3.75
4.667 8.088999 2.007
4.667 9.524999 2.016
4.667 3.044 7.886
4.667 2.386 1.97
4.667 7.941999 9.09
4.667 7.731 9.006
4.667 7.994 9.162
4.667 7.456 8.905
4.667 2.81 2.178
4.667 11.814 4.752
4.668 4.814 2.658
4.668 7.999 2.029
4.668 4.674 8.798
4.668 5.402 2.674
4.668 8.096 9.329
4.668 11.458 7.127
4.668 6.777 2.401
4.669 4.514 8.743
4.669 5.024 2.677
4.669 7.752 9.049
4.669 4.769 8.858
4.669 4.685 8.808
4.67 7.374 8.915
4.67 7.064 8.811
4.67 5.192 2.681
4.67 7.787 9.083
4.67 2.949 6.359
4.67 3.547 8.579
4.67 7.281 8.883
4.67 3.029 6.593
4.67 7.956999 9.104
4.67 11.374 7.334
4.671 11.418 3.422
4.671 4.641 8.774
4.671 4.726 8.839
4.671 10.437 2.372
4.671 4.839 8.86
4.672 3.275 8.449
4.672 9.419 9.094
4.672 5.291 8.828
4.672 9.224 9.147
4.672 3.848 2.517
4.672 7.222 8.851
4.672 7.59 8.92
4.672 7.264 8.874
4.672 5.062 8.826001
4.673 8.446001 1.962
4.673 7.04 8.814001
4.673 7.244 8.863
4.673 8.037 9.246
4.673 4.714 8.828
4.673 3.046 7.827001
4.673 4.801 8.855
4.674 4.44 2.636
4.674 2.134 1.835
4.674 3.047 7.618
4.674 5.1 2.684
4.674 4.746 8.841
4.674 9.672 2.057
4.675 8.114001 9.344
4.675 4.438 8.72
4.676 11.796 5.286
4.676 8.078001 9.305
4.676 7.473 8.902
4.676 4.696 8.812
4.676 7.712 8.977001
4.676 7.624 8.931001
4.676 6.014 2.608
4.676 6.528 2.487
4.677 3.7 8.6
4.677 7.645 8.937
4.677 5.763 8.917
4.677 8.304 1.978
4.677 11.513 3.601
4.677 7.723 8.994
4.678 9.341 1.981
4.678 9.691 9.008
4.678 7.746 9.039
4.678 7.841 9.086
4.678 3.052 7.489
4.678 4.68 8.796
4.678 7.144 8.82
4.679 8.052 9.269
4.679 7.902 9.076
4.679 4.551 8.739
4.679 7.926 9.082
4.679 6.96 2.346
4.68 7.802 2.091
4.68 7.183 8.833
4.68 4.666 8.783001
4.68 6.167 2.581
4.68 7.879 2.07
4.68 11.216 7.666999
4.68 8.201 1.996
4.681 11.058 7.941
4.681 7.409 8.919001
4.681 7.991 9.15
4.681 7.696 8.963
4.681 8.148 9.362
4.681 7.433 8.915
4.681 3.067 7.02
4.681 11.706 6.123
4.681 11.452 3.49
4.681 4.354 8.695
4.682 7.565 8.914
4.682 4.725 8.823
4.682 5.487 2.679
4.682 7.325 8.905
4.682 6.983 8.827
4.682 10.885 2.745
4.683 8.025 9.222
4.683 3.066 7.964
4.683 4.87 2.675
4.683 4.713 8.817
4.684 4.297 2.625
4.684 4.774 8.836
4.684 8.368 1.973
4.684 4.705 8.811
4.684 4.693 8.801
4.684 6.925 8.843
4.685 5.141 8.815
4.685 7.053 8.81
4.685 7.545 8.909
4.685 7.6 8.926
4.685 4.588 8.739999
4.686 3.061 7.345
4.686 7.255 8.871
4.686 11.782 4.468
4.686 7.092 8.81
4.686 7.494 8.902
4.686 6.361 2.538
4.687 7.676 8.951
4.687 6.598 2.472
4.687 3.059 7.91
4.687 7.515 8.902
4.687 2.738 6.16
4.688 7.98 9.131
4.688 10.779 2.64
4.688 7.385 8.919001
4.689 4.772 2.673
4.689 7.53 8.905
4.689 7.762 9.067
4.689 7.357 8.914
4.69 7.738 9.026
4.69 4.804 8.833
4.691 9.272001 1.978
4.691 8.628001 9.293
4.691 8.045 9.254
4.691 4.267 8.666
4.691 4.747 8.819
4.692 7.331 2.224
4.692 8.006 9.178001
4.692 8.017 9.202001
4.692 8.481 1.97
4.692 3.37 2.401
4.692 4.687 8.787001
4.692 7.383 2.206
4.693 7.657 8.944
4.693 7.196 8.839
4.693 7.257 2.252
4.693 7.658 2.133
4.693 8.049 2.029
4.693 6.726 8.898
4.693 8.604 1.965
4.693 8.817 1.961
4.693 7.971 9.118
4.694 6.666 2.454
4.694 8.123999 9.348
4.694 8.195 9.367
4.694 2.996 6.393
4.694 8.703 1.963
4.694 7.61 8.93
4.694 3.06 6.631
4.694 4.11 8.637
4.694 11.676 6.275
4.694 7.169 8.828
4.695 2.329 6.051
4.695 5.087 8.806
4.695 4.626 8.743
4.695 7.291 8.890999
4.695 11.134 7.804
4.695 4.725 8.808
4.695 7.941999 9.096
4.695 5.385 2.695
4.696 8.105 9.331
4.696 5.666 8.884
4.696 3.209 8.337
4.696 11.631 6.515
4.696 7.267 8.879
4.697 2.172 1.872
4.697 8.254 1.996
4.697 4.7 8.793
4.697 6.123 8.972
4.697 7.026 8.813
4.697 7.246 8.868
4.697 7.121 8.814001
4.697 7.773 9.081
4.698 2.134 6.027
4.698 8.087 9.311
4.698 6.753 2.426
4.698 9.189 1.974
4.698 4.65 8.754
4.698 7.824 9.096
4.698 5.58 8.859
4.698 11.547 3.7
4.699 7.067 8.807001
4.699 6.838 8.865
4.699 6.358 8.967
4.699 4.411 8.688
4.699 4.542 8.714001
4.699 6.452 8.957
4.699 6.281 2.566
4.699 7.729 9.009
4.7 4.711 8.797
4.7 8.923001 1.964
4.7 4.466 8.699
4.7 7.575 8.922
4.7 2.26 1.924
4.701 4.928 2.694
4.701 3.073 6.774
4.701 2.551 2.082
4.701 3.6 2.476
4.701 10.638 2.521
4.701 7.621 8.935
4.701 7.046 2.33
4.702 9.803001 8.958001
4.702 7.753 9.057
4.702 8.069 9.285999
4.702 9.021 9.185
4.702 7.431 2.196
4.702 7.423 8.92
4.703 10.504 8.555
4.703 6.539 8.94
4.703 4.825 8.818
4.703 8.039 9.239
4.703 9.422 2.009
4.703 4.773 8.813
4.703 2.878 6.218
4.703 4.569 8.715
4.704 5.825 2.657
4.705 3.867 8.593
4.705 7.477 8.908
4.705 7.45 8.913
4.705 7.397 8.922
4.705 9.979 2.176
4.706 5.469 8.827
4.706 7.718 8.992
4.706 9.105 1.972
4.706 4.847 2.69
4.706 4.675 8.763
4.706 11.721 5.937
4.706 6.774 8.881
4.706 6.219 2.585
4.706 2.939 6.274
4.706 3.094 8.016
4.706 7.863 9.085
4.706 7.207 8.846
4.707 8.149999 2.017
4.707 7.844 9.093
4.707 5.709 2.675
4.708 5.292 2.71
4.708 7.962 9.109001
4.708 2.654 6.101
4.708 7.633 8.939
4.708 7.152 8.822001
4.708 7.235 8.862
4.709 11.797 4.657
4.709 8.054 9.262
4.709 4.814 2.69
4.709 4.867 8.807001
4.709 2.459 6.056
4.709 4.75 8.8
4.709 4.601 8.719
4.709 10.506 2.431
4.71 7.296 8.896
4.71 6.007 8.953
4.71 4.512 8.696
4.71 4.712 2.689
4.71 7.596 8.93
4.71 5.466 2.701
4.71 7.687 8.962
4.71 8.096 2.028
4.711 7.345 8.914
4.711 8.298 1.995
4.711 7.887 9.084
4.712 7.744 9.043001
4.712 3.039 6.46
4.712 7.809 9.102
4.712 5.933 2.645
4.712 7.706 8.976
4.712 8.425 1.982
4.712 2.237 6.022
4.712 6.883 2.389
4.713 4.989 2.71
4.713 10.26 8.727
4.713 3.867 2.554
4.713 2.425 2.026
4.713 7.667 8.952
4.713 3.088 7.094
4.713 8.163 9.358
4.713 3.256 8.359
4.714 3.071 7.854
4.714 7.547 8.917
4.714 2.987 2.288
4.714 5.18 2.717
4.714 8.031 9.222
4.714 4.694 8.768001
4.714 4.834 2.696
4.715 7.785 9.093
4.715 7.373 8.92
4.715 10.01 8.864
4.715 11.467 3.542
4.715 6.402 2.547
4.715 3.153 8.192
4.716 4.795 8.8
4.716 4.707 8.775
4.717 8.444 9.33
4.717 8.136 9.348
4.717 8.098 9.318
4.717 7.945 9.1
4.718 7.649 8.945
4.718 11.758 5.574
4.718 7.31 8.903
4.718 3.434 8.476
4.718 11.774 5.364
4.718 8.114001 9.334
4.718 10.835 8.216
4.719 9.019 1.974
4.72 3.497 8.504
4.72 7.761 9.073
4.72 8.522999 1.981
4.72 7.298 8.898
4.72 4.372 8.656
4.72 4.842 8.793
4.72 3.354 8.427001
4.72 4.657 8.736
4.72 9.765999 2.106
4.72 7.502 8.91
4.721 6.079 2.625
4.721 7.921 9.088
4.722 7.126 2.315
4.722 7.734 9.024001
4.722 3.085 7.252
4.722 7.412 8.923
4.723 7.549 2.175
4.723 11.791 4.893
4.723 4.738 8.778
4.723 3.079 7.873001
4.723 6.695 8.899
4.723 8.022999 9.201
4.724 7.581 8.928
4.724 7.135 8.816
4.724 4.635 2.698
4.724 7.323 8.909
4.724 8.34 1.995
4.724 7.219 8.855
4.724 3.075 7.792
4.725 7.432 8.919001
4.725 11.583 6.664
4.725 7.487 2.192
4.725 7.181 8.834
4.725 4.538 8.683
4.725 3.064 2.329
4.725 6.343 2.568
4.725 3.09 6.671
4.726 5.537 2.709
4.726 8.062 9.268
4.727 11.517 3.651
4.727 7.486 8.91
4.727 8.086001 9.301
4.727 3.555 8.513
4.727 11.761 5.472
4.727 9.544 2.048
4.727 4.838 2.707
4.728 8.269 9.358
4.728 4.891 2.712
4.728 7.11 8.81
4.728 8.012 9.177
4.729 7.82 9.104
4.729 4.562 8.684
4.729 11.679 4.096
4.729 7.554 8.923
4.729 4.819 8.781
4.729 7.793 9.101
4.729 4.767 8.778
4.73 7.949 9.101
4.73 7.049 8.805
4.73 6.724 2.454
4.73 7.002 8.813
4.73 4.478 8.667
4.73 4.929 8.775
4.73 5.055 8.773
4.731 4.018 8.586
4.731 7.264 8.882
4.731 8.048001 9.245
4.731 7.835 9.102
4.731 3.122 8.054
4.732 7.999 9.155001
4.732 9.341 2.007
4.732 4.64 8.712
4.732 7.081 8.806
4.732 4.583 8.687
4.732 10.342 2.35
4.732 11.326 3.315
4.733 7.986 9.135
4.733 11.063 2.969
4.733 4.726 8.761
4.733 7.749 9.058001
4.733 3.078 6.535999
4.733 5.042 2.73
4.734 4.344 2.672
4.734 7.958001 9.105
4.734 7.289 8.895
4.734 7.201 8.845
4.734 7.695 8.969
4.734 6.175 2.614
4.734 7.724 9.006
4.734 8.196 9.357
4.734 2.67 2.169
4.734 7.677 8.959
4.734 11.266 3.233
4.734 7.943 2.082
4.734 7.605 8.936
4.735 4.605 8.693
4.735 4.442 8.656
4.735 7.397 8.923
4.735 7.47 8.912
4.735 4.861 8.771
4.735 6.468 2.541
4.735 6.795 2.432
4.735 8.076999 9.287001
4.736 7.359 8.919001
4.736 4.624 8.699
4.736 7.339 8.915
4.736 8.149 9.348
4.737 10.695 2.59
4.737 10.243 2.303
4.737 7.237 8.867
4.737 7.656 8.951
4.737 3.093 7.893
4.737 7.158 8.824
4.737 7.566 8.926
4.738 10.602 8.449
4.738 7.631 8.943
4.738 3.105 6.872
4.739 7.943 9.097001
4.739 4.507 8.662
4.739 5.435 2.725
4.739 6.256 2.598
4.739 4.664 8.721001
4.739 8.125 9.335
4.74 7.852 9.097001
4.74 8.104 9.317
4.74 7.977 9.122
4.741 7.2 2.3
4.741 5.612 2.713
4.741 7.739 9.04
4.741 4.789 2.718
4.742 7.801 9.107
4.742 7.453 8.915
4.742 2.861 6.14
4.742 5.816 8.897
4.742 11.148 3.082
4.743 10.151 2.264
4.743 3.085 7.688
4.743 4.792 8.762
4.743 8.038 9.223
4.743 3.171 2.384
4.743 10.563 2.487
4.743 8.021 2.065
4.744 8.07 9.273
4.744 8.29 2.013
4.744 2.287 1.974
4.744 7.436 8.919001
4.745 8.076999 2.051
4.745 7.767 9.087
4.745 8.393 2
4.745 10.931 2.831
4.745 6.654 8.902
4.745 7.419 8.923
4.745 4.683 8.727
4.745 7.217 8.855
4.745 11.254 7.52
4.745 8.145001 2.038
4.745 8.22 2.026
4.746 2.583 6.038
4.746 4.711 8.739999
4.746 11.754 5.445
4.746 6.656 2.487
4.746 10.427 2.402
4.746 7.383 8.923
4.747 7.033 2.359
4.747 5.498 8.808
4.747 6.562 2.519
4.747 7.579 8.931001
4.747 4.54 8.658
4.747 5.096 2.744
4.748 3.636 8.508
4.748 4.127 8.584
4.748 3.107 7.158
4.748 2.914 2.292
4.748 6.003 2.657
4.748 6.958 8.82
4.748 8.583 1.992
4.749 7.616 2.173
4.749 7.712 8.989
4.749 4.826 8.754
4.749 7.526 8.92
4.749 2.169 5.978
4.749 7.900001 9.089001
4.749 7.756 2.14
4.75 11.774 5.106
4.75 7.495 8.914
4.75 3.111 6.987
4.751 3.09 7.56
4.751 4.857 2.73
4.751 5.343 8.773
4.751 7.967 9.112
4.751 6.213 2.617
4.752 8.062 9.258999
4.752 7.306 8.904
4.752 3.093 7.449999
4.752 6.118 2.638
4.752 5.967 8.927
4.752 7.81 9.111
4.753 7.552 8.926
4.753 9.261 2.007
4.753 7.134 8.815
4.753 11.625 6.41
4.753 5.699 2.711
4.753 7.872 9.092
4.754 7.73 9.023
4.754 8.164 9.347
4.754 11.37 3.405
4.754 4.973 2.741
4.754 7.204 8.848
4.754 7.282 8.893
4.755 4.571 2.721
4.755 6.316 2.595
4.755 7.684 8.964
4.756 11.767 4.552
4.756 4.473 8.638
4.756 7.664 8.956
4.756 3.154 8.085
4.757 7.704 8.979
4.757 5.935 2.676
4.757 7.026 8.803
4.757 7.696 8.972
4.757 8.03 9.202001
4.757 4.504 8.641
4.758 7.754 9.074
4.758 8.093 9.299
4.758 7.327 8.912
4.758 3.211 8.211
4.758 7.266 2.285
4.759 7.367 8.922
4.759 5.156 8.749
4.759 7.348 8.918
4.759 8.137 9.335
4.759 8.869001 9.196
4.759 8.198 9.35
4.759 7.745 9.057
4.759 4.606 8.666
4.759 3.101 7.346
4.759 4.152 2.666
4.759 7.823 9.111
4.76 7.226 8.862
4.76 9.533 9.027
4.76 11.537 3.737
4.76 9.854 2.154
4.76 4.223 8.586
4.761 8.053 9.242
4.761 8.114001 9.319
4.761 7.24 8.871
4.761 4.571 8.65
4.761 4.855 8.738
4.761 8.076999 9.277
4.761 10.348 8.641
4.762 7.192 8.841
4.762 10.053 2.231
4.762 11.467 3.586
4.762 2.134 1.896
4.762 7.44 8.919001
4.762 7.642 8.949
4.763 4.761 8.733
4.763 8.003 9.155001
4.764 8.708 9.237
4.764 5.785 2.707
4.764 3.123 6.722
4.764 7.617 8.942
4.764 3.105 7.837
4.764 11.723 5.691
4.764 5.864 2.695
4.765 9.342 9.081
4.765 9.17 2.005
4.765 2.134 5.959
4.765 5.238 2.758
4.765 7.177 8.833
4.765 3.314 8.324
4.765 7.839 9.107
4.765 11.512 6.843
4.766 3.299 2.445
4.766 7.99 9.136001
4.766 9.655 2.095
4.766 7.157 8.823
4.767 4.498 2.723
4.767 7.593 8.936
4.767 8.654 1.999
4.768 4.417 2.712
4.768 7.409 8.924
4.768 11.661 6.159
4.768 9.17 9.124001
4.768 9.430001 2.042
4.769 5.416 8.776
4.769 4.528 8.633
4.769 3.837 2.602
4.769 7.735 9.04
4.77 3.037 6.266
4.77 7.571 8.93
4.77 11.616 3.969
4.77 7.955 9.102
4.77 7.794 9.11
4.77 2.964 6.174
4.77 7.106 8.807001
4.77 11.678 6.025
4.771 7.071 8.801
4.771 7.266 8.886
4.771 8.346 2.018
4.771 7.854 9.102
4.771 4.801 8.725
4.771 9.854 8.909
4.771 3.079 6.362
4.772 8.464 2.008
4.772 2.322 5.97
4.772 8.045 9.223
4.772 7.937 9.092
4.772 10.093 8.794
4.773 10.771 2.683
4.773 6.149 2.646
4.773 4.441 8.613
4.773 7.208 8.851
4.773 8.752 2
4.773 7.325 2.271
4.773 3.108 7.791
4.773 6.275 2.617
4.773 7.676 8.963
4.774 5.161 2.767
4.774 5.627 8.83
4.774 3.125 7.912001
4.774 11.719 4.36
4.774 4.485 8.619
4.774 7.719 9.006
4.774 9.077 2.004
4.775 7.5 8.916
4.775 4.939 2.757
4.775 8.869001 2
4.775 11.773 4.762
4.775 8.151 9.336
4.775 8.021 9.18
4.775 6.604 8.903
4.775 7.921 9.088
4.775 4.74 8.714001
4.775 2.806 6.068
4.776 7.385 8.924
4.776 7.415 2.242
4.776 5.367 2.759
4.776 7.25 8.878
4.777 7.294 8.9
4.777 8.069 9.258999
4.777 2.416 5.976
4.777 6.055 8.929
4.777 8.977001 2.002
4.778 6.831 2.444
4.778 7.693 8.974
4.779 7.473 8.913
4.779 7.906 9.089001
4.779 8 9.149
4.779 7.774 9.101
4.779 3.44 2.504
4.779 7.314 8.909
4.779 7.373 2.257
4.78 4.687 2.75
4.78 10.614 2.547
4.78 4.64 8.661
4.78 7.278 8.893
4.78 7.74 9.053
4.78 7.761 9.089001
4.781 7.439 8.919001
4.781 10.348 2.377
4.781 8.202 9.342
4.781 10.489 2.457
4.781 8.127 9.321
4.781 11.566 3.846
4.781 8.289 2.032
4.781 7.362 8.921
4.782 7.982 9.123
4.782 7.89 9.09
4.782 5.722 8.853001
4.782 4.699 8.688
4.782 7.662 8.957
4.782 7.554 8.927
4.782 8.086001 9.28
4.782 3.269 8.246
4.782 8.126 2.063
4.782 7.685 2.175
4.783 2.238 5.95
4.783 6.881 8.831
4.783 8.105 9.301
4.783 9.017 9.153
4.784 2.447 2.096
4.784 4.895 2.763
4.784 7.139 8.815
4.784 3.117 6.462
4.784 4.599 8.636001
4.784 2.818 2.282
4.785 7.043 8.796
4.785 5.92 8.902
4.785 10.917 8.06
4.785 3.123 7.218
4.785 8.037 9.204
4.785 7.338 8.916
4.786 7.216 8.858
4.786 11.682 4.219
4.786 6.91 2.421
4.786 7.727 9.027
4.786 7.629 8.946001
4.786 7.968 9.11
4.787 7.01 2.388
4.787 8.168 9.336
4.788 9.695 8.962
4.788 4.546 8.615
4.788 7.52 8.92
4.789 7.808 9.117
4.789 10.69 8.331
4.789 6.993 8.803
4.79 8.060001 9.24
4.79 6.229 2.641
4.79 7.744 9.064
4.79 6.184 2.651
4.791 4.856 2.767
4.791 8.009 9.159
4.791 5.029 8.714001
4.792 8.185999 2.058
4.792 7.651 8.953
4.793 10.259 2.338
4.794 8.531 9.276
4.794 7.23 8.867
4.794 7.995999 9.14
4.794 8.571999 2.015
4.794 6.649 2.517
4.795 11.491 3.662
4.795 2.134 1.921
4.795 4.006 8.518
4.795 7.861 9.099
4.795 4.572 8.614
4.795 7.826 9.115
4.795 7.167 8.827
4.796 7.607 8.941
4.796 7.684 8.97
4.796 11.733 5.365
4.796 4.872 8.699
4.796 7.581 8.934001
4.797 7.542 8.925
4.797 4.131 8.534
4.797 7.79 9.113
4.797 7.85 9.105
4.797 4.826 8.697
4.797 4.51 8.599
4.797 5.688 2.745
4.797 3.585 8.433
4.798 7.301 8.904
4.798 2.32 2.038
4.798 6.745 2.487
4.798 5.539 8.79
4.798 2.563 2.17
4.798 7.839 9.11
4.798 7.584 2.208
4.799 7.507 8.917
4.799 7.749 9.075
4.799 8.142 9.322
4.799 3.154 6.779
4.799 7.418 8.921
4.8 8.053 9.224
4.8 5.028 2.785
4.8 7.4 8.923
4.8 7.735 9.048
4.8 5.537 2.766
4.8 9.34 2.043
4.801 8.08 2.085
4.801 5.934 2.708
4.801 4.406 2.739
4.801 2.522 5.967
4.801 7.874 9.093
4.801 3.597 2.575
4.801 7.259 8.884
4.801 8.078001 9.260001
4.802 4.392 8.572
4.802 6.385 2.61
4.803 7.434 8.918
4.803 8.396 2.029
4.803 3.908 8.496
4.803 7.64 8.95
4.803 7.704 8.988
4.803 6.043 2.689
4.804 7.319 8.91
4.804 9.941 2.208
4.804 7.379 8.922
4.804 7.535 2.223
4.804 11.429 7.033
4.805 7.191 8.843
4.805 7.285 8.897
4.805 6.493 2.577
4.805 8.118 9.304
4.805 11.573 6.55
4.806 6.556 8.902
4.806 2.134 5.918
4.806 6.289 2.637
4.806 10.443 8.544
4.806 9.538 2.086
4.806 11.397 3.5
4.806 7.092 8.798
4.806 7.754 9.085
4.806 7.718 9.013
4.807 8.242 2.056
4.807 8.045999 9.209001
4.807 8.017 9.166
4.807 7.272 8.890999
4.807 4.793 8.686
4.807 11.129 7.703
4.807 11.62 6.3
4.807 7.358 8.919001
4.807 7.02 8.794
4.808 8.096 9.281
4.808 4.612 8.618
4.808 7.910999 9.089001
4.808 8.205 9.33
4.808 7.45 8.914
4.809 6.127 2.676
4.809 2.714 5.994
4.809 7.213 8.857
4.809 10.41 2.426
4.809 7.122 8.806
4.81 3.14 7.843
4.81 7.497 8.915
4.81 7.962 9.101
4.81 2.186 5.918
4.81 6.157 8.921
4.81 6.773 8.853001
4.81 11.317 3.369
4.811 7.968999 9.107
4.811 8.039 9.196
4.811 7.06 8.792
4.811 11.753 4.917
4.812 8.158 9.323
4.812 10.175 2.307
4.812 7.669 8.961
4.812 4.589 8.603
4.812 7.76 9.094
4.813 7.978 9.115
4.813 8.179 9.326001
4.813 7.244 8.875
4.813 3.16 6.561
4.814 7.63 8.947
4.814 3.53 8.387
4.814 11.517 3.75
4.814 10.669 2.614
4.814 4.77 8.675001
4.815 4.938 2.794
4.815 6.316 8.923
4.815 11.351 7.218
4.815 3.46 8.349
4.815 9.745 2.146
4.816 7.995999 2.116
4.816 11.751 4.643
4.816 8.032 9.184
4.816 7.338 8.915
4.816 7.532 8.922
4.816 5.864 8.874
4.816 8.067001 9.238
4.816 7.149 8.817
4.816 7.99 9.129
4.817 7.728 9.037
4.817 7.952 9.095
4.817 4.769 2.788
4.817 8.003999 9.147
4.817 7.457 2.253
4.818 3.159 6.947
4.818 6.576 2.557
4.818 5.284 2.799
4.819 7.892 9.089001
4.819 7.594 8.938001
4.819 11.673 5.879
4.819 7.652 8.954
4.819 4.936 8.679
4.82 8.342 2.044
4.82 11.198 3.207
4.82 10.537 2.513
4.82 10.184 8.716
4.82 3.754 8.448
4.82 9.245 2.041
4.82 6.458 8.909
4.821 7.568 8.931001
4.821 3.135 7.692
4.821 7.268 2.319
4.821 7.231 8.868
4.821 3.14 7.282
4.822 7.3 8.903
4.822 10.991 2.948
4.822 7.17 8.829
4.822 7.847 9.107
4.823 7.49 8.914
4.823 3.169 7.93
4.823 4.55 8.579
4.823 7.516 8.918
4.823 10.876 2.823
4.823 4.332 8.538
4.824 11.078 3.05
4.824 7.162 2.359
4.824 3.171 6.676
4.824 2.134 1.944
4.825 3.216 8.059
4.825 7.796 9.118
4.825 7.619 8.944
4.825 8.054 9.215
4.826 8.111 9.287001
4.826 8.024001 9.171
4.826 7.935 9.088
4.827 4.744 8.653
4.827 8.293 2.057
4.827 7.429 8.916
4.827 7.873001 2.156
4.827 7.219 8.86
4.827 7.319 8.909
4.828 7.785 9.114
4.828 6.872 2.46
4.828 8.081 9.254
4.828 8.133001 9.304
4.828 7.479 8.91
4.828 6.945 8.805
4.828 7.81 9.117
4.828 7.262 8.885
4.829 3.149 7.797
4.829 3.137 7.492
4.83 3.154 6.371
4.83 3.241 2.487
4.83 3.05 6.140999
4.83 9.925 8.849
4.831 7.414 8.919001
4.831 7.748 9.081
4.832 3.162 7.071
4.832 7.721 9.024001
4.832 5.403 2.802
4.832 7.862 9.099
4.833 7.464 8.91
4.833 7.207 8.853001
4.833 7.737 9.061
4.833 10.093 2.283
4.833 7.684 8.97
4.834 7.551 8.926
4.834 7.773 9.107
4.834 11.44 3.599
4.834 4.693 8.622
4.834 5.113 2.818
4.834 2.388 5.913
4.835 3.144 7.377
4.835 8.354999 9.3
4.835 9.146 2.039
4.835 7.83 9.114
4.835 7.396 8.919001
4.835 5.818 2.757
4.835 10.31 2.386
4.835 8.144 2.092
4.835 4.474 8.552
4.836 4.574 8.574
4.836 4.619 8.591
4.836 7.487 8.912
4.836 8.016 9.158
4.836 7.971 9.107
4.836 7.377 8.919001
4.836 4.649 8.6
4.837 2.663 2.256
4.837 8.093 9.265
4.837 7.712 9.005
4.837 7.354 8.916
4.837 7.079 8.79
4.837 4.833 8.653
4.838 2.199 1.996
4.838 3.14 6.284
4.838 5.192 2.821
4.838 6.989 2.425
4.838 7.281 8.894
4.838 2.632 5.943
4.838 5.224 8.690001
4.839 10.789 2.742
4.839 7.033 8.787001
4.839 7.88 9.092
4.839 3.181 6.841
4.839 8.161 9.312
4.84 4.892 2.814
4.84 7.607 8.941
4.84 7.243 8.875
4.84 11.517 6.703
4.84 7.643 2.218
4.84 4.247 8.505
4.841 8.543001 2.041
4.841 4.594 8.576
4.841 7.642 8.951
4.841 6.196 2.686
4.841 5.46 8.743
4.842 8.064999 9.225
4.842 11.706 4.444
4.842 8.208999 2.083
4.842 7.108 8.795001
4.842 4.137 8.487
4.842 3.378 8.246
4.843 7.762 9.099
4.843 11.264 7.383
4.843 7.588 8.936
4.843 3.147 7.592
4.843 8.003 9.14
4.843 10.711 2.671
4.844 8.103 9.273
4.844 7.179 8.834
4.844 4.397 2.782
4.844 9.041999 2.039
4.844 5.378 8.719
4.844 7.914999 9.086
4.844 8.442 2.048
4.845 7.134 8.806
4.845 7.443 8.912
4.845 5.674 2.785
4.845 3.171 7.859
4.845 7.727 9.04
4.845 7.532 8.921
4.845 7.224 8.864
4.845 9.432 2.083
4.845 7.331 8.911
4.845 7.167 8.826001
4.845 8.031 9.175001
4.845 7.962 9.098
4.846 3.748 2.664
4.846 6.642 2.552
4.846 7.154 8.817
4.846 7.306 8.903
4.846 5.811 8.846
4.846 7.664 8.958001
4.847 2.469 2.163
4.847 8.779 9.179
4.847 2.134 5.877
4.847 6.996 8.791
4.847 8.048001 9.197
4.847 7.985 9.118
4.847 3.162 7.187
4.847 6.288 2.669
4.847 11.621 6.174
4.847 3.874 8.441
4.848 2.853 5.989
4.848 6.108 2.71
4.848 3.203 7.966001
4.848 2.983 6.041
4.848 6.67 8.864
4.848 6.817 2.492
4.848 7.706 8.991
4.848 10.462 2.481
4.849 4.511 8.544
4.849 10.54 8.436
4.849 11.639 6.034
4.849 2.318 5.89
4.849 7.741 2.2
4.85 3.939 2.715
4.85 8.678 2.042
4.85 11.256 3.311
4.85 7.192 8.842
4.85 8.114001 9.28
4.851 7.694 8.978
4.851 5.944 2.746
4.851 7.85 9.103
4.851 4.881 8.64
4.851 7.082 2.402
4.851 7.57 8.93
4.851 8.931 2.041
4.852 8.939 9.141
4.852 9.261 9.066
4.852 9.429 9.02
4.853 6.707 2.534
4.853 11.471 3.677
4.853 8.812999 2.042
4.854 7.751 9.09
4.854 3.689 8.392001
4.854 7.513 8.917
4.854 2.991 2.422
4.855 8.148 9.3
4.855 7.741 9.076
4.855 10.584 2.572
4.855 7.256 8.881
4.855 9.099 9.103
4.855 6.932 2.455
4.855 2.474 5.901
4.856 7.626 8.945
4.856 5.673 8.8
4.856 11.001 7.875
4.856 7.492 8.912
4.856 7.048 8.784
4.856 7.898 9.085
4.856 8.08 9.24
4.856 3.132 6.196
4.857 3.431 8.264
4.857 4.63 2.819
4.858 7.498 2.263
4.858 8.125 9.285
4.859 7.43 8.912
4.859 10.206 2.347
4.859 9.633 2.137
4.859 7.718 9.02
4.86 3.432 2.586
4.86 7.553 8.925
4.86 9.831999 2.199
4.86 8.019 9.156
4.861 11.489 3.736
4.861 7.869 9.093
4.861 8.237001 9.307
4.861 7.369 8.915
4.861 8.381 2.063
4.861 7.344 8.911
4.861 8.096 9.257
4.861 5.024 2.839
4.862 7.78 9.112
4.862 8.616 9.218
4.862 7.211 8.855
4.863 9.595 8.963
4.863 7.794 9.115
4.863 11.714 5.131
4.863 2.248 5.87
4.863 5.596 8.772
4.863 11.73 4.762
4.864 7.809 9.115
4.864 7.232 8.868
4.864 7.607 8.94
4.864 7.954 9.091
4.864 10.001 2.262
4.864 7.84 9.106
4.865 3.298 8.12
4.865 11.508 3.795
4.865 4.81 8.623
4.866 7.415 8.913
4.866 7.292 8.896
4.866 7.587 8.934001
4.867 6.45 2.633
4.867 7.886 9.086
4.867 2.134 5.857
4.867 3.207 6.425
4.867 8.267 2.086
4.867 7.12 8.796
4.868 8.037 9.176
4.868 10.282 8.624
4.868 7.162 8.821
4.868 7.353 2.315
4.868 3.345 8.17
4.868 11.719 5.003
4.868 8.137 9.288
4.868 7.822 9.113
4.869 10.758 8.198
4.869 7.086 8.785
4.869 7.066 8.782
4.869 6.033 2.743
4.869 4.63 8.559
4.87 4.254 2.795
4.87 7.97 9.101
4.87 8.178 9.301
4.87 8.002 9.133
4.87 7.267 8.885
4.871 7.394 8.914
4.871 8.067001 9.214001
4.871 7.648 8.952
4.871 7.729 9.051
4.871 11.3 3.4
4.871 10.379 2.445
4.872 7.318 8.904
4.872 7.722 9.034
4.872 7.416 2.296
4.872 8.324 2.078
4.873 4.582 8.54
4.873 2.228 2.044
4.873 7.451 8.908
4.873 7.478 8.907001
4.873 6.53 2.609
4.873 3.182 7.799
4.873 2.795 2.354
4.873 11.555 3.942
4.874 7.711 9.003
4.874 10.86 2.841
4.874 7.733 9.063
4.874 11.657 5.774
4.874 4.065 8.442
4.875 7.699 8.983
4.875 5.271 2.848
4.875 5.006 8.63
4.875 3.175 7.714
4.875 7.099 8.787001
4.876 7.939 9.085
4.876 9.328 2.082
4.876 11.136 3.169
4.876 7.547 8.922
4.876 11.449 6.87
4.877 3.625 8.338
4.877 7.594 2.25
4.878 2.382 2.144
4.878 8.103 2.13
4.878 7.501 8.911
4.878 5.383 2.844
4.878 7.358 8.911
4.879 10.744 2.725
4.879 2.189 5.849
4.879 4.534 8.519
4.879 5.117 8.644
4.879 7.832 9.108
4.879 2.566 5.887
4.88 11.694 5.294
4.88 7.572 8.928
4.88 8.107999 9.260001
4.88 6.772 2.528
4.88 7.274 2.351
4.88 7.141 8.805
4.88 4.888 2.85
4.88 7.176 8.83
4.881 8.149999 9.288
4.881 7.858 9.096
4.881 6.871 8.809
4.881 11.522 3.857
4.882 8.087 9.235
4.882 8.055001 9.192
4.882 4.788 8.601
4.883 7.736 9.072
4.883 7.242 8.872001
4.883 4.087 2.784
4.883 5.482 2.842
4.883 10.27 2.394
4.883 7.674 8.961
4.884 9.752 8.896
4.884 5.764 8.814001
4.884 8.127 9.274
4.884 10.801 2.785
4.885 8.201 2.111
4.885 7.196 8.844
4.885 11.402 3.577
4.885 8.021 9.152
4.886 7.983 9.11
4.886 7.625 8.943
4.887 7.218 8.858
4.887 7.917 9.081
4.887 6.884 2.492
4.887 11.165 7.544
4.887 7.34 8.906
4.887 2.134 5.837
4.888 7.597 8.934001
4.888 7.705 8.992
4.888 6.088 2.746
4.888 3.197 7.816
4.888 7.38 8.911
4.888 3.223 6.749
4.888 7.109 8.788
4.888 7.716 9.019
4.889 3.218 2.544
4.889 4.148 8.438
4.889 5.915 8.851
4.889 11.701 4.529
4.889 6.604 2.593
4.889 11.713 4.891
4.89 7.157 8.816
4.89 7.534 8.917
4.89 5.526 8.735
4.89 7.277 8.887
4.89 5.57 2.84
4.89 3.144 6.115
4.891 4.855 8.597001
4.891 3.214 6.901
4.891 7.809 9.112
4.891 7.122 8.794
4.891 2.954 5.961
4.892 11.553 6.436
4.892 10.636 2.64
4.892 7.3 8.896
4.892 10.127 2.33
4.892 5.288 8.662
4.892 7.841 9.101
4.892 2.498 2.218
4.893 8.039 9.171
4.893 7.878 9.084
4.893 10.01 8.774
4.894 7.437 8.905
4.894 9.226 2.079
4.895 7.016 8.778
4.895 4.683 8.549
4.895 7.74 9.08
4.895 4.925 8.598
4.895 3.281 8.025
4.895 7.898 9.08
4.895 7.461 8.904
4.896 4.752 8.573
4.896 7.823 9.108
4.896 3.562 8.282
4.896 11.433 3.645
4.896 3.112 6.054
4.896 2.407 5.85
4.896 7.652 8.95
4.897 7.762 9.101
4.897 7.548 2.273
4.897 9.524 2.131
4.897 10.934 2.939
4.897 7.796 9.111
4.897 8.586001 2.071
4.898 11.532 3.908
4.898 3.212 7.838
4.899 7.781 9.108
4.899 3.235 6.643
4.899 11.671 5.458
4.899 7.417 8.907001
4.899 10.503 2.542
4.899 8.491999 2.076
4.899 2.798 5.904
4.899 2.3 2.115
4.899 7.721 9.038
4.9 5.663 2.835
4.9 7.323 8.9
4.9 7.046 8.775
4.9 4.394 2.844
4.901 6.031 8.867
4.901 6.144 2.746
4.901 7.748 9.09
4.901 11.635 4.276
4.902 3.591 2.687
4.902 10.686 2.689
4.902 7.252 8.875
4.902 7.363 8.907001
4.902 7.066 8.775
4.902 6.271 2.716
4.902 2.729 5.886
4.902 3.215 6.988
4.902 8.161999 9.283
4.902 3.23 6.311
4.903 4.224 8.434
4.903 8.022999 9.149
4.903 6.208 2.733
4.903 6.326 2.703
4.904 7.081 8.777
4.904 6.952 8.786
4.904 3.186 7.403
4.904 8.139 9.271
4.904 11.461 3.723
4.904 2.134 2.01
4.905 8.002 9.125
4.905 8.118 9.255
4.905 6.672 2.579
4.905 7.517 8.909
4.905 7.709 9.005
4.906 7.689 8.971
4.906 8.096 9.233
4.906 7.4 8.907001
4.906 8.073 9.205
4.906 8.423001 2.085
4.907 4.582 8.507
4.907 7.574 8.924
4.907 9.12 2.078
4.907 7.497 8.904
4.907 10.611 8.329
4.907 7.96 9.089001
4.908 7.726 9.055
4.908 8.444999 9.244
4.908 9.906 2.251
4.908 2.884 5.916
4.909 7.096 8.780001
4.909 7.227 8.861
4.909 7.167 8.822001
4.909 7.183 8.834
4.909 7.102 2.43
4.91 7.608 8.933
4.91 8.014 2.173
4.91 11.574 6.27
4.91 8.054 9.182001
4.91 7.155 8.813
4.91 11.004 3.029
4.91 7.204 8.847
4.91 7.285 8.888
4.91 7.146 8.806
4.911 7.86 9.09
4.911 3.207 7.75
4.911 2.658 5.864
4.912 7.482 8.901
4.912 7.163 2.412
4.912 5.975 2.791
4.912 10.431 2.503
4.912 7.108 8.784
4.912 2.319 5.826
4.913 7.048 2.451
4.913 8.038 9.163001
4.913 5.761 2.834
4.913 10.391 8.517
4.913 9.722999 2.193
4.913 7.634 8.94
4.913 6.377 2.695
4.914 3.509 8.225
4.914 7.346 8.902
4.914 7.116 8.787001
4.914 3.192 7.507
4.914 11.701 4.643
4.914 7.732 9.068
4.915 2.653 2.328
4.915 5.446 8.696
4.915 11.071 3.114
4.915 7.81 9.106
4.916 7.262 8.877
4.916 10.309 2.434
4.916 8.027 9.149
4.916 7.307 8.893
4.916 6.735 2.565
4.917 7.385 8.905
4.917 3.26 6.46
4.917 5.864 2.818
4.917 8.359 2.1
4.917 7.834001 9.099
4.917 7.124 8.791
4.917 7.935 9.079
4.917 6.998 2.471
4.917 6.765 8.822001
4.918 7.469 8.899
4.918 7.698 8.98
4.918 7.651 8.944
4.918 6.944 2.49
4.918 7.715 9.022
4.919 10.853 8.034
4.919 3.23 6.223
4.92 11.595 6.089
4.92 6.839 2.53
4.92 7.665 2.259
4.92 4.329 8.434
4.92 7.703 8.992
4.921 9.005999 2.08
4.921 11.648 5.596
4.921 8.017 9.137
4.921 3.243 7.863
4.921 10.804 2.82
4.921 7.545 8.913
4.921 10.172 2.368
4.922 7.663 8.948
4.922 11.332 7.127
4.922 7.979 9.1
4.922 3.212 7.16
4.923 4.876 2.893
4.923 6.069 2.779
4.923 5.139 2.896
4.923 7.768 2.237
4.923 11.615 5.908
4.924 7.228 2.396
4.924 7.456 8.897
4.924 3.205 7.28
4.925 6.434 2.682
4.925 10.559 2.604
4.925 3.262 6.552
4.925 7.91 9.074
4.925 6.213 8.872001
4.925 10.051 2.317
4.926 8.291001 2.119
4.926 8.129 9.252
4.926 2.163 2.047
4.926 5.35 2.888
4.926 3.878 8.348
4.927 8.149999 9.266
4.927 10.76 2.779
4.927 7.329 8.896
4.927 10.864 2.886
4.927 3.224 7.778
4.927 5.853 8.818
4.927 5.365 8.663001
4.927 8.206001 9.278
4.927 11.498 6.598
4.927 7.133 8.796
4.928 11.383 6.989
4.928 7.369 8.902
4.928 7.419 8.9
4.928 7.274 8.880001
4.928 3.74 2.759
4.928 7.439 8.897
4.929 8.045 9.165
4.929 11.555 4.045
4.929 8.087 9.211
4.93 2.53 2.274
4.93 7.156 8.812
4.93 4.043 8.376
4.93 10.231 2.403
4.93 11.063 7.692
4.93 2.5 5.824
4.93 9.417 2.128
4.931 11.518 3.921
4.931 9.486 8.966
4.931 4.533 2.892
4.931 6.494 2.663
4.931 8.032 9.151001
4.931 8.849 9.119
4.931 7.858 9.086
4.931 7.991 9.108
4.931 7.719 9.039
4.932 7.238 8.863
4.932 8.887 2.085
4.932 7.291 8.885
4.932 11.35 3.538
4.932 8.107999 9.231
4.932 7.595 8.924
4.933 7.214 8.85
4.933 9.184 9.047
4.933 7.792 9.104
4.933 7.519 8.904
4.933 9.342 9.007
4.933 10.366 2.478
4.933 2.727 2.384
4.934 8.758 2.087
4.934 7.999 9.114
4.934 7.173 8.824
4.934 7.886 9.074
4.934 7.289 2.379
4.934 7.193 8.837
4.934 7.708 9.006
4.934 8.057 9.177
4.935 4.153 8.388001
4.935 3.915 2.807
4.935 2.187 5.792
4.935 7.746 9.088
4.935 8.173 9.27
4.936 5.731 8.777
4.936 3.804 8.319
4.936 8.203 2.144
4.936 9.021 9.082
4.936 7.053 8.768001
4.937 8.658 2.091
4.937 7.816 9.099
4.937 7.622 8.931001
4.937 2.215 2.091
4.937 8.687001 9.156
4.937 8.009 9.123
4.938 7.675 8.955
4.938 7.772 9.099
4.938 11.688 4.787
4.938 3.411 2.672
4.938 7.569 8.915
4.938 7.11 8.781
4.938 7.994 9.108
4.938 7.645 8.938001
4.939 4.477 8.444
4.939 10.723 2.754
4.94 7.837 9.092
4.94 7.406 8.898
4.94 7.352 8.897
4.94 7.257 8.87
4.94 7.5 8.898
4.94 6.564 2.643
4.94 7.477 8.895
4.94 7.312 8.889
4.94 6.646 8.837
4.941 7.346 2.361
4.941 4.946 8.554
4.941 3.448 8.136
4.941 9.851 8.824999
4.941 7.067 8.767
4.941 11.283 3.445
4.941 8.068 9.186
4.941 3.239 6.136
4.941 7.083 8.77
4.942 7.099 8.776
4.942 11.466 3.796
4.942 3.725 8.285
4.943 3.259 6.82
4.943 7.144 8.802
4.943 7.725 9.057
4.944 7.756 9.093
4.944 8.137999 9.25
4.944 3.134 5.972
4.944 3.235 7.064
4.944 4.892 8.544
4.945 7.852 9.085
4.945 2.134 2.044
4.945 7.034 8.765
4.945 10.116 8.682
4.946 8.59 2.099
4.946 7.734 9.074
4.946 11.626 5.694
4.946 4.857 8.541
4.946 2.81 2.439
4.946 8.025 9.137
4.946 4.21 2.874
4.947 3.219 7.591
4.947 7.468 2.324
4.947 8.121001 9.236
4.947 2.25 5.784
4.947 7.276 8.877
4.947 4.625 8.476
4.948 11.427 3.699
4.948 7.391 8.897
4.948 7.405 2.344
4.948 3.009 5.896
4.948 11.398 3.631
4.948 8.041 9.154
4.948 4.833 8.535
4.949 5.664 8.748
4.949 7.712 9.022
4.95 10.683 2.726
4.95 7.547 8.907001
4.951 7.699 8.987
4.951 7.865 9.077
4.951 6.907 2.525
4.951 7.334 8.890999
4.952 11.677 4.917
4.952 7.99 9.102
4.952 2.957 5.876
4.952 7.925 9.068
4.952 7.16 8.813
4.952 9.311 2.123
4.952 7.945 9.072
4.953 7.608 8.922
4.953 8.151 9.254
4.953 7.587 8.916
4.953 7.962 9.079
4.953 5.045 8.566
4.953 8.536 9.192
4.954 3.057 2.564
4.954 9.963 2.3
4.954 7.978 9.09
4.954 7.431 8.892001
4.954 11.371 3.59
4.955 6.502 8.85
4.955 9.614 2.186
4.955 3.288 7.89
4.955 7.296 8.881
4.955 2.616 5.809
4.955 4.685 2.927
4.956 8.525 2.108
4.956 5.528 8.699
4.956 4.739 8.5
4.956 7.203 8.839
4.956 7.374 8.894
4.956 4.39 2.905
4.956 8.078001 9.189
4.956 7.118 8.783001
4.957 7.181 8.826001
4.957 3.226 2.631
4.957 3.221 7.434
4.958 11.445 6.739
4.958 8.402 2.12
4.958 7.745 9.085
4.958 3.586 8.2
4.958 4.802 8.517
4.958 7.464 8.889
4.958 3.059 5.898
4.959 5.656 2.888
4.959 5.604 8.722
4.959 6.246 2.768
4.959 7.225 8.85
4.959 2.134 5.766
4.959 7.6 2.297
4.96 3.24 6.064
4.96 6.799 2.571
4.96 7.843 9.083
4.96 6.979 8.769
4.96 11.247 7.274
4.96 7.825 9.09
4.96 3.657 8.231
4.96 6.042 2.818
4.961 8.463 2.116
4.961 7.262 8.867
4.961 2.171 5.765
4.961 8 9.108
4.961 6.645 2.626
4.961 7.245 8.859
4.961 10.645 2.702
4.961 2.871 2.486
4.961 7.805 9.094
4.961 6.146 2.796
4.961 7.529 8.899
4.962 8.206001 9.262
4.962 2.359 5.779
4.962 11.665 5.034
4.963 8.05 9.159
4.963 7.658 8.938001
4.963 7.874 9.071
4.963 10.471 8.42
4.963 8.164 9.255
4.963 8.093 9.201
4.963 7.705 9.005
4.963 9.804 2.248
4.964 7.501 8.893
4.964 7.355 8.89
4.964 7.638 8.928
4.964 3.308 6.356
4.965 8.133001 9.237
4.965 7.689 8.968
4.965 2.952 2.534
4.965 7.132 8.791
4.965 7.316 8.883
4.965 3.261 7.783
4.966 10.307 2.467
4.966 11.652 5.224
4.966 7.574 8.909
4.967 7.624 8.922
4.967 8.016 9.122
4.968 8.033 9.139
4.968 8.105 9.212
4.968 7.786 9.094
4.968 8.128 2.183
4.968 7.716 9.038
4.968 7.536 2.318
4.969 5.508 2.916
4.969 8.118 9.222
4.969 10.823 2.879
4.969 9.203 2.12
4.969 7.612 8.918
4.97 3.219 6
4.97 3.43 8.068
4.97 7.907 9.062
4.97 7.413 8.889
4.971 7.15 8.802
4.971 7.278 8.87
4.971 2.891 5.837
4.972 3.248 7.672
4.972 7.597 8.913
4.972 3.503 8.125
4.972 6.733 2.603
4.972 7.986 9.093
4.972 7.107 8.774
4.972 9.594 8.907001
4.973 5.926 2.855
4.973 10.395 2.524
4.973 7.128 2.461
4.974 4.849 2.949
4.974 7.051 8.760001
4.974 3.273 6.9
4.974 11.174 3.31
4.974 11.602 5.781
4.975 3.396 8.019
4.975 10.598 2.675
4.976 8.061 9.165
4.976 7.188 8.827
4.976 7.854 9.074
4.976 7.168 8.813
4.976 7.851 2.253
4.976 7.335 8.883
4.976 8.27 9.252
4.977 3.316 6.483
4.977 10.243 2.44
4.977 7.734 9.073
4.977 2.717 5.799
4.977 4.252 8.355
4.978 6.421 2.725
4.978 7.559 8.902
4.978 7.892 9.061
4.978 10.446 2.562
4.978 7.708 9.021
4.978 3.295 6.725
4.979 3.263 7.734
4.979 6.897 8.778
4.979 5.45 8.66
4.979 7.092 8.767
4.979 3.357 7.962
4.979 8.179 9.251
4.98 5.931 8.809
4.98 7.696 8.987
4.98 7.071 8.760001
4.98 7.446 8.883
4.98 7.211 8.838
4.98 7.766 9.089001
4.981 2.573 2.353
4.981 2.362 2.226
4.981 7.503 8.888
4.981 7.297 8.873
4.981 7.395 8.886
4.981 2.134 2.075
4.981 7.881 9.063
4.982 11.394 6.866
4.982 7.952 2.234
4.982 6.983 2.517
4.982 7.725 9.057
4.982 4.048 2.893
4.983 7.968999 9.078
4.983 9.094 2.12
4.983 8.126 9.222
4.983 8.142 9.234
4.983 8.350001 2.146
4.983 7.258 8.859
4.983 10.089 2.371
4.984 7.837 9.078
4.984 10.492 2.6
4.984 8.002 9.104
4.984 7.3 2.406
4.984 7.674 8.948
4.984 10.171 2.409
4.985 2.896 2.528
4.985 11.093 3.205
4.986 4.153 8.329
4.986 7.376 8.884
4.986 7.745 9.079
4.986 11.459 3.859
4.986 7.614 8.913
4.986 11.162 7.428
4.986 5.829 8.780001
4.986 4.957 8.514
4.987 7.354 8.882
4.987 7.478 8.881
4.987 2.667 2.413
4.988 3.272 6.99
4.988 7.82 9.082
4.988 7.801 9.086
4.988 7.14 8.792
4.988 7.538 8.893
4.988 7.868 9.065
4.989 3.121 5.882
4.989 8.042 9.141
4.989 7.121 8.779
4.989 9.505 2.18
4.989 7.235 8.847
4.989 3.997 8.297
4.989 3.291 7.803
4.99 8.075 9.172
4.99 4.372 8.364
4.99 2.134 5.737
4.99 6.515 2.699
4.99 3.331 6.266
4.99 7.927 9.058001
4.99 6.393 8.844
4.991 8.208 9.248001
4.991 9.91 8.772
4.991 11.514 6.355
4.991 5.013 2.969
4.991 11.011 3.106
4.991 7.318 8.875
4.991 7.59 8.905
4.991 4.903 8.498
4.991 8.107999 9.203
4.992 5.331 8.613
4.992 11.388 3.667
4.992 3.556 8.127
4.992 11.542 6.181
4.992 2.803 5.796
4.992 6.867 2.568
4.992 11.646 4.561
4.992 7.701 9.004001
4.993 8.021 9.12
4.993 3.248 7.364
4.993 7.95 9.065
4.993 8.156 9.236
4.993 10.228 8.579
4.994 11.654 4.7
4.994 7.026 8.756001
4.994 7.196 8.826001
4.994 11.565 6.006
4.995 7.502 8.883
4.995 8.597001 2.129
4.996 7.676 2.302
4.996 2.235 2.156
4.996 7.158 8.802
4.996 10.925 3.012
4.996 7.985 9.086
4.996 7.378 2.385
4.997 5.186 8.563001
4.997 7.631 8.915
4.997 8.288 2.168
4.997 7.177 8.814001
4.997 5.347 2.959
4.997 7.278 8.861
4.997 7.648 8.923
4.998 10.625 8.242
4.998 2.573 5.757
4.999 10.682 2.767
4.999 7.426 8.878
4.999 8.117 9.206
4.999 10.539 2.648
4.999 8.981 2.126
5 6.006 2.862
5 4.716 8.445
5 7.339 8.875
5 2.43 5.743
5 7.852 9.067
5.001 4.787 8.464
5.001 11.362 3.624
5.001 4.357 2.954
5.001 10.339 2.511
5.002 7.785 9.083
5.002 3.838 2.872
5.002 7.523 8.885
5.003 10 8.716
5.003 3.254 7.468
5.003 8.214 2.188
5.003 8.092 9.182001
5.003 8.003 9.1
5.003 7.887 9.055
5.003 10.751 2.837
5.004 7.689 8.974
5.004 7.063 2.503
5.004 3.578 2.812
5.005 11.314 7.05
5.005 8.168 9.236
5.005 7.568 8.894
5.005 6.316 2.786
5.005 7.612 8.906
5.005 7.213 8.831
5.006 3.343 2.736
5.006 7.707 9.025
5.006 10.715 8.133
5.006 6.812 8.786
5.006 5.807 2.911
5.006 7.661 8.93
5.007 8.125 9.209001
5.007 4.845 8.473
5.007 7.703 9.014
5.007 7.232 2.446
5.007 6.597 2.678
5.007 2.163 2.117
5.008 7.3 8.863
5.008 7.694 8.988
5.008 10.874 7.92
5.008 8.054 9.146
5.008 3.33 6.621
5.008 11.401 3.729
5.008 5.03 8.511
5.008 7.498 8.878
5.008 7.763 2.291
5.008 11.612 4.419
5.008 7.139 8.787001
5.009 7.256 8.848
5.009 7.366 8.874
5.009 3.272 7.126
5.009 10.523 8.338
5.009 7.682 8.957
5.009 7.87 9.058001
5.01 7.465 8.872001
5.01 11.471 6.511
5.01 7.97 9.072
5.01 9.697 2.242
5.01 6.977 8.758
5.01 8.851 2.132
5.01 3.348 6.178
5.01 7.748 9.075
5.01 6.939 2.553
5.01 3.351 7.88
5.011 9.691 8.852
5.011 10.949 7.799
5.011 7.056 8.752
5.011 11.644 4.831
5.012 11.086 7.553
5.012 3.609 8.124
5.012 7.714 9.038
5.012 7.11 8.768001
5.013 7.808 9.075
5.013 9.269 8.984
5.013 4.183 2.953
5.013 9.396 2.173
5.014 7.769 9.079
5.014 7.833 9.068
5.014 8.135 9.213
5.014 9.431 8.938001
5.014 8.212 9.238
5.015 7.399 8.873
5.015 8.107 9.190001
5.015 8.419 2.158
5.015 7.191 8.816
5.015 11.325 3.577
5.015 7.546 8.885
5.016 7.323 8.866
5.016 4.93 8.479
5.016 8.706001 2.138
5.016 11.57 5.856
5.016 6.729 2.635
5.016 7.082 8.756001
5.017 9.876001 2.306
5.017 3.925 8.245
5.018 7.59 8.895
5.018 2.134 2.106
5.018 4.886 8.469
5.018 3.299 7.734
5.018 2.171 5.709
5.018 7.167 8.801
5.019 3.062 5.814
5.019 7.989 9.083
5.019 7.522 8.878
5.019 3.837 8.216
5.019 11.637 4.935
5.019 11.557 4.231
5.019 3.759 8.187
5.019 8.149 9.219
5.02 7.233 8.834
5.02 7.435 8.868
5.02 6.087 2.864
5.021 8.029 9.119
5.021 11.593 5.603
5.021 2.662 5.741
5.021 5.647 2.95
5.021 7.906 9.047
5.022 8.002 9.093
5.022 9.970999 2.347
5.022 2.979 5.791
5.022 6.188 2.839
5.022 8.072 9.156
5.023 5.563 8.673
5.023 3.276 7.204
5.023 8.178 9.23
5.023 7.279 8.851
5.024 4.822 3.004
5.024 7.446 2.378
5.024 8.385 9.196
5.024 7.934 9.051
5.024 3.261 5.919
5.024 7.498 8.871
5.024 3.316 5.99
5.024 7.854 9.057
5.024 7.347 8.866
5.024 3.141 2.686
5.024 4.575 3.001
5.025 7.607 8.897
5.025 7.726 9.057
5.025 8.012 9.102
5.025 3.207 5.872
5.025 7.695 8.998
5.026 9.11 9.014
5.026 8.071 2.236
5.026 4.087 8.269
5.026 8.510999 2.155
5.027 5.772 8.739999
5.027 7.139 8.781
5.027 10.27 2.49
5.027 7.878 9.05
5.027 4.666 8.401
5.027 6.663 2.668
5.027 3.315 7.755
5.027 8.935001 9.049
5.027 3.286 7.599
5.028 7.671 8.939
5.028 5.192 3.004
5.029 7.754 9.072
5.029 7.62 8.899
5.029 6.431 2.763
5.029 7.958001 9.059
5.029 7.373 8.866
5.029 2.863 2.564
5.03 2.134 5.699
5.03 8.738 9.088
5.03 3.361 6.074
5.03 9.288 2.167
5.03 10.34 8.475
5.031 7.634 8.905
5.031 7.208 8.819
5.031 3.374 6.417
5.031 3.503 8.019
5.031 7.649 8.916
5.032 8.092 9.169
5.032 3.33 7.783
5.032 2.468 2.348
5.033 5.971 2.9
5.033 7.533 8.874
5.033 7.037 8.746
5.033 2.25 5.696
5.033 7.683 8.966
5.034 7.306 8.853001
5.034 7.569 8.883
5.034 8.602 2.153
5.034 7.788 9.070001
5.035 8.156 9.215
5.035 7.688 8.98
5.036 7.517 2.365
5.036 3.667 8.116
5.036 8.543001 9.142
5.036 8.215999 9.229
5.036 10.381 2.565
5.037 2.89 5.757
5.037 7.184 8.804
5.037 7.979 9.070001
5.037 4.298 2.996
5.038 8.112 9.184
5.038 4.986 8.472
5.038 7.697 9.007
5.038 6.148 8.815
5.038 9.931 8.733
5.038 7.255 8.835
5.038 2.733 2.507
5.038 11.271 3.523
5.038 7.414 8.86
5.038 6.828 2.615
5.039 4.833 8.435
5.039 7.812 9.063
5.039 4.157 8.266
5.039 7.434 8.858
5.039 7.737 9.062
5.039 7.364 2.418
5.04 3.376 6.509
5.04 8.045999 9.126
5.04 5.067 8.49
5.04 10.625 2.754
5.04 7.998 9.085
5.041 7.767 9.068999
5.041 7.602 2.347
5.041 2.536 5.706
5.041 7.45 8.855
5.041 7.598 8.888
5.041 7.006 8.745
5.041 8.135 9.199
5.042 10.845 2.967
5.042 7.161 8.789
5.042 3.286 7.501
5.042 7.392 8.86
5.042 9.180999 2.163
5.042 10.78 8.015
5.043 7.473 8.856
5.043 11.355 3.67
5.043 7.835 9.055
5.044 6.968 8.748
5.044 7.122 8.765
5.044 2.171 5.685
5.044 11.416 6.656
5.045 7.506 8.862
5.045 7.098 8.754
5.045 3.335 6.82
5.046 6.293 8.821
5.046 5.678 8.698
5.047 8.069 9.143
5.047 7.011 2.551
5.047 8.192 9.221001
5.047 4.438 8.312
5.047 11.004 7.662
5.047 7.283 8.841
5.047 7.883999 9.041
5.048 9.589 2.236
5.048 7.373 8.857
5.048 7.334 8.852
5.048 7.541 8.868
5.048 7.858 9.047
5.048 7.143 8.776
5.048 4.227 8.268001
5.049 7.225 8.818
5.049 7.7 9.015
5.049 6.537 2.737
5.049 4.379 8.298
5.049 5.509 2.999
5.05 3.291 7.288
5.05 3.308 7.052
5.05 7.676 8.952
5.05 11.241 7.16
5.051 10.191 2.466
5.051 9.785 8.791
5.051 11.564 5.726
5.051 4.306 8.280001
5.051 7.748 9.063
5.051 7.159 2.502
5.051 7.656 8.919001
5.052 3.319 7.666999
5.052 6.018 8.789
5.052 2.963 2.644
5.052 2.592 2.443
5.053 11.329 6.931
5.053 11.592 5.389
5.053 6.723 2.665
5.053 7.356 8.853001
5.053 7.066 8.743
5.053 5.475 8.623
5.054 11.023 3.182
5.054 3.805 2.936
5.054 3.568 8.026
5.054 11.324 3.621
5.055 7.947 9.045
5.055 5.342 8.575
5.055 7.589 8.879
5.056 4.627 8.357
5.056 8.178 2.233
5.056 7.197 8.802
5.056 6.932 2.588
5.056 7.174 8.79
5.057 7.968 9.056
5.057 7.566 8.87
5.057 3.365 7.791
5.057 4.789 8.403
5.057 4.958 8.447
5.057 11.412 3.86
5.057 8.172 9.212
5.059 9.073 2.166
5.059 7.988 9.072
5.059 6.936 8.747
5.059 10.434 2.62
5.059 7.43 8.847
5.059 4.869 8.421
5.059 7.614 8.887
5.06 7.687 8.986
5.06 3.415 2.84
5.06 11.603 5.168
5.06 4.505 8.314
5.06 8.081 9.147
5.061 3.338 7.714
5.061 7.723 9.048
5.061 7.775 9.06
5.061 8.121001 9.179
5.061 7.696 2.339
5.061 8.010999 9.09
5.062 3.728 8.106
5.062 7.669 8.941
5.062 7.403 8.849
5.062 8.612 2.172
5.062 7.759 9.06
5.062 3.33 6.944
5.062 7.265 8.828
5.062 8.23 9.214001
5.062 7.68 8.968
5.063 7.793 9.057
5.063 8.156 9.202001
5.063 4.412 3.041
5.063 7.156 8.777
5.064 7.519 8.853001
5.064 7.315 8.841
5.064 7.66 8.924
5.064 7.636 8.901
5.064 7.707 9.026
5.064 7.239 8.817
5.065 7.734 9.053
5.065 8.140001 9.191
5.065 8.352 2.204
5.065 9.776 2.303
5.065 7.922 9.033
5.066 7.376 8.848
5.066 7.816 9.05
5.066 4.807 3.054
5.066 10.416 8.388001
5.066 2.134 5.664
5.066 3.442 7.888
5.066 2.73 5.697
5.066 7.028 8.736
5.067 7.549 8.86
5.067 7.137 8.765
5.067 2.171 5.661
5.067 8.272001 2.221
5.067 7.485 8.845
5.068 11.531 5.925
5.068 11.603 4.659
5.068 4.042 3.006
5.068 10.102 2.436
5.068 8.824999 2.169
5.068 8.047 9.116
5.068 10.555 2.721
5.068 7.581 8.869
5.068 11.364 3.74
5.069 5.029 3.056
5.069 7.117 8.753
5.07 7.839 9.041999
5.07 3.423 6.337
5.07 5.132 8.482
5.07 11.605 5.034
5.07 3.637 8.043
5.07 7.663 8.931001
5.071 7.902 9.028
5.071 7.864 9.035
5.071 11.509 6.08
5.071 11.36 6.798
5.071 3.237 2.792
5.071 8.093 9.152
5.071 10.309 2.547
5.071 10.692 2.842
5.072 7.29 8.83
5.073 5.94 2.948
5.073 7.885001 9.03
5.073 7.093 8.742
5.073 7.178 8.784
5.074 2.134 2.156
5.074 8.654 2.178
5.074 10.494 2.678
5.074 7.956999 9.044
5.075 6.63 2.718
5.075 9.48 2.228
5.076 5.622 3.012
5.076 7.973 9.055
5.076 4.237 3.04
5.076 7.449 8.836
5.077 11.48 6.247
5.077 7.8 2.327
5.077 8.587 2.184
5.078 6.9 8.746
5.078 7.744 9.05
5.078 3.413 7.828
5.078 8.444999 2.2
5.078 7.208 8.797
5.078 9.859 8.744
5.079 7.597 8.869
5.079 3.305 5.836
5.079 8.177 9.203
5.079 5.065 8.454
5.079 3.321 7.527
5.08 7.711 9.03
5.08 8.959 2.176
5.08 10.063 8.625
5.08 5.014 8.439
5.08 6.785 2.664
5.08 7.252 8.814001
5.08 3.794 8.107
5.08 3.4 7.798
5.08 3.408 5.971
5.08 7.574 8.861
5.081 2.233 2.238
5.081 6.849 8.753
5.081 8.281999 9.192
5.081 7.417 8.836
5.082 8.106 9.157
5.082 2.639 5.667
5.083 7.154 8.767
5.083 3.5 7.919
5.083 6.357 2.839
5.083 7.35 2.455
5.084 3.367 5.887
5.084 6.096 2.921
5.084 7.685 8.987
5.084 7.549 8.851
5.084 7.384 8.837
5.084 7.508 8.837
5.084 8.195 9.204
5.085 6.732 8.768001
5.085 5.903 8.746
5.085 6.239 2.881
5.085 7.76 9.049
5.085 2.496 5.653
5.085 7.348 8.835
5.086 7.659 8.929
5.086 3.452 6.234
5.086 3.379 6.728
5.086 7.778 9.047
5.086 7.315 8.829
5.086 6.464 2.8
5.086 7.981 9.058001
5.086 7.271 8.817
5.087 11.47 4.095
5.087 7.095 2.548
5.087 7.133 8.753
5.087 2.958 5.707
5.087 11.157 7.296
5.087 8.027 9.093
5.087 7.67 8.95
5.087 7.8 9.043001
5.087 4.929 8.408
5.088 7.618 8.881
5.088 9.357001 8.916
5.088 3.318 7.386
5.088 7.729 9.04
5.088 3.248 5.783
5.088 11.596 4.778
5.088 11.179 3.441
5.088 8.122 9.167
5.088 7.936 9.028
5.088 3.064 5.724
5.088 11.442 6.421
5.089 7.475 8.829
5.089 7.872 9.025
5.089 4.161 8.207
5.089 7.823 9.037
5.09 7.231 8.801
5.09 9.949001 8.688
5.09 8.722999 2.187
5.09 3.433 7.828
5.09 2.796 5.677
5.091 6.719 2.696
5.091 7.113 8.741001
5.091 7.717 9.032
5.091 3.402 6.619
5.092 7.904 2.316
5.092 3.635 2.96
5.092 9.989 2.404
5.092 7.948 9.033
5.092 2.875 5.687
5.092 5.395 3.06
5.093 5.726 3.016
5.093 9.37 2.219
5.093 6.55 2.767
5.093 8.085 9.135
5.093 8.87 9.022
5.093 3.863 8.116
5.093 8.553 9.102
5.094 7.289 8.818
5.094 9.523 8.861
5.094 7.175 8.772
5.094 7.848 9.028
5.094 10.497 8.289
5.094 2.171 5.63
5.095 7.251 2.499
5.095 7.076 8.729001
5.095 7.643 8.903
5.095 6.999 8.728
5.095 8.003 9.071
5.096 7.045 8.727
5.096 4.061 8.175001
5.096 8.057 9.113
5.096 4.665 3.096
5.096 7.96 9.039
5.097 11.274 3.59
5.097 7.551 8.843
5.097 11.592 4.962
5.097 3.425 6.541
5.097 3.514 2.936
5.097 8.136 9.173
5.097 7.527 8.832
5.097 4.848 8.375
5.097 7.893 9.018
5.098 3.335 7.123
5.098 4.601 8.301
5.098 6.557 8.783001
5.098 7.675 8.965001
5.098 3.951 8.14
5.099 7.097 8.732
