17.537451 -74.926628 -11.907619
16.344142 -34.321920 -29.341645
19.036948 -43.992520 19.397448
5.411516 -95.899966 -1.537895
12.020324 -76.069654 -42.117607
3.621750 -86.750238 49.225868
11.412399 -19.854401 52.864697
8.332666 -90.528026 -1.087351
15.866155 -61.599328 -42.579100
15.677426 -76.728513 16.119146
11.203363 -21.299972 56.547414
15.111036 -76.885061 -18.330407
13.228890 -28.731669 53.067822
14.849365 -32.319876 45.954378
14.860948 -29.866944 42.267334
12.696113 -66.300984 -50.227811
16.471238 -64.868911 38.301606
12.711304 -77.784623 33.462681
18.575244 -45.937503 28.082197
5.772882 -92.508055 -17.608430
19.031291 -41.571832 12.149495
11.931102 -35.434590 -59.484492
19.530632 -46.108748 -9.453688
18.928577 -40.766792 11.514021
14.356731 -71.563553 -39.994158
4.766435 -88.129642 -42.706874
13.437218 -61.034721 54.027004
18.896045 -39.818549 3.674769
17.680248 -74.741264 12.072104
17.644254 -38.970719 -23.492081
15.830894 -73.797883 -26.897551
17.019005 -38.083854 -28.819771
15.975740 -38.986654 44.599140
13.584804 -24.886153 -37.744170
17.592169 -33.091782 -4.442367
14.934911 -62.419321 -45.666857
14.211433 -66.672156 -45.207812
14.820614 -27.815301 38.900753
11.930818 -25.662125 -51.269074
8.491550 -89.120206 -13.469844
5.479376 -93.096798 -28.740796
17.048133 -49.759112 42.343239
18.201921 -47.020614 -27.684149
7.213824 -77.824455 -52.395150
8.943788 -71.347861 56.626218
11.230658 -85.646302 11.153321
4.687891 -97.676998 -5.236274
13.169029 -76.347580 -31.882479
13.680943 -48.414695 57.969440
16.989925 -41.490981 -33.282371
6.977133 -76.408322 55.577038
8.346011 -25.217370 -68.632768
6.195364 -91.373017 19.299029
19.495037 -44.831788 11.578772
17.347557 -74.504857 15.740880
11.829504 -31.512325 -57.726578
16.044110 -68.868210 38.750366
16.677019 -67.423804 34.375351
8.289875 -86.994090 24.823993
7.441082 -88.322996 24.397729
12.932386 -41.041629 -57.022883
19.897460 -66.908061 7.743204
19.624186 -54.732381 -17.848627
1.793666 -100.058199 20.297829
7.248434 -92.008329 1.496092
6.296753 -91.296232 25.435535
8.934969 -28.908944 -68.476439
10.870129 -63.690974 58.409520
19.078795 -67.164338 19.073129
16.139653 -63.489583 43.141546
14.984847 -65.127499 -43.706978
15.057772 -20.920132 2.467091
18.341900 -36.627211 5.015022
12.725507 -33.815179 59.872530
17.292018 -62.108383 -33.009004
15.956757 -73.197643 28.343130
7.700025 -27.625883 -72.152585
15.977765 -77.496192 -6.126650
17.891701 -56.011095 -31.960486
18.201355 -66.161703 27.296336
17.624072 -34.075067 16.135154
15.611130 -44.346716 -45.198881
15.508562 -73.790542 -28.311310
8.522284 -24.534425 -67.466528
16.088031 -58.902148 45.972640
9.964114 -68.691629 56.947385
17.174283 -52.057539 42.433295
12.077508 -30.723287 -55.847059
6.084473 -11.518806 -64.348934
19.794100 -68.266345 2.934139
3.995347 -92.553291 36.720210
15.986376 -67.832603 37.063258
5.222865 -94.385859 24.010389
13.069850 -75.750103 -31.216937
16.035171 -40.418339 45.387155
7.564191 -19.897840 72.977445
16.704537 -53.758708 -40.249695
20.498885 -60.348588 5.777299
13.967969 -78.823558 -19.573262
4.932570 -16.790759 -74.848203
19.498716 -69.769693 -1.589102
11.960045 -45.843544 -60.837846
5.586117 -95.378683 3.148214
18.834282 -69.564818 16.926785
19.802443 -65.066184 -10.912053
15.929072 -74.391348 -21.432449
20.309032 -54.718236 -7.235682
8.430603 -16.803548 66.240949
4.563210 -97.914618 -5.997919
5.678635 -95.042744 -0.303919
16.296553 -29.624452 25.194644
6.384188 -12.091897 -63.664058
7.058968 -90.516242 -25.975566
17.768312 -35.269795 -11.572044
20.535255 -59.459490 -1.205843
13.697695 -77.319285 26.895672
18.686262 -50.899277 29.958422
17.292459 -32.361586 16.196266
18.828529 -49.308929 28.014652
6.629063 -91.899411 -27.788301
12.497790 -80.361723 -33.495763
11.756419 -28.641528 61.354395
11.014887 -29.545741 -60.236817
19.739541 -47.074590 -6.946226
13.723655 -27.555372 48.028876
4.100539 -97.337721 20.078228
9.836413 -87.687137 11.641441
2.738054 -97.787155 -24.229454
3.960575 -98.756645 -10.516007
18.993238 -62.423510 -21.882238
14.087787 -47.464184 -53.013459
5.937869 -93.813559 7.843369
15.226044 -78.950374 -7.128809
8.901332 -89.754352 0.084545
13.638667 -22.226932 38.611361
19.150379 -42.702395 -7.822914
17.112937 -48.658706 -36.512932
12.552073 -23.169157 50.054037
14.659357 -75.518561 -24.792195
13.952517 -39.319530 -51.749012
18.300526 -73.735535 -6.997135
7.713833 -90.089710 -28.230316
19.010036 -61.474601 25.670277
12.175657 -79.636150 -36.042514
4.571654 -92.372787 35.329235
19.269282 -68.121203 -12.381978
11.648163 -80.349400 -27.129204
20.383607 -57.276526 -6.875309
18.968869 -41.120077 -6.160786
13.559064 -26.209102 -40.392798
9.500794 -88.733648 -4.664190
17.656259 -38.772489 -22.972459
18.108570 -41.718551 28.254458
11.796284 -25.227471 -51.545685
5.917161 -92.287937 -15.523795
14.961632 -74.070105 -26.507057
20.192756 -65.110598 5.075753
6.343740 -90.380360 -21.564420
20.494588 -55.688142 6.267761
11.321735 -82.231472 -23.644175
2.976701 -100.513190 5.300142
13.335010 -33.176554 -50.964193
15.754411 -24.331080 -4.127999
18.678880 -62.333963 27.557744
9.864167 -19.580650 62.185380
17.767473 -57.563370 -32.371203
14.461896 -65.495738 47.737448
9.229928 -74.770666 53.101384
16.475251 -73.521863 25.513452
18.610643 -38.408427 8.711321
4.670499 -95.662631 24.291951
7.581944 -89.420862 19.589942
13.773354 -61.155318 -50.335241
18.421141 -41.015191 -17.257882
14.930165 -69.717376 -39.909172
5.844483 -92.504161 -15.687991
16.987031 -42.940681 39.520087
20.074563 -50.293262 -6.307771
16.189682 -69.199676 34.537161
16.379881 -31.930149 30.443543
16.071468 -43.105630 -40.987678
11.116439 -83.526972 -31.290211
10.464489 -68.929266 56.021993
17.379173 -74.871927 8.726144
18.062366 -35.329753 -2.334965
12.144764 -84.825762 -2.523423
11.225707 -33.248952 -61.520562
7.340783 -12.280198 65.760256
13.319911 -77.943647 35.123103
1.972865 -89.728367 47.848834
9.177276 -15.898806 60.973255
15.149623 -26.326074 -24.772562
15.699874 -64.907246 -41.173186
7.568688 -20.863522 -68.383437
19.930115 -53.584306 -13.383802
11.284178 -71.666091 51.356890
13.234072 -31.568332 -50.035961
14.709042 -67.137755 -43.114501
19.125000 -71.469923 -1.312642
8.213300 -12.098023 60.659705
17.926612 -74.893628 8.123432
14.726862 -31.877583 -39.974698
19.161182 -68.283422 16.146469
2.670610 -99.817631 -14.695410
17.390113 -74.920468 -13.271996
15.851106 -77.674386 8.664430
20.481777 -54.436846 0.233919
18.761615 -71.699606 11.463912
5.057931 -95.616850 -14.491930
14.296222 -27.449336 -36.302239
10.598074 -79.200927 43.584475
6.840105 -22.410411 -72.337841
12.316524 -42.550588 63.223011
15.383512 -24.126873 -13.464406
17.286817 -52.173917 39.719138
14.963784 -73.545715 -30.917790
2.936010 -85.825325 52.157586
17.064160 -74.274497 18.394333
3.912586 -98.203580 16.737680
10.156113 -85.424921 20.692427
14.044448 -77.236306 -23.732121
7.413223 -78.959831 52.190680
16.491795 -32.134465 29.496494
12.996601 -50.360350 59.842965
15.133797 -28.954051 38.037040
17.954009 -74.940085 -5.780363
16.233499 -74.148911 -24.029155
14.748167 -21.182061 -12.703431
13.134910 -53.480446 58.464384
14.317938 -65.851744 -45.494969
17.184353 -64.185993 35.004626
18.202224 -73.284455 -10.669187
17.669724 -50.980156 -33.383216
18.083117 -53.578458 34.726870
3.608956 -97.493909 -21.174189
16.675571 -39.972448 39.710953
15.286469 -46.845132 -47.633032
5.007135 -97.098332 0.593689
13.849159 -42.259974 -53.337630
12.498536 -45.744875 62.327876
4.572262 -12.833045 78.001733
3.361304 -88.905719 -44.769889
8.572793 -14.680724 -55.743280
4.423094 -80.823195 -53.339708
18.223801 -73.014968 13.715866
2.135138 -85.076367 54.084396
16.228816 -77.303923 -0.703521
3.368668 -99.765146 -8.463691
19.140758 -42.574052 -7.568656
18.143594 -37.065453 16.644514
3.181434 -88.675716 -45.605320
16.033751 -34.229419 -32.266259
19.210551 -60.236307 -21.294624
7.879900 -89.430847 30.736617
16.901839 -66.855841 33.896022
13.625110 -82.290250 -3.238482
2.177701 -101.518564 -1.212269
16.268663 -65.658948 -38.318567
18.996452 -66.768289 20.459576
20.176590 -57.269382 -10.952258
16.208808 -36.582454 40.075856
18.891369 -58.639319 -24.472239
9.131369 -85.623877 -27.593945
14.855951 -72.483011 32.841468
10.744168 -65.988074 -55.552019
17.771111 -74.958500 8.692660
9.272580 -84.055066 29.072872
17.002708 -31.965943 -14.313782
16.183553 -66.629610 -34.889804
5.002735 -96.775680 -6.662373
6.206216 -77.028772 56.002962
3.796219 -99.574100 4.346074
7.010963 -89.181494 35.162125
17.178119 -58.583474 40.698161
19.981147 -64.973218 11.313316
12.967123 -78.746366 34.721059
17.446537 -37.247656 28.614513
14.432698 -69.620393 -41.801889
13.377975 -76.970410 -27.522384
19.218709 -66.467663 -15.825128
17.175151 -75.159786 0.234323
12.409173 -36.529892 62.260528
15.302385 -43.319426 50.984064
18.475505 -66.181118 -22.499914
6.749370 -90.273194 -19.352177
6.760260 -92.592918 3.931175
15.099002 -27.547108 35.382362
16.668958 -55.283486 -39.468692
19.270950 -42.277653 0.543426
12.058210 -50.541201 -59.728102
18.161669 -64.274596 -26.448784
11.976169 -81.384800 -22.885584
19.380601 -65.716388 18.234082
19.980389 -58.067338 -13.846855
16.784096 -55.687750 -40.017974
4.389956 -98.475309 5.236892
11.812194 -79.020521 30.978164
2.300548 -95.764561 -32.496344
13.663768 -76.179542 29.649760
11.618901 -22.313601 55.311639
12.790418 -70.509911 -46.260626
16.516099 -65.038764 38.537605
7.089272 -71.849599 -56.524831
20.487634 -56.672436 7.505127
11.781755 -62.414644 -55.454204
16.503168 -28.115484 -7.099615
19.322131 -42.594481 1.212556
9.355328 -85.977512 -28.483329
15.309633 -22.100532 7.246690
2.838022 -84.314321 -52.187494
14.154632 -54.683134 54.768631
11.760777 -39.107746 65.036450
19.269146 -43.081456 -5.843100
11.523561 -25.262307 59.557451
14.606957 -74.443571 -35.057174
8.715679 -86.842767 23.299572
15.600751 -73.451208 26.414515
16.579065 -64.271426 37.837533
13.349048 -21.570422 40.015923
1.778632 -94.395830 -37.585367
17.569175 -73.251995 19.390121
12.759722 -83.264476 10.426114
12.681274 -78.996277 27.499634
6.893006 -87.043692 -38.942233
19.270198 -46.696251 -15.399213
13.934678 -33.009404 -47.103833
17.966105 -75.167475 0.540042
7.656556 -88.240196 -22.256576
14.402029 -73.480206 -30.606052
12.813372 -38.155673 -56.689661
13.789329 -75.698791 -28.445146
13.829002 -37.850596 -51.615471
13.140016 -47.433123 59.978619
13.375641 -25.814891 -41.198071
14.320618 -43.874300 55.656157
16.064868 -30.573243 31.140276
5.679909 -79.767535 54.528613
12.489209 -56.444243 59.118230
16.080620 -66.435245 -36.570000
19.884712 -63.204538 -12.205163
4.186556 -9.300543 76.110655
9.957369 -28.713065 -64.385312
17.858666 -62.867436 -29.359370
11.328746 -82.551014 -22.664558
15.239517 -71.835392 -35.560006
19.238619 -57.641976 25.507831
19.222773 -55.014071 25.952848
13.917117 -30.374416 -44.042002
16.089675 -71.229775 32.188809
10.175941 -82.412901 29.555845
17.914350 -58.952058 34.386734
20.204835 -54.644057 -9.436802
15.074371 -22.836509 20.729080
13.342513 -50.649071 58.659023
17.837929 -75.191258 1.403766
16.392293 -43.699550 -39.246266
15.398847 -45.417635 -46.719860
19.285169 -42.419634 -0.205346
9.381710 -66.856040 58.599464
16.734512 -55.579609 -38.540274
17.311157 -75.066688 -10.867931
12.202661 -43.851909 -60.099320
11.726714 -31.179667 63.091728
19.287063 -67.851877 15.580220
4.554507 -88.695941 -42.179966
15.672508 -78.108288 -6.469272
19.152912 -70.502770 -7.134531
5.982570 -92.342792 17.569512
4.362749 -97.363248 16.884016
15.727715 -24.728642 15.156454
12.546926 -53.277536 60.183452
10.036992 -22.250440 64.312782
15.054668 -42.523589 52.006064
7.886990 -73.709124 -54.586928
13.222616 -29.085498 53.503796
11.789987 -45.721913 -61.409033
12.066985 -80.349544 -25.300913
20.013199 -48.092004 1.105130
15.247101 -24.165700 23.182539
15.129272 -54.258213 -48.173564
10.004854 -85.767564 -31.233153
18.891569 -44.900973 23.154645
18.766700 -69.505189 17.745475
1.951912 -98.343214 26.853250
7.687743 -17.783373 -64.674529
4.815622 -96.263511 -14.594987
15.101320 -47.747130 52.506671
17.472316 -74.553017 14.967137
5.390464 -95.050693 -11.642270
15.338921 -61.466616 -44.709276
14.422205 -80.691437 -5.357258
15.353960 -76.000746 21.202819
14.130112 -72.822266 34.226291
18.337583 -37.194976 -5.355627
17.567474 -42.525364 -29.346189
15.195471 -78.820205 -8.627557
6.582561 -88.876795 -35.955706
5.158526 -95.407885 -13.952654
17.965693 -40.651346 28.321098
14.593597 -30.741824 -39.368029
12.597487 -49.314917 61.282064
13.090648 -30.529083 -49.825753
18.639229 -69.060003 19.839199
15.594359 -28.003442 30.542133
1.749345 -3.632094 79.405689
12.774963 -78.623680 27.986098
15.695143 -76.503559 -15.152139
19.493648 -44.978712 -6.829283
11.858069 -63.737355 -54.399837
10.047996 -72.469214 -51.791032
15.943533 -32.975609 -30.949569
17.067062 -66.733096 -30.540564
2.528617 -85.264352 53.449546
3.998593 -86.744905 48.384274
15.708894 -35.317586 -36.755585
18.551845 -72.883404 -7.101838
10.391623 -17.241475 55.509264
6.568636 -92.624720 -6.229668
18.980073 -40.805606 -3.834410
18.049133 -39.538975 25.284738
16.908126 -74.661507 12.813082
5.147351 -9.149346 72.044651
3.439168 -11.403416 -75.306389
18.238188 -41.148469 25.777268
17.444357 -41.464792 -29.291226
15.361907 -73.219428 28.150529
10.633436 -31.158317 67.532082
6.707999 -92.046208 11.454877
18.919594 -43.735990 20.803218
1.983819 -98.521594 -24.801345
20.242746 -50.962705 6.517924
14.989592 -78.294033 15.544409
18.434934 -59.597147 -27.459229
18.279489 -36.857916 11.560503
15.800104 -29.661237 -25.406953
12.489665 -77.115378 32.375069
13.565646 -82.311436 -4.571292
18.242887 -38.128697 -12.292938
15.470615 -72.669026 32.177969
4.080946 -6.129595 73.046147
13.304351 -64.233055 52.316561
14.842649 -34.804604 -42.744674
9.416125 -81.140641 43.901839
11.707724 -65.967077 55.424300
2.182496 -100.342139 -14.940870
2.705891 -92.391453 40.847474
15.320652 -75.486802 22.921117
19.157242 -42.243988 11.212757
17.762740 -51.365450 -32.819308
12.540299 -19.512077 43.095548
12.312189 -23.045655 51.629674
7.904178 -87.007670 -25.193630
8.549671 -87.075416 -33.502422
18.820139 -39.464622 6.417148
20.554238 -56.514462 1.725187
18.008353 -34.989606 -1.719255
17.183946 -41.147328 36.625350
12.913325 -38.018835 -56.186767
3.032419 -100.534057 -1.620802
16.677633 -34.457135 32.320869
17.734718 -74.814254 10.905899
18.442906 -37.355156 7.823035
13.106341 -20.120821 -31.930788
16.767057 -47.496029 44.219642
18.895591 -40.093771 8.312923
17.705715 -33.260428 0.994718
3.788742 -16.777183 -78.485207
8.219268 -86.721903 -25.978913
11.861684 -79.217514 -30.249288
5.642226 -80.832694 53.572091
9.634513 -85.050003 -34.278754
12.216093 -79.575540 -26.572082
19.191691 -68.441920 -12.634840
12.636061 -24.932079 52.175804
19.663731 -52.256482 20.537031
9.919462 -26.687470 68.269436
15.355361 -23.758309 -12.283845
16.456001 -76.776750 3.291913
9.204829 -83.664948 -38.543210
17.293048 -70.136746 27.581872
13.784991 -81.995067 -3.422256
15.831064 -77.889435 7.032681
15.217101 -74.053597 -25.523760
16.199261 -26.624838 13.355540
16.866692 -47.773037 43.708634
12.815411 -81.405780 19.506971
8.472157 -86.764533 -23.283981
1.884196 -99.774265 -19.960483
4.581245 -6.484866 71.271807
19.054774 -66.755876 -17.025853
11.186115 -35.244764 -62.491286
17.174221 -72.099864 24.845850
8.917187 -87.812231 18.407716
16.279088 -47.217233 -42.519152
20.489018 -57.362199 7.737581
18.994109 -49.742717 26.630210
10.324057 -82.192540 -28.042452
14.535781 -80.727152 -0.682564
7.958717 -91.041717 2.331696
2.253478 -99.514470 -19.149000
18.228763 -51.668713 33.674934
18.449945 -55.892724 -28.254773
17.860344 -65.974343 29.633320
18.629831 -73.365715 1.524442
14.320994 -20.895988 -19.248423
15.536765 -49.893084 -46.798963
16.893084 -29.785267 12.444090
17.219716 -74.973411 -13.444169
15.455206 -71.589323 37.651752
15.357982 -22.834572 -6.501765
7.403777 -89.922154 -30.467903
5.252487 -8.147295 70.317271
9.277608 -27.846745 71.203523
16.794760 -65.177117 36.056971
18.271113 -74.239811 6.173419
18.375098 -41.385374 -18.718315
7.552808 -83.311168 45.405862
3.159478 -84.233703 -51.894944
4.880019 -96.955818 -8.202301
7.448995 -25.574674 -72.060953
11.991154 -78.610221 -38.431263
11.319689 -86.176492 2.590818
10.467545 -23.464338 63.355348
13.576785 -79.564850 21.175893
19.900434 -47.087461 0.477853
16.902759 -31.759137 -15.425931
17.782517 -60.136089 -31.335171
5.418552 -81.911199 -51.118921
7.298600 -90.211391 31.420713
19.502839 -69.203936 8.041778
12.110374 -75.977626 -41.959347
17.322358 -52.202472 -35.699952
9.781922 -86.330988 -17.910077
13.010602 -74.550847 42.900614
15.629567 -27.849512 29.643524
16.864755 -29.208758 -0.981883
12.682526 -73.883380 44.814998
4.502203 -97.050687 16.905688
15.870591 -51.666778 -45.271935
17.170194 -75.056142 -9.337448
17.252225 -46.652105 -34.885225
18.464171 -46.930779 29.977927
7.454576 -90.624905 14.401781
13.507981 -77.467592 -33.335860
7.413983 -16.919506 71.030007
17.419826 -33.260579 17.373054
20.127416 -50.405646 9.628904
3.010427 -7.629289 -73.152792
14.940504 -76.434307 -20.840112
7.931168 -72.453007 -55.324222
16.677877 -63.057781 38.410918
6.995726 -20.140272 75.165558
4.925288 -96.875452 10.457691
3.415238 -100.058990 -2.772077
16.931006 -31.590078 -14.254438
20.482315 -60.509817 -2.662893
5.433625 -81.985007 -51.000909
17.756604 -75.227203 -3.709082
4.593580 -90.898645 38.811367
9.519754 -88.494406 8.663213
12.633336 -48.477152 -58.294357
12.814169 -53.404347 59.472929
11.681019 -47.156982 -61.460711
16.952162 -29.501331 4.266109
3.856140 -98.934637 -10.485193
17.132589 -58.806411 40.424399
4.973851 -78.106965 -54.737780
8.321186 -88.295551 -18.582773
18.055745 -75.035552 -0.908848
2.368691 -98.903443 -21.400713
15.220004 -29.347670 37.943845
20.299815 -53.001874 9.634542
13.679649 -82.302462 0.720139
11.862148 -80.415383 37.407124
5.461996 -7.867018 68.959554
15.072136 -20.981713 4.307546
19.661457 -67.635780 -7.675493
12.398886 -26.860503 56.180582
13.078686 -31.122346 56.309624
11.020086 -26.144400 63.023280
12.133893 -28.640523 59.416049
4.156642 -15.030676 -76.044261
19.929011 -62.857231 15.301417
18.082802 -36.950756 17.594326
8.820698 -69.986371 57.563697
16.685651 -73.909840 -21.992417
17.417544 -74.541959 15.335550
7.412711 -90.551361 -13.800008
20.567784 -58.602379 1.178394
13.779926 -81.533149 10.064827
16.312169 -37.712622 -34.780439
8.756831 -27.759091 -68.568566
5.087685 -12.191273 75.610120
15.957027 -69.406541 38.415707
14.956200 -33.151280 46.172149
9.328036 -85.865894 -33.535590
17.244942 -75.109914 -1.830989
1.897092 -86.547791 52.954249
1.456328 -98.963870 -25.429402
14.844198 -38.284086 51.312077
15.745055 -72.997838 29.863729
13.046332 -26.812394 51.922570
18.290512 -37.154408 13.011565
12.164868 -64.027796 55.664284
20.391265 -54.225510 8.526141
5.319541 -96.227788 2.357875
15.472257 -69.984039 -35.477300
18.838855 -46.683651 -21.021793
14.258068 -20.938657 -20.357821
4.453776 -96.331591 22.400964
14.186132 -26.782920 42.914966
7.496245 -89.927130 -26.931881
9.236598 -89.282352 1.183984
19.832060 -53.754076 -14.882795
2.233888 -96.583112 -30.353412
11.758703 -59.838131 58.952121
7.048232 -17.283165 -67.033902
6.487129 -84.869057 45.531869
5.911938 -93.697018 -6.644386
9.415992 -14.704819 57.611701
8.815010 -24.776821 71.441766
17.465630 -32.110853 7.069361
6.500970 -92.498464 -8.557184
3.421901 -10.001194 -73.998925
5.265161 -94.583875 -24.042585
4.458102 -90.115683 40.915181
16.936005 -32.603784 24.330459
3.262954 -81.820636 -53.772529
13.811411 -29.828474 -44.073889
17.734250 -33.497094 7.395448
19.243060 -43.517004 13.924278
7.789180 -90.915822 8.628226
18.295352 -55.135617 33.144334
15.958855 -44.417782 -43.249305
6.096731 -85.995335 44.554092
13.407646 -31.147576 54.424608
16.165187 -59.518438 -42.315851
12.803896 -55.925725 58.502595
6.315165 -92.920569 -6.677755
17.586552 -35.330408 -15.415260
20.458811 -56.665991 -4.532417
15.112799 -30.538566 -34.523193
16.626059 -74.925529 -13.036439
7.267960 -88.681637 26.959944
11.780440 -25.210084 -51.623235
8.283327 -23.476487 72.649177
14.181845 -25.761693 40.987021
20.207660 -56.099191 -10.167929
17.515672 -63.853910 -30.620569
5.918260 -93.172678 -10.571616
14.753463 -21.638007 -14.753672
15.084183 -72.013989 35.308163
12.700588 -79.667745 35.757821
6.889240 -90.653249 18.284426
16.718914 -53.394421 -41.081281
16.175513 -67.484950 36.567838
19.775770 -51.259132 -13.764621
17.578403 -67.651599 -26.725821
1.499335 -97.245633 -30.955537
9.927954 -24.939230 67.121071
11.738345 -85.521327 2.569907
20.177002 -57.110689 -10.928624
10.647006 -77.268516 -44.573238
17.243246 -55.999610 41.726196
4.341092 -86.336001 -46.897668
14.434757 -25.460614 -30.816188
16.646716 -37.242570 37.062341
20.334593 -63.608196 4.952414
16.570365 -74.742252 -16.319492
19.790732 -65.289550 -10.727232
16.183194 -33.319333 -29.134731
19.876173 -64.215148 14.328172
16.358025 -26.943842 9.420574
16.265300 -74.756094 -16.875251
14.853262 -80.090235 -1.813894
9.545013 -88.736567 4.886035
16.068825 -56.375790 -43.756388
8.896209 -17.355528 64.552982
15.061461 -31.474038 -36.583644
18.187905 -44.719617 30.843430
1.517187 -92.400427 -42.584564
8.702443 -89.589265 9.317535
10.948029 -82.347843 -25.049590
4.515894 -84.224586 -49.813240
13.839526 -46.840742 -54.004283
15.300995 -53.975881 50.838846
16.347600 -42.851841 -39.065747
18.912883 -41.804695 16.181207
4.619709 -83.017318 52.763585
4.634122 -96.179320 -18.298959
6.817742 -91.937015 11.193544
9.432562 -24.893349 69.147934
20.370822 -52.493516 4.983224
18.223992 -71.960530 -14.676736
9.934041 -27.425671 -63.618092
16.014074 -76.157499 15.409469
12.857886 -76.969547 31.281862
14.375076 -73.491002 -30.429238
17.946020 -43.386232 31.917973
7.856995 -14.109494 -58.912854
8.639161 -88.067652 31.497483
4.595859 -97.375815 13.125015
16.800494 -30.760707 20.234538
14.508141 -30.651599 46.391553
14.361312 -74.079837 -29.186158
12.575765 -55.798389 -56.515999
15.381790 -30.029952 -30.919471
4.020153 -97.501603 19.845868
15.540724 -77.139135 -13.901141
20.111411 -61.223167 14.222226
16.659415 -54.810876 -39.538261
3.136070 -98.597237 -18.590223
8.149232 -88.953965 31.045307
7.866715 -87.635466 -25.641503
6.237216 -92.162186 14.955554
7.012297 -89.517688 -24.376109
13.978953 -29.728421 -42.690467
19.072045 -45.635741 -16.603323
17.059463 -43.765823 -34.619730
4.587151 -9.837631 -69.085660
20.446233 -53.945363 5.258531
16.721302 -74.860105 -13.751572
8.935570 -75.819356 -50.869107
11.182592 -86.065652 -6.693374
13.376657 -77.516425 37.132910
13.769047 -76.023091 35.040549
19.972108 -51.891654 15.668724
15.770391 -68.029908 -35.335163
16.956648 -29.836202 -3.403588
18.749448 -42.932817 21.888132
18.121588 -73.438259 -11.092693
12.865316 -79.359129 -33.999738
17.142634 -70.265206 28.253888
16.741907 -74.299713 16.930421
16.278587 -75.926116 -11.955738
13.460812 -55.964249 56.512628
15.189008 -64.652213 45.892744
18.010123 -64.444744 -27.266619
11.873513 -81.124700 25.661892
3.709073 -99.512431 -6.341384
8.924003 -89.165228 10.335567
18.822047 -44.831255 -18.771265
16.673355 -47.040856 44.620532
16.804381 -76.025083 0.988476
15.023748 -31.232906 -36.520512
14.957639 -32.181345 44.835866
11.878886 -85.317865 1.287850
15.959121 -40.311512 45.803097
12.546004 -38.811430 -58.072654
17.213452 -54.909366 41.347717
17.942534 -74.893161 7.986654
14.418065 -23.415228 -25.851448
9.123376 -15.757439 -54.160840
17.235815 -30.874710 4.101985
17.883952 -41.248323 30.098355
16.819114 -48.695193 44.177454
16.842110 -75.270613 9.970167
19.325847 -64.405128 20.445893
15.331457 -70.384563 -37.670758
20.237580 -62.363204 -7.307853
12.464149 -51.278249 -58.290176
17.426238 -58.254086 -34.115829
13.766044 -52.125555 56.872456
17.265357 -74.525568 15.133972
7.365174 -83.631762 -43.896444
19.366838 -70.384802 -1.788468
15.514404 -73.843156 -28.035735
16.671743 -55.320142 44.684526
15.987076 -25.343151 10.566477
8.762407 -67.385712 58.977022
16.787658 -75.482721 -7.488011
7.316072 -89.503583 -31.918874
16.469275 -27.919406 13.628443
19.386814 -67.635636 -11.906961
18.962081 -46.147167 23.901807
20.300414 -64.132567 4.290676
13.253302 -64.647176 52.162611
19.904553 -47.090217 1.050184
8.093983 -89.282562 -28.303270
5.551592 -95.416244 5.667887
17.012069 -61.682590 40.016730
7.892661 -79.481776 -48.790845
15.008170 -27.083225 35.321467
18.682723 -45.287333 -21.148840
14.704075 -21.456502 21.796404
16.329152 -73.111915 27.743470
14.847617 -33.750657 -41.510280
7.367458 -21.189624 -69.476722
12.294046 -16.844681 39.169276
6.060334 -92.244854 16.505988
5.702353 -94.759930 8.067764
16.210663 -74.462774 19.913879
16.749665 -74.960703 -11.663593
9.445890 -84.804401 -27.821318
15.645284 -25.195228 -12.955564
16.246692 -77.064779 -4.478170
16.894764 -63.084849 39.722058
18.885521 -49.508014 -23.045609
17.959069 -51.707918 35.557554
15.796260 -65.092098 43.297474
11.833938 -21.480394 52.556783
18.572915 -69.899283 18.762953
17.191812 -71.055608 -24.322162
4.555291 -97.135157 15.578515
19.267976 -44.051618 15.009173
18.529382 -73.126255 8.451160
20.118216 -62.641635 12.651959
4.735160 -8.980465 73.599547
14.782513 -73.994273 -27.483529
19.403644 -44.952649 -9.123937
8.572917 -20.954969 -64.050836
14.425663 -79.962572 12.626254
17.670635 -74.564591 13.811944
16.651923 -44.493209 43.538306
19.317268 -42.535523 2.113254
17.510010 -63.986522 33.469458
6.394871 -90.170566 23.455988
16.535445 -43.030712 42.703463
2.234782 -6.595154 -75.087155
9.209467 -85.003179 -35.850138
14.605212 -43.978818 -50.266091
3.344124 -92.787932 38.136253
13.893754 -71.587762 -41.588634
14.074505 -81.276902 7.578156
17.741945 -52.483867 36.977985
17.899106 -67.356517 -25.096985
19.105047 -46.680087 22.717587
6.607744 -91.139485 17.725744
16.747194 -71.005460 29.259670
6.318604 -90.628890 -21.990551
18.005060 -67.558991 26.892222
19.671981 -68.360689 7.658717
15.666847 -68.992265 -34.704211
2.183205 -94.852788 36.570579
19.456515 -45.931448 -10.616594
10.754386 -36.828755 -64.523096
16.038659 -61.962319 44.546727
17.014206 -50.006470 41.873506
19.105223 -41.378447 -1.954308
5.473045 -93.061269 30.158252
12.180992 -56.121360 -57.554439
15.611212 -72.270646 32.748766
15.903167 -30.842524 33.697171
18.356376 -38.892598 18.631023
11.142963 -17.475354 50.564577
6.186595 -81.178022 51.957157
16.762939 -73.896441 22.330510
12.209878 -60.483298 -55.391105
11.163706 -86.234499 6.421390
17.877959 -75.214714 -0.290755
8.513549 -81.461043 -44.336550
4.366819 -98.474095 -4.098514
16.824745 -37.123389 35.225676
19.029104 -41.017635 -3.078991
17.414822 -39.165286 32.188054
16.699513 -44.865259 -37.807484
2.130556 -91.493952 -42.876100
11.347559 -24.333798 -53.154290
18.464580 -73.235339 9.106241
19.998729 -49.475150 11.240901
1.173993 -93.605945 42.264402
20.413356 -56.215042 -5.664247
10.086672 -18.403244 59.287820
13.407268 -69.733422 -45.108703
12.626487 -77.768105 -31.263344
9.008339 -84.595419 28.953031
12.964814 -27.689393 53.573040
16.474169 -73.357055 26.310419
19.449428 -68.663503 11.221396
20.061306 -62.006973 14.282775
13.862271 -25.224044 42.897088
19.933258 -62.554741 -12.193964
13.869113 -41.394989 57.243004
14.673621 -73.398599 -36.555766
19.703300 -68.333816 6.883570
19.899185 -50.893063 15.871277
19.691805 -67.363812 -7.891590
6.699027 -89.687861 25.326704
3.760909 -99.630789 -2.943372
13.969974 -22.108244 -27.624336
17.024520 -58.063134 39.791134
4.820164 -96.075631 -15.688684
15.554028 -36.183945 45.039733
8.943528 -20.001242 -61.143978
19.696312 -62.806036 -14.942632
13.598447 -41.985730 58.457069
9.789273 -26.521687 -63.582012
14.393399 -20.671715 24.136189
19.983342 -48.249215 7.583663
15.137448 -71.552101 36.404436
11.317846 -85.986570 6.540539
7.707705 -84.464373 -41.518501
16.324956 -57.502043 -42.321818
2.055474 -83.073009 -54.000469
17.851184 -44.752611 -28.970324
6.474890 -90.262363 24.634806
18.259552 -38.862937 -14.360367
12.636061 -37.761638 -57.332878
7.946917 -70.768550 -56.280468
12.027432 -19.327811 -40.046673
7.162399 -87.161388 -37.886091
13.573861 -32.929570 54.944321
17.835713 -75.173093 -4.398999
17.572983 -69.714722 -24.058055
19.211716 -59.614663 25.047346
12.992282 -83.441483 -2.023885
4.733727 -11.379665 -70.263302
15.044664 -33.167547 45.488867
11.631984 -16.380931 44.312559
9.288294 -24.405520 69.415422
10.683475 -81.214127 -38.328357
20.087404 -61.139748 14.659231
16.212619 -53.711150 47.106462
15.786675 -38.707707 -39.881104
14.625531 -32.024311 47.271768
19.610769 -60.907496 -17.197510
20.504738 -60.224604 5.656901
17.049271 -57.405473 39.886042
19.055025 -59.426861 26.423828
12.432873 -79.732730 -31.855084
12.023131 -20.185168 48.866511
13.121509 -83.246015 2.696640
17.154579 -68.294586 -28.385709
17.010937 -75.330173 5.830555
19.079686 -69.674500 -11.084306
4.258479 -97.121537 -17.876537
17.182015 -66.727868 32.614951
8.145646 -80.482386 48.324137
18.543793 -50.737333 -26.813888
8.852022 -85.463768 26.943815
5.591348 -94.151537 -12.837788
10.050353 -22.840942 -58.728424
12.039842 -80.151522 27.478998
18.310135 -73.971128 -5.214629
17.188204 -33.768955 23.775156
15.778748 -28.027207 28.073821
2.851423 -8.054037 -74.199559
16.526217 -38.136669 -33.477108
11.949069 -35.882487 63.914827
12.920113 -45.351494 60.981913
11.334620 -86.162840 -0.704527
17.292604 -74.517157 15.510193
16.054612 -68.591852 35.869713
17.767294 -59.649825 34.907533
16.306412 -33.104278 33.847106
19.038986 -57.373381 -23.569820
18.707723 -39.292150 11.021332
11.217754 -61.374176 -57.181274
15.302475 -71.565830 -36.382122
10.968423 -83.249678 32.988327
8.880027 -18.132806 -59.069181
17.018957 -33.961400 26.894146
13.721057 -43.859762 -54.236572
10.268356 -87.680781 4.893441
11.596838 -17.152587 46.290516
13.218067 -29.905906 -48.294859
14.567010 -72.275630 34.201943
14.617104 -27.299153 -32.982254
15.171720 -78.793592 -9.155560
15.436891 -73.470535 27.174560
16.320000 -77.105473 -0.628151
16.586442 -61.156666 -37.060972
18.216636 -35.947604 1.063477
8.626718 -69.984158 -56.001626
17.418450 -54.163106 38.714281
15.824851 -34.664489 40.958522
17.603738 -38.934969 29.772079
15.571663 -26.070416 24.833385
4.326903 -97.830662 14.233675
17.915394 -34.415807 6.987443
16.278258 -27.400320 -9.273790
13.487014 -71.238820 45.434705
10.660543 -22.359590 61.155749
9.615648 -86.314677 32.610523
15.501923 -41.974587 49.455601
20.255907 -50.766760 0.458702
3.558077 -88.236427 46.844893
15.625289 -71.687284 -31.475572
11.691714 -34.488696 -60.104093
7.144552 -86.062801 41.556490
20.078998 -49.312677 7.869787
12.762283 -18.947128 39.655190
4.236620 -97.723852 16.260130
8.248813 -72.868845 -54.706586
19.298289 -47.836372 21.522807
10.843069 -81.862763 -29.310257
17.184864 -36.633699 30.601392
9.245799 -13.527175 56.682252
15.069042 -21.326432 11.056181
20.335820 -51.811575 3.910502
10.796928 -66.662501 56.957456
15.929976 -32.190398 36.124133
9.583775 -84.128223 -26.088107
17.049323 -30.039494 0.055111
16.115676 -73.787621 22.786110
8.113578 -17.792698 68.861884
13.118389 -21.593757 42.296432
12.773666 -78.868955 -35.223055
4.214768 -83.044160 53.442016
14.616759 -73.167372 -34.124398
16.587201 -40.515962 -35.572159
17.553703 -38.181949 -23.082128
20.159767 -52.427266 -8.080294
20.093946 -48.863033 1.987594
12.503024 -42.646672 -58.956740
14.691230 -68.164033 -42.274873
6.849949 -78.764907 53.700190
15.431242 -22.871104 10.666995
10.535871 -84.808131 -30.879760
19.634565 -61.951213 19.681086
16.827009 -46.836743 42.545356
14.930607 -57.217679 -48.113272
16.092252 -44.572398 -41.533986
3.937385 -8.366629 76.097769
15.496643 -26.473293 27.389081
15.598348 -44.224986 49.712161
15.049275 -50.007596 52.589346
5.725944 -94.885533 0.747154
19.302099 -42.991468 -4.116119
8.524950 -87.425777 -32.749494
7.100076 -91.247596 -12.117793
13.117466 -20.046748 38.730436
7.562056 -18.450942 71.832141
12.386456 -22.067507 -42.408248
14.573002 -20.808299 -14.526288
17.824001 -33.880964 0.662883
14.164639 -23.190292 -28.232644
17.412728 -53.020897 -35.159321
9.139428 -31.255443 -68.683912
19.012612 -46.090885 -18.129906
14.034006 -28.092387 -39.708550
12.946375 -26.321694 51.953834
18.264449 -36.741096 -5.048776
2.298888 -89.297368 47.876046
7.535489 -81.944575 -46.143305
10.568306 -86.528323 12.126389
12.489864 -77.807864 30.983311
12.668606 -29.102467 56.873144
1.242936 -0.567713 78.483035
10.216311 -16.708370 -48.729620
10.159544 -87.873692 4.222799
14.429873 -57.870714 52.557848
15.648593 -70.079257 -36.319028
7.348350 -84.065512 44.661975
10.571756 -84.998812 19.866045
12.808881 -18.223397 37.348225
16.249138 -31.770943 31.693720
11.261902 -32.812289 -61.151187
11.297108 -25.484153 -54.888937
3.025740 -84.075547 53.966061
17.996064 -75.007208 5.274733
16.667667 -28.944315 14.216129
18.798237 -43.422138 22.069162
11.291303 -85.595689 10.818896
14.755463 -24.737391 32.343957
12.247428 -49.212501 61.800796
17.192301 -67.394338 -29.195764
12.679982 -84.015449 0.975885
13.670513 -21.187676 35.665890
17.437835 -71.343634 -22.264297
12.998112 -20.999755 -35.015767
18.020885 -53.265225 -31.281727
15.110786 -71.180108 -34.428732
16.555618 -76.591270 1.791948
10.139776 -19.429993 60.425250
17.019909 -35.648320 -24.407284
17.244870 -70.887015 26.646413
14.442612 -73.133405 -33.677903
15.205094 -24.830928 26.371679
18.082192 -41.588108 -22.826922
13.983972 -35.943563 54.709588
17.040556 -49.182435 42.802563
9.357030 -86.737487 32.683888
17.726219 -74.943897 9.022712
19.864991 -47.723128 10.254857
14.517940 -79.552148 13.926583
17.238210 -69.585303 28.731563
4.772967 -93.872726 30.411227
11.779816 -83.631159 -16.074028
18.544105 -63.704062 -24.324097
4.254551 -18.024932 -77.899983
17.064007 -51.664007 43.162451
10.814998 -16.683151 51.525766
14.134790 -25.306615 -33.511499
17.143560 -52.010067 42.690066
15.999141 -25.096247 5.545718
20.402452 -53.977753 7.677583
14.771140 -43.790638 53.653231
5.566322 -90.476691 -35.480058
8.558581 -83.610448 42.090564
6.530584 -82.705386 48.939454
7.454381 -77.367105 54.095478
13.209598 -36.609926 -54.097990
18.290730 -37.240716 -7.248136
7.858050 -89.343311 31.641954
7.806678 -19.960102 72.102284
11.870688 -79.095972 39.743560
19.884122 -53.117547 -13.746223
19.873500 -61.650975 17.180795
19.510929 -62.777502 20.259650
14.451699 -72.637226 33.207226
13.901938 -50.375202 56.840446
15.348877 -39.664216 -44.021141
8.301799 -87.740919 -20.818972
10.030890 -73.718322 52.342361
14.681525 -34.719071 -43.800678
17.832220 -41.786635 -25.882226
18.574276 -69.527546 19.516186
19.785135 -58.509141 19.898778
17.743673 -75.030302 6.965435
2.588112 -98.068334 -23.820398
16.935383 -46.659100 -37.028877
11.877240 -85.100766 -5.164683
7.802560 -81.113751 -46.714500
2.795795 -100.457947 9.309826
4.198982 -97.331367 19.159686
5.590041 -94.884601 11.045468
13.021477 -56.546079 -54.865270
8.237445 -20.716582 -65.352948
15.791738 -29.664290 32.307482
2.793211 -85.517750 -51.132079
19.866092 -65.032594 -10.008363
18.733622 -38.896869 0.501568
19.921013 -50.944094 15.529656
14.533506 -26.443987 -31.998909
6.512195 -90.248617 24.916978
17.050690 -56.638790 42.571393
20.343636 -52.572630 7.015565
16.647972 -76.197011 -4.071343
16.079039 -27.379981 -13.829630
17.113564 -67.177581 32.480597
16.788448 -59.228263 -39.438942
16.926286 -48.471221 42.149507
12.153728 -78.011154 31.803601
12.543402 -24.220157 -44.944334
20.470465 -61.973364 2.013975
9.819760 -20.634066 63.685490
13.070730 -61.383459 54.894577
7.285975 -91.943266 -1.126528
15.204392 -72.170605 34.609805
7.941716 -88.823833 -18.603901
10.425188 -84.547310 -30.193637
8.443331 -85.688330 28.176885
2.291919 -85.669891 53.342336
10.304826 -87.731046 1.502308
5.626730 -93.207168 23.522575
1.054536 -90.681236 -46.872277
19.022475 -40.644953 0.815799
6.952683 -22.444888 -71.962468
18.902123 -58.043771 -24.543420
11.212413 -70.890091 -50.362401
18.525809 -46.724325 29.241028
12.660065 -41.938550 -58.279006
14.157023 -30.035565 -41.773110
16.829215 -35.386049 -26.108046
5.108346 -92.350852 33.564319
15.950945 -29.564210 30.037895
15.247363 -73.910177 -26.862409
17.252187 -46.562628 -34.843466
12.947270 -38.442636 60.527783
17.541880 -36.649132 26.070819
13.969265 -67.308785 47.818066
6.164018 -91.506325 24.552617
15.530149 -23.001466 1.334957
15.966460 -33.844852 -32.265026
9.540125 -77.809897 -46.873569
17.618734 -32.885225 -0.482814
12.186213 -22.514656 51.695370
14.206953 -21.918851 -24.205129
15.561349 -34.239820 42.601357
18.219511 -37.694252 -11.193867
20.460794 -62.125610 2.592104
3.705869 -98.531482 -15.043448
16.841390 -31.040653 -13.840120
6.519598 -13.704923 -65.147081
19.782897 -46.793858 -4.502515
16.341320 -30.446698 27.049429
10.497904 -86.763387 11.195998
16.187598 -73.647896 23.950112
4.420369 -98.257630 8.035065
16.911883 -58.048193 -36.916851
12.263428 -55.096740 60.029526
6.996102 -90.925021 -29.232180
2.994950 -96.915060 27.573861
14.721419 -61.360229 49.740213
17.970602 -39.023513 25.315119
5.237506 -94.486515 21.472812
10.623729 -84.157345 32.913860
16.954750 -43.773759 -35.403276
2.829044 -100.752132 -2.241021
2.495942 -93.976984 -36.511281
1.625842 -3.482042 79.687974
19.714901 -46.980686 12.431506
9.014239 -89.029519 -9.028535
11.496797 -34.217778 -60.817662
5.728713 -8.681580 68.777817
11.029588 -21.415425 57.803412
16.128516 -38.939379 42.949884
18.400363 -37.474877 -4.835907
17.845988 -63.157604 -29.233018
11.513792 -18.410955 49.499047
15.004792 -32.066947 44.306218
14.021570 -25.969573 -35.942436
15.214582 -50.273094 51.885534
11.801281 -81.042359 -34.781089
13.434853 -32.898899 -50.120379
16.378405 -75.241965 15.784532
1.957339 -101.782871 -0.044598
12.237671 -84.571444 5.874499
14.599326 -68.323869 -42.454227
17.828260 -57.846606 -31.926894
13.719922 -32.460603 -47.914584
17.829581 -74.756366 -9.206587
15.553151 -66.357409 -40.637253
19.460703 -62.404837 -17.758499
3.252862 -98.623620 18.958783
14.958775 -26.257084 33.880512
16.653329 -55.575782 -39.247761
11.657878 -37.671143 -61.354882
17.623051 -33.700786 -7.617846
12.606278 -20.152783 -36.769045
16.725824 -45.567493 42.638590
20.541316 -59.762107 3.988791
11.806671 -59.075476 59.198378
5.803012 -93.250241 27.952213
2.942772 -94.741742 -33.173629
18.165253 -35.883254 -2.326585
18.302187 -55.955435 -29.282923
16.463689 -76.748890 -1.802755
11.139191 -86.219232 7.119029
18.460220 -55.322063 -28.222476
16.160533 -67.029173 -37.233369
19.275458 -58.707304 -21.262522
11.298902 -37.230522 -62.621571
17.140147 -74.342149 17.639484
3.760633 -10.158963 78.442649
11.078752 -58.879196 -58.381862
13.474384 -80.227213 -17.938364
17.701422 -38.043765 -20.902787
15.830628 -74.378972 -21.413419
18.552355 -46.640996 28.915033
17.989745 -68.187293 26.148781
3.764261 -84.480237 -50.907035
15.494336 -35.340383 44.393907
17.794688 -34.397625 -6.371032
15.450966 -74.903615 -21.933940
16.669323 -66.055592 35.826500
16.082218 -77.369521 -5.119516
10.491374 -19.014997 57.697661
17.549421 -74.278714 16.417257
17.094696 -37.217911 -26.591760
19.430835 -66.131997 17.055202
11.514351 -28.261485 -56.638810
18.324869 -73.068788 -9.883450
16.091664 -27.204882 19.620606
13.060582 -72.533959 45.292621
15.359695 -26.275269 -21.827476
6.205833 -92.947058 9.463837
13.267361 -78.023151 -33.010183
10.425388 -87.538862 2.386267
16.731397 -30.025122 -11.755606
17.600893 -37.475377 27.091584
8.092034 -16.543681 -61.102364
18.950976 -40.706087 10.297147
8.594424 -85.363182 28.289936
17.092061 -31.352443 16.215482
12.371525 -29.344442 58.731873
2.951173 -93.292573 38.100476
17.244669 -32.312528 17.173749
19.596719 -58.031562 22.052924
6.133179 -93.433023 -2.381163
12.817137 -30.098894 56.919471
1.151273 -5.148868 -77.632846
11.714874 -52.470308 -59.806191
14.957228 -69.202711 -40.326926
17.850675 -75.196286 1.638864
14.699880 -23.467776 -22.349097
17.460184 -75.002255 -11.823935
18.545177 -39.112889 -9.131395
13.730527 -44.199695 -54.246629
2.951817 -91.577413 41.927373
18.038790 -40.681118 27.494225
16.805933 -74.436180 -19.830845
20.354821 -58.460429 -7.557640
15.069750 -57.414690 -47.517147
5.567818 -13.745052 -69.455559
12.402312 -22.474549 -43.020825
15.584147 -70.329780 -36.114798
7.783584 -17.190546 -63.497137
5.175939 -94.758507 -23.901386
17.201373 -58.529691 41.099021
19.529749 -55.353129 -19.016363
10.384645 -73.230166 -50.147301
15.020650 -27.855752 -30.045794
13.436275 -36.780418 -53.041745
18.133940 -53.312359 -30.507081
3.369429 -80.810108 -54.408975
11.338273 -80.528912 -27.956987
18.549275 -39.457107 -10.420942
5.887068 -93.404319 13.822080
17.887086 -75.199606 -2.785480
14.720968 -26.719335 37.611234
2.250427 -97.567144 28.375826
16.190976 -75.185645 -15.821319
9.423323 -88.210112 -10.822383
10.052221 -87.188265 -11.494533
12.834424 -23.332967 48.143092
13.313933 -23.379195 44.208800
20.173681 -49.751433 1.035881
18.493461 -44.378522 -22.150458
15.516394 -35.891382 44.990076
17.202733 -40.566469 -30.447701
14.946339 -28.073286 38.158103
8.343396 -87.152867 29.191449
7.229817 -74.556113 -54.771165
14.466606 -22.227247 28.645427
18.797548 -66.498092 22.543340
15.006200 -72.920657 30.434966
10.501938 -33.427288 -64.507431
10.997120 -66.587772 -54.620214
11.776163 -36.615292 -60.583051
6.048992 -93.080067 -26.150865
17.015905 -35.801028 31.009685
10.473613 -64.038592 58.730063
16.441285 -74.227738 18.997176
16.309842 -47.411608 -42.363891
2.917639 -98.879229 -18.454212
10.422722 -77.870324 46.082046
14.776755 -73.420163 -32.004712
13.676207 -75.866646 -36.791187
7.829981 -86.800077 -36.559027
10.865526 -36.601863 -64.076702
15.723937 -24.057005 9.337497
3.141206 -98.623502 -18.424759
13.061981 -77.780513 -36.024412
18.351280 -74.150355 4.295136
12.697406 -81.486523 19.974390
5.990457 -93.358925 -7.476410
11.476378 -60.746655 -57.065238
3.828952 -98.253805 -15.700340
3.092079 -83.829310 -52.327440
17.154488 -64.645206 34.765261
18.180206 -40.295992 -19.198347
17.455346 -75.143821 -1.132175
17.105008 -32.282426 -13.524557
16.357448 -76.931463 4.646092
5.470139 -95.704349 -1.850481
14.706612 -57.102802 -48.983608
11.640783 -79.787401 -30.028463
15.348445 -46.717542 -47.302707
20.391705 -53.118361 -1.703419
11.173660 -85.399010 -11.986084
17.331077 -58.239928 37.939804
14.346090 -72.727699 33.391878
16.733773 -53.356636 -40.762364
19.956043 -63.243746 -11.139822
17.583057 -33.238234 12.509086
2.646286 -84.659064 53.876099
12.333850 -25.884146 -48.944261
16.172817 -27.939351 21.178804
18.261535 -66.245246 26.796701
7.425908 -14.142506 -61.249119
17.549838 -59.203466 36.332759
16.092730 -74.965635 19.242719
17.496806 -57.383726 37.391010
3.515100 -92.034462 -38.077048
18.716682 -48.420742 28.568751
5.805198 -13.540355 -68.196641
13.864018 -48.927489 -53.849852
5.071922 -95.861947 15.557889
12.834723 -83.163681 10.223881
13.697663 -77.297993 36.103308
16.566149 -27.687848 1.698836
8.808708 -87.549072 -18.779262
2.438940 -8.549237 -76.188316
12.061328 -57.783266 59.345818
16.392834 -29.502125 -16.357337
17.254520 -59.493241 37.750976
7.672448 -91.335792 -3.655196
15.345821 -24.919854 -17.466755
4.577315 -92.145680 -34.587580
20.361617 -62.770334 6.552131
16.984042 -59.518450 39.745133
17.661261 -75.107666 -8.718848
14.179511 -43.117588 -52.047383
16.519853 -62.842801 -39.161393
2.857254 -100.701746 -2.833552
14.574835 -56.386526 52.699626
17.724956 -63.615250 -29.614309
13.018739 -56.357351 -54.948833
15.487221 -72.957211 29.659408
17.896914 -75.123764 -5.011122
15.863796 -72.837264 30.461717
3.970404 -93.472170 34.446457
17.602804 -75.152033 -8.411376
13.207262 -24.039133 -39.375871
6.358129 -92.158801 -12.510511
13.764740 -73.806546 33.846484
9.157586 -87.466348 -16.997901
11.600364 -84.353568 -14.030351
16.627818 -51.471819 -41.433714
16.266848 -26.942255 -6.588563
10.800560 -26.559943 -58.760562
16.366610 -34.049069 -28.592498
12.201414 -59.496563 58.353858
19.109234 -46.323934 -17.156144
20.114494 -49.103815 1.158658
12.745645 -79.766564 25.179001
19.589304 -46.083848 13.146141
13.608350 -46.916802 -54.913293
17.230718 -31.071581 -2.282243
15.288961 -72.678585 32.070090
13.540185 -82.441222 -3.222614
15.680487 -58.675720 -44.659071
20.262266 -53.430168 11.288390
16.076419 -69.347084 -32.521536
16.288073 -74.639155 -17.790025
8.877617 -24.744583 71.192845
18.336939 -61.061139 -27.444120
15.500350 -28.181384 32.205823
13.910191 -28.802130 48.406374
17.003820 -74.660934 11.898325
19.502953 -44.294437 8.646921
18.762650 -72.093191 -7.228550
17.477529 -75.135565 -9.016402
15.542793 -34.538947 -37.084165
18.119459 -35.673701 9.119162
7.920146 -87.984809 -21.867631
7.266450 -10.512513 63.526924
7.359279 -12.171905 65.508840
16.541973 -31.427558 -20.240629
14.060091 -43.484819 -52.679611
14.973737 -75.107531 25.869657
8.109044 -86.345459 27.532960
19.535525 -47.774367 17.857741
11.582993 -84.089910 16.915254
14.476033 -73.548264 -29.916029
3.778476 -89.525764 -42.582429
18.354866 -71.235763 17.709892
19.748616 -67.197348 -7.258281
20.046983 -55.552684 16.670274
12.598190 -48.660266 -58.383906
20.478523 -61.740887 0.450631
1.170222 -94.020092 41.383315
12.743080 -40.465241 61.638767
13.248988 -81.953359 -11.994479
8.256129 -86.039416 27.902820
10.937762 -83.535797 -30.729146
16.028006 -44.529434 -42.748792
13.188501 -81.392763 16.862295
15.164857 -72.776422 30.637218
20.448903 -61.910636 4.882778
14.565054 -42.690579 54.395708
4.170980 -98.108435 -12.405166
14.246232 -34.190993 51.989943
10.730406 -17.282775 53.240212
18.509098 -60.743054 -26.447527
3.695182 -99.216794 -9.999881
20.143393 -54.130382 -10.233117
16.332803 -26.748989 8.341537
18.105435 -71.618018 19.042111
18.688079 -39.308830 -5.823620
8.420205 -88.854585 -29.221995
12.417405 -31.809762 -54.934800
15.566940 -35.923915 -38.647974
14.645094 -62.534240 -46.627313
11.066121 -81.060451 -37.335384
12.074645 -29.310779 60.258434
12.714881 -46.717602 61.510281
15.326469 -73.517482 27.645639
14.190353 -75.065932 -28.007431
8.080553 -87.882618 34.615122
15.309112 -75.883341 -20.120552
7.833639 -89.436511 30.469292
8.937358 -86.174087 -22.997101
12.681515 -65.668399 53.025386
18.845158 -69.255848 17.490922
17.511902 -48.531326 38.112667
15.681102 -78.369506 -3.152858
18.087352 -74.975124 2.983061
6.016473 -91.967345 -22.164773
3.765014 -85.228518 -49.929390
8.536423 -70.293247 -55.925047
15.160402 -22.471218 -9.950285
19.307718 -43.113059 -4.596336
14.406744 -55.123245 53.755488
18.187173 -56.688052 -29.947043
16.916607 -75.208178 -7.533533
19.684059 -45.616993 7.958819
11.116248 -77.851900 -42.379889
13.143489 -23.497242 45.908942
18.732322 -49.507553 29.012585
16.585473 -59.893380 -37.763410
8.786296 -89.615593 -6.432597
2.198539 -92.877833 -39.851558
4.418844 -87.157971 46.693914
5.920236 -93.895605 -3.499172
12.322708 -35.697253 -57.862908
1.841020 -93.117369 41.583240
7.044036 -20.618680 -70.271279
8.752733 -80.177903 47.220502
19.419862 -44.234609 11.550337
13.229814 -33.232327 -51.622789
12.919099 -56.166708 -55.331180
16.196118 -67.176844 37.982994
18.989563 -67.822864 -16.003687
8.136802 -69.077351 58.753588
15.811981 -77.781701 -6.749993
19.842246 -57.912289 19.382941
20.353641 -55.579833 -6.840021
18.144060 -37.417553 17.998270
15.593657 -73.523658 -28.673200
11.145586 -82.831981 -33.582877
16.814608 -73.432857 24.282963
20.238287 -51.236589 7.772969
2.009461 -99.946667 19.599868
11.050806 -69.452941 -52.117879
16.657670 -59.734676 -38.532324
13.083708 -60.702503 55.264203
9.628991 -18.683409 -55.609787
17.135601 -74.583456 13.586519
5.424389 -93.999101 26.960886
10.502777 -77.024262 -45.309621
13.899822 -23.988501 39.992053
10.424250 -28.076215 -61.896665
15.963756 -43.799883 -42.526936
16.729608 -45.680770 -37.979698
13.473101 -67.179685 -47.185870
20.104909 -62.903379 -9.178336
1.099836 -93.237259 -41.917094
16.590480 -73.524799 25.195759
5.521114 -93.564832 24.266428
6.096899 -91.064845 -19.956091
10.372452 -83.664631 -34.641849
12.901306 -54.291831 58.881069
15.755899 -50.103356 49.569212
6.775629 -84.140349 46.033203
5.265050 -86.389770 -44.586198
9.123016 -84.614517 -26.821747
16.807111 -31.627977 -16.663610
11.864067 -63.724459 56.679355
2.012877 -10.392018 -79.176087
11.057072 -17.230879 50.750323
10.586381 -87.307817 -0.476673
17.066507 -73.781852 21.761752
