0.00297596551724 -0.0710161551724 -0.0103607931034
0.00259344444444 -0.0809727962963 -0.0271508518519
0.00278028571429 0.0251283571429 -0.0224297142857
0.00331255 0.0702379 0.06478515
0.00274545454545 0.0537545 0.0260476363636
0.0028785625 -0.07909175 -0.023854
0.00294442857143 -0.0749928333333 -0.021727952381
0.00299544444444 0.0479591666667 0.0159945185185
0.00299958064516 -0.070936016129 -0.00979903225806
0.00294275 -0.0749614583333 -0.021211
0.00267533333333 0.0354848333333 0.04350925
0.00275292 0.03119334 -0.02958916
0.00249166666667 -0.0574416666667 0.0330926666667
0.00278122727273 0.0645348636364 0.0405085454545
0.00241740625 -0.0578580625 -0.00850234375
0.00325376470588 -0.0703618529412 -0.0161638823529
0.00216825 0.0678305 0.0680544375
0.002904125 0.0612311875 0.069480875
0.002495875 -0.0772798125 -0.032786
0.00279044444444 0.0282357777778 -0.0373893333333
0.00277345833333 0.0279969583333 -0.0361352916667
0.00285883333333 -0.0751301111111 -0.0202161666667
0.00332117241379 0.0171826034483 -0.0170944137931
0.00243091666667 0.00340266666667 0.0253675833333
0.00233071428571 0.0394919285714 0.0488455
0.00300895652174 0.0308647173913 -0.0186395652174
0.00288361904762 0.0306145 0.037223
0.00272864285714 0.00556942857143 -0.0155184285714
0.00294744444444 -0.0764457777778 -0.0228092222222
0.00253543478261 0.0330015434783 -0.0358240869565
0.002534 -0.08122594 -0.02776772
0.00243936363636 -0.0682799090909 -0.0194935454545
0.00262166666667 0.0250090555556 -0.0229461666667
0.00262674074074 -0.0721679074074 -0.0145875555556
0.00238905263158 -0.0752215 -0.0298346842105
0.00279269230769 0.063586 0.0392585384615
0.00294511111111 0.0313226666667 0.0382129444444
0.00281077777778 0.0686392777778 0.0668825555556
0.00287381818182 0.0280459545455 -0.0342386363636
0.0030564 -0.07093778 -0.01330172
0.00275754545455 0.0278274545455 -0.0354272727273
0.0026446875 0.000616875 -0.0165434375
0.00261675 0.06494415 0.04093815
0.00273004761905 -0.0752995 -0.0196476666667
0.00256908333333 0.0706906666667 0.0531775
0.00288511538462 0.0308076538462 -0.0194201538462
0.00271147826087 0.0549816304348 0.0276493478261
0.0032296 0.04942145 0.01907505
0.00269696428571 0.0311635 -0.0289057857143
0.00282223076923 0.0307255384615 -0.0199296538462
0.00275396 0.02771274 -0.0337404
0.00246757142857 -0.0563167857143 0.033461
0.00200592307692 -0.0585166153846 -0.0104354615385
0.002874625 0.0567125 0.068554125
0.00240695 -0.0680814 -0.0191287
0.00238068 -0.08090498 -0.02390176
0.00234369565217 -0.0799225869565 -0.021935826087
0.00282291666667 0.0322435 -0.0339382916667
0.00284407692308 -0.0378701153846 -0.00299023076923
0.00304522727273 -0.0732075454545 -0.00117236363636
0.00258313636364 -0.0699550454545 -0.0210749545455
0.00269031818182 -0.0721643181818 -0.0228085454545
0.00259824 -0.08108546 -0.02815344
0.00268277777778 -0.0762741111111 -0.0203067222222
0.00261821428571 -0.0788812142857 -0.0329961428571
0.0023066 -0.08075014 -0.02306648
0.0025519 -0.0755027 -0.0190499
0.00284882608696 0.0307073695652 -0.027061826087
0.00262647058824 -0.0757684411765 -0.019526
0.0026570625 0.0011258125 -0.0165288125
0.00244290909091 -0.0685020454545 -0.0200126363636
0.00303858333333 -0.072993875 -0.00204133333333
0.00248432 0.0158175 -0.01196468
0.00269817391304 0.0275679782609 -0.0330967391304
0.00231004545455 -0.0810684090909 -0.0237406363636
0.00239805 0.03144705 -0.0411473
0.00227103703704 -0.0580687962963 -0.00974196296296
0.00236786956522 -0.0794982391304 -0.0216499565217
0.00226969230769 -0.0719574230769 0.0207433846154
0.00257983333333 -0.0807369444444 -0.0305782777778
0.0028426 -0.0728393 -0.0028914
0.00254565 -0.07680205 -0.02016185
0.00265172222222 0.0242005555556 -0.0207318888889
0.00237078947368 0.0684949736842 0.0674332631579
0.00281418181818 0.0306855909091 -0.0258724545455
0.0024182173913 0.0331729782609 -0.0367733043478
0.00274947368421 0.0570868684211 0.0301963157895
0.0030259375 0.050611125 0.0219960625
0.0025548 0.0149676 -0.0113355
0.00263247826087 0.0538865869565 0.0263673913043
0.00309944444444 0.0240923888889 0.0356144444444
0.00268477777778 -0.072393 0.0199762222222
0.00245192857143 -0.0576318571429 -0.00813442857143
0.0025002 0.00204023333333 -0.01621
0.003157 -0.00870733333333 -0.0171833333333
0.0023389375 -0.077742875 -0.0340174375
0.00249072413793 -0.0720699482759 -0.0138441724138
0.00253870588235 -0.0789416764706 -0.0335151764706
0.00251156 -0.07319994 -0.02540864
0.00327679310345 0.0168980172414 -0.0167082758621
0.00234773076923 -0.0815099615385 -0.0277507692308
0.00281616666667 0.00757658333333 -0.0148610833333
0.00315133333333 -0.0209468333333 -0.0143946666667
0.00249686363636 -0.0812985454545 -0.0292549545455
0.0025097826087 -0.0574478043478 -0.00776382608696
0.00211438095238 -0.0737996904762 -0.0157173333333
0.00195907142857 0.064195 0.0696862857143
0.00216164285714 -0.0817813571429 -0.0259784285714
0.00295858823529 0.0683977352941 0.0483353529412
0.002964 -0.0012595 0.0256015
0.002582 0.072672 0.0585938888889
0.0028096875 0.027132 -0.027803375
0.00271329032258 -0.0712915967742 -0.011106
0.00239607692308 -0.0576773076923 -0.00908557692308
0.002731 0.0309000714286 -0.0202158571429
0.00263944444444 0.0129001111111 -0.0119285555556
0.00265396 0.06350578 0.03912272
0.00247525 0.0585006 0.03244875
0.00238978571429 0.00356035714286 -0.0158657857143
0.00264761111111 -0.0574762222222 -0.00715366666667
0.00238004166667 0.0331864166667 -0.037448125
0.00274205882353 0.0269972647059 -0.0282276470588
0.0024714375 -0.080868125 -0.031035375
0.00283407692308 0.0701037307692 0.0524155384615
0.00271731578947 0.0315880263158 0.037387
0.00263467741935 -0.0714874677419 -0.00844890322581
0.00279213043478 0.0318450217391 -0.032019
0.00260880645161 -0.0712802419355 -0.0103399032258
0.00254095652174 -0.073467673913 -0.025983173913
0.00260276190476 0.0521085952381 0.0657748571429
0.00252088461538 0.0311634230769 -0.0209816538462
0.00235069565217 0.0158352391304 -0.0115546086957
0.00257234375 -0.07129921875 -0.0098605625
0.00213270833333 -0.0805213333333 -0.02199725
0.00252824 0.06455566 0.04039848
0.00223193333333 0.0391475 0.0480839333333
0.00240142307692 -0.0724512307692 -0.00501434615385
0.00254981818182 -0.0736352727273 -0.0264877272727
0.00255916666667 0.0305005555556 0.0362906111111
0.00244685714286 0.0660005 0.0423757142857
0.00249621052632 0.0269303947368 -0.0311844210526
0.00302107692308 0.0108075769231 -0.0135840769231
0.002423 0.0275348157895 -0.0378461052632
0.00257894444444 0.0142871111111 -0.0113178888889
0.00237922222222 0.0527047777778 0.066151
0.00254336363636 -0.00639495454545 -0.0169711818182
0.00223878571429 -0.0816421071429 -0.0273950714286
0.00198042857143 -0.0450393571429 0.0349914285714
0.00287394736842 0.0496590263158 0.0207471578947
0.00285366666667 0.0612069666667 0.0360807333333
0.00254146666667 0.0347995666667 0.0418386666667
0.00231147826087 -0.0777969347826 -0.0201089130435
0.00293769230769 0.0118465 -0.0129527692308
0.00262166666667 0.0276803333333 -0.0362103333333
0.00249530769231 0.0327383846154 -0.0170607692308
0.0025051875 0.0361808125 0.043994875
0.00244988235294 -0.0726632647059 0.0188352352941
0.00239890909091 0.0245045 -0.0221376363636
0.00269975 0.0554846 0.0283062
0.00223627777778 0.0312117777778 -0.0419866111111
0.0025482 0.03174886 -0.03043156
0.0025948 -0.0134005 0.0269712
0.00231416666667 -0.076362 -0.0189491111111
0.00248515 0.07253475 0.0576123
0.00221477777778 0.00578738888889 0.0259856666667
0.00223235 -0.081701 -0.0297069
0.002658875 0.027521625 -0.03389
0.00228626086957 0.0244339782609 -0.022451173913
0.00208608333333 -0.0802491666667 -0.0216586666667
0.002495 -0.0056105 -0.0169624615385
0.00262373913043 0.0480924130435 0.017391
0.00254244444444 -0.0648210555556 0.029367
0.0025157 0.0251405 -0.02383495
0.00294190909091 -0.0233050454545 0.0293293636364
0.00223031578947 0.0324512894737 -0.0410332631579
0.0022081 -0.07822065 -0.03483415
0.00250460869565 0.027173326087 -0.0330654782609
0.00209975 -0.073458375 -0.0152005416667
0.00216715789474 0.0273896578947 -0.0390968421053
0.002542 0.0192009 0.0335142
0.00230526086957 0.0159794565217 -0.0115860434783
0.0024455 -0.0808547142857 -0.0313131428571
0.00208533333333 0.0387642333333 0.0470628666667
0.00143785714286 0.0359442142857 -0.0141028571429
0.00247995238095 0.072651452381 0.058259047619
0.00234636363636 -0.0578946515152 -0.00854093939394
0.00216484615385 0.0344106538462 -0.0154564615385
0.0028012 -0.0731546333333 0.0176452666667
0.00252161904762 0.0530743095238 0.0257173333333
0.00262026666667 0.0056035 -0.0153597333333
0.00223276470588 -0.0798997941176 -0.0353347058824
0.00297366666667 -0.0538610833333 -0.00694541666667
0.002465 0.04602375 0.05936975
0.00244304 0.0318033 -0.02976428
0.00274875862069 0.0182559482759 -0.0175252413793
0.00245883333333 0.0340961666667 0.0400090833333
0.002381 0.0149513888889 -0.0109350555556
0.00239484210526 0.0327630263158 0.0368971578947
0.00239854545455 -0.0708152272727 -0.0223457272727
0.00218213333333 0.0618617 0.0697233333333
0.00226652380952 0.0331875 -0.0388350952381
0.00311992307692 0.0709395 0.0641583076923
0.00173303448276 -0.0588073965517 -0.0104496551724
0.00259847826087 0.0481661086957 0.0176033913043
0.0024095625 0.033742375 0.039058375
0.00231131578947 0.0575270789474 0.0311255789474
0.00265825 0.02566975 0.0355788333333
0.00298788888889 -0.0736002777778 0.0159616666667
0.0021685 0.0333075833333 -0.0356254583333
0.00231238888889 0.0251608333333 -0.0248162777778
0.0020760952381 0.0158040238095 -0.0109321428571
0.00272033333333 -0.0153068333333 -0.0160288333333
0.00209127777778 -0.0818777777778 -0.0304775
0.00183292592593 -0.0818845740741 -0.0244380740741
0.0020806 -0.0818558666667 -0.0285418
0.00158584 -0.05896146 -0.01074584
0.0023293030303 -0.0718475 -0.0124146969697
0.0023247 0.0324985 0.03625585
0.00225707692308 -0.00443065384615 -0.0167896923077
0.00286933333333 0.0499277222222 0.0640537222222
0.0025855 0.0291302857143 0.0360808571429
0.0030846 -0.0696167 -0.013238
0.00212492307692 0.0384271923077 0.0465360769231
0.00288827272727 -0.0529377727273 -0.00631963636364
0.00180691666667 -0.0797547916667 -0.0208065416667
0.001946 -0.0769433947368 -0.0337419473684
0.00297633333333 0.0705393666667 0.0649206
0.00226716 0.03330642 -0.03623368
0.0023842 0.0275101 0.0355872666667
0.00187486363636 -0.0750140909091 -0.0166282272727
0.00200235294118 0.0403343235294 0.0494165882353
0.00222261538462 0.0332036153846 -0.0352583076923
0.00237176190476 0.0245717380952 -0.0226267619048
0.00230546153846 0.0671879615385 0.0441803846154
0.0013995 0.0444045833333 0.000766
0.0022398 0.0332995 -0.0367818
0.00253360869565 0.0482668043478 0.0179673478261
0.00256126086957 0.0537766304348 0.0263764347826
0.00296128571429 -0.0150986428571 -0.0161814285714
0.00220494444444 0.0302069444444 -0.0421111111111
0.002475 0.0529855 0.02569035
0.00240176470588 0.0508680294118 0.0237312352941
0.00281391666667 0.0200030416667 -0.0180138333333
0.00289776190476 -0.073862547619 0.0142836190476
0.00199055555556 -0.0748621666667 -0.030739
0.0027834 -0.0613621 -0.0033004
0.00232618181818 0.0725603181818 0.0622113636364
0.0020458 -0.0029828 -0.0166007
0.00236391666667 0.0352173333333 0.0417458333333
0.00223675 0.03266785 0.0358714
0.00226590909091 0.0318873636364 -0.028091
0.00213127272727 0.0404585909091 -0.00829627272727
0.00287261904762 -0.0739336428571 0.0137532857143
0.0023677826087 0.0167250652174 -0.0137733043478
0.00209368421053 -0.0675450263158 -0.0195024210526
0.00231511111111 0.0515265555556 0.0652401666667
0.002014 -0.0788497352941 -0.0360324705882
0.00209219047619 0.0308755 -0.0425533809524
0.0021211875 -0.07249515625 -0.01390171875
0.00154192857143 0.0446255714286 0.0014715
0.00243396153846 0.0320034230769 -0.0182436538462
0.00323109090909 -0.0524060454545 -0.00597127272727
0.00241140740741 0.0542199814815 0.027084
0.00248268 -0.07390734 0.01302012
0.00229583333333 0.0495953333333 0.0223723888889
0.00226538095238 0.0167193095238 -0.0131047619048
0.0026155 0.0532862916667 0.02584625
0.00152818181818 0.00999431818182 0.0274252727273
0.00301268421053 0.0208854473684 -0.0181456315789
0.00214793333333 -0.0413582333333 -0.00227733333333
0.00226535714286 -0.0712648571429 0.0221309285714
0.00189485 -0.07720985 -0.03422005
0.00186144444444 -0.0802333333333 -0.0368932222222
0.00286964705882 0.0700716764706 0.0655940588235
0.002063625 -0.081909875 -0.0291678333333
0.001791 -0.07921266 -0.02026328
0.0022063 0.0332776 -0.0389092
0.00216529166667 -0.0692750833333 -0.0213953333333
0.00208413333333 -0.0814709 -0.0334167333333
0.00203310526316 0.0304036578947 -0.0427737894737
0.00221168421053 0.0371722894737 0.0445385263158
0.0014014 0.0107374 0.027878
0.00203511111111 -0.0808225 -0.0359479444444
0.00201777777778 -0.0740416481481 0.0104736666667
0.00196315789474 0.0401746052632 0.049007
0.00216627777778 0.0256221111111 -0.0268031111111
0.00217319047619 0.0334283095238 0.036061952381
0.00197263157895 0.0287242368421 -0.0417236842105
0.00216845454545 0.0352882272727 0.0406815454545
0.00322275 -0.051294625 -0.00537375
0.00164769565217 -0.0796564565217 -0.020462
0.00198947619048 0.0320771190476 -0.0260220952381
0.00161031818182 -0.0740988181818 -0.0150200454545
0.00235332 0.03157338 -0.0195648
0.00210131818182 -0.0678414545455 -0.0200087727273
0.00210972727273 -0.0717651818182 -0.024519
0.00174961538462 -0.0815640384615 -0.0230851538462
0.00191617647059 0.0689799705882 0.0469735294118
0.0020372 0.0693361 0.0479962
0.00229595 0.058697 0.0329114
0.00196072 0.03399794 -0.0160874
0.00188614285714 -0.000451642857143 -0.0162030714286
0.00231533333333 -0.0693293888889 0.0252214444444
0.0022394 0.0525816 0.0659779
0.00227473333333 0.0601021666667 0.0347050666667
0.00204442105263 0.0327855526316 0.0353237368421
0.00226381818182 0.00236831818182 0.0250299090909
0.00212831578947 0.0318444473684 -0.0252182631579
0.00209430434783 -0.0720078478261 -0.0250185217391
0.00169977777778 -0.0794068888889 -0.0370972222222
0.00203376470588 0.0617349705882 0.0368352352941
0.00196786666667 0.0730857 0.0609824
0.00204947619048 0.0626015 0.0378418095238
0.00204405882353 0.0321461470588 -0.0420114705882
0.00169057142857 0.063509 0.0700053571429
0.00238320833333 0.0647769583333 0.0406065
0.00197638888889 0.0301235 -0.0428644444444
0.00150833333333 -0.0589148703704 -0.0110247037037
0.00206331818182 -0.0819594090909 -0.0297318181818
0.00188528571429 0.0685279285714 0.0459531428571
0.00234484210526 0.0506888684211 0.0644608947368
0.00198276470588 0.0494443235294 0.0231624705882
0.00191911111111 -0.0581402777778 -0.00935530555556
0.00155183870968 -0.0823746290323 -0.0257568064516
0.00192320833333 0.0336318333333 -0.0164513333333
0.00173575 -0.0802069583333 -0.0211403333333
0.00192915789474 0.0147874473684 -0.0100962105263
0.0019945 -0.0714562857143 0.021474
0.00228676190476 -0.0577220714286 -0.00670252380952
0.00191868421053 0.0266810263158 -0.0383394210526
0.0022712 0.00463603333333 -0.0153282666667
0.00199539130435 -0.0733554130435 -0.00131747826087
0.0014335 0.0412153333333 -0.00695891666667
0.00182285 0.0257582 -0.0312257
0.00207272727273 0.00319304545455 0.0250540909091
0.00158930769231 0.0448426538462 0.00221915384615
0.002030625 0.0258405 -0.0295671875
0.00217646153846 0.0341932692308 0.0375753076923
0.00211690909091 -0.0734486363636 -0.000803636363636
0.00210173684211 0.0336608684211 0.0358602631579
0.00172914814815 0.0338582037037 -0.061405962963
0.0016865 0.0337758333333 -0.0618121666667
0.00236292592593 0.0324298333333 -0.017492962963
0.00209612 0.04752782 0.01630424
0.00208573333333 0.0258413 -0.0289213333333
0.00206172727273 0.0318765909091 -0.0231195454545
0.0015495 -0.04860575 -0.004504
0.0021422 0.0341083 0.0368330666667
0.0017820952381 0.033296452381 -0.0409632380952
0.002301 0.0259959 -0.0276008666667
0.00205152941176 0.0337753823529 0.0355715294118
0.00175888461538 0.0335447307692 -0.0616341153846
0.00196317857143 -0.0583812857143 -0.0101873571429
0.00167333333333 -0.0724944166667 -0.00580666666667
0.00178761538462 0.0450825 0.00305807692308
0.00208883333333 0.0464214166667 0.00847408333333
0.0021458125 0.001183125 -0.0161484375
0.00199442857143 0.0459260714286 0.00609214285714
0.00212808333333 -0.0680183333333 -0.0201555416667
0.0021796 -0.0697767 -0.021861
0.00214447368421 -0.0739616052632 0.00414284210526
0.00226163636364 0.0726544545455 0.0575013636364
0.00173736363636 0.0257169090909 -0.0318784545455
0.0018042 -0.0866753 -0.0587195
0.00202861111111 0.0369276111111 0.0435044444444
0.00183961904762 0.0266876904762 -0.0387792857143
0.0022058 -0.07414702 0.00658036
0.00156508333333 0.038682 -0.0719447916667
0.00193952941176 0.0288405588235 -0.0419698823529
0.002197 0.01640715 -0.0118378
0.00223204166667 0.032188625 -0.0306735
0.0020905 -0.0741565416667 0.00734020833333
0.00177523529412 0.0396953235294 0.0476916470588
0.00164892307692 0.0257089230769 -0.0329902692308
0.00180272727273 -0.0864542727273 -0.0580615909091
0.0022341875 0.0591183125 0.033469625
0.00210380769231 -0.0741579615385 0.00820226923077
0.00187966666667 0.026251625 -0.03450275
0.00230884615385 0.0539695384615 0.0269998461538
0.00210365217391 0.0317047608696 -0.0215079565217
0.00203826923077 -0.0741312692308 0.00863061538462
0.00181769230769 -0.0740361923077 0.00969530769231
0.00160121052632 0.0674685526316 0.0687105789474
0.00198055555556 0.0466336111111 0.0595347777778
0.00153186956522 0.0380298043478 -0.0717448695652
0.00196984210526 0.0338807631579 0.0353093157895
0.00157157575758 0.0340297727273 -0.0623981818182
0.001498 -0.0795410238095 -0.0375089047619
0.00165404347826 -0.0873231956522 -0.057836826087
0.00171847368421 0.0158747105263 -0.0102528947368
0.00207371428571 0.00211042857143 -0.0158960714286
0.001721125 0.0332901666667 -0.0607242916667
0.00179863636364 0.0243148181818 -0.023987
0.001502 -0.05876003125 -0.01046903125
0.00171186363636 -0.0866248181818 -0.0592076363636
0.0018355 0.0344225769231 -0.0156376153846
0.0014586 -0.07483205 -0.01557195
0.00205242857143 0.0111496428571 -0.0114644285714
0.00165188461538 -0.0723273461538 -0.00639738461538
0.0017404375 0.0620159375 0.0698638125
0.00152514285714 -0.0728192142857 -0.027925952381
0.00174822727273 -0.0765747272727 -0.0182241818182
0.00164206666667 0.0336698333333 -0.0622577333333
0.0019593125 -0.07184075 0.0205435
0.001913 0.0330511 0.03503685
0.0016292 -0.08705454 -0.05724796
0.00183836842105 0.0333863421053 0.0348805263158
0.00160585 -0.07328235 -0.02874125
0.0014451875 0.057620625 0.0688569375
0.00212755555556 -0.0696620555556 0.0246721111111
0.0016740952381 -0.0780394047619 -0.0356950952381
0.00194294736842 0.0317310263158 -0.0428296315789
0.00153063157895 -0.0844340263158 -0.0721402105263
0.0015366 -0.08353245 -0.07213955
0.00159064285714 0.0414051428571 0.0502601428571
0.00156534482759 -0.0824133965517 -0.0262384137931
0.00154892307692 -0.0869875384615 -0.0564516538462
0.00221305 0.0557729 0.0292656
0.00203775 0.0354530833333 0.0400334166667
0.0015338 -0.0803809 -0.02108084
0.0016153 0.0328819 -0.0613193
0.00267225 -0.054803 0.03397675
0.0016293 -0.08750645 -0.0589466
0.0018755 -0.02088325 0.027869
0.00166513636364 -0.0862355454545 -0.0596227272727
0.00233845454545 -0.0247345909091 0.0296167272727
0.00163779310345 0.0343701896552 -0.061949
0.00239525 -0.006855125 -0.016911125
0.00173284210526 0.0268725526316 -0.0399525263158
0.00210770588235 0.0657960294118 0.0417974705882
0.00157503333333 -0.0808891666667 -0.0218381
0.00168335714286 0.0678353571429 0.0443812857143
0.00203036363636 0.0357175 0.040781
0.00179931578947 0.0338040789474 0.0348008421053
0.0022464 0.0322253 -0.0181106
0.00147795238095 -0.0845118333333 -0.0716741428571
0.00187933333333 0.0348723 0.0351982666667
0.00153533333333 0.0345892666667 -0.0624778666667
0.00192176190476 0.016452547619 -0.0113377619048
0.00184194117647 0.0382593823529 0.045218
0.00195269565217 0.0324160652174 -0.0298537826087
0.00193509090909 0.0631352727273 0.0384335
0.00186 0.0106537857143 -0.0114622857143
0.00166846428571 -0.0824184642857 -0.0278052857143
0.0015694137931 0.0344879827586 -0.061259137931
0.00237277777778 -0.0681280555556 0.0265518888889
0.0017252 -0.08166725 -0.03735055
0.00159689473684 0.0235527105263 -0.0215452105263
0.001744 0.0189439 0.0326774
0.00222469565217 0.053269673913 0.0264451304348
0.00160180769231 0.0390730384615 -0.0730543076923
0.00182172222222 -0.0859273333333 -0.0576752777778
0.0019336 -0.07017385 -0.022874
0.001411375 -0.0828003125 -0.0349745
0.00144418181818 0.0428849545455 0.0523590909091
0.00150575 0.0385874583333 -0.0713130416667
0.00206082608696 -0.0682747608696 -0.0205712173913
0.00115030769231 0.0421461923077 -0.00491384615385
0.00144115 -0.07370895 -0.0297821
0.00205077777778 -0.0281238333333 0.0311673333333
0.00143904761905 -0.0760533095238 -0.0335361904762
0.00151761290323 -0.0808582096774 -0.0217763548387
0.00159047826087 -0.0823089782609 -0.0369427391304
0.0015918125 0.041121375 0.0497508125
0.00128451851852 0.0372996481481 -0.072874
0.00158542857143 0.0326634285714 -0.0608217142857
0.00177435294118 0.0347857941176 0.0347045882353
0.00166975 -0.08247575 -0.0283681071429
0.00181557894737 0.0694463421053 0.0673044210526
0.00146970588235 0.0696663235294 0.047384
0.00186965384615 0.0473963846154 0.0166567307692
0.00145873076923 -0.0866884230769 -0.0557255384615
0.00144773913043 0.0351515869565 -0.0150289130435
0.00148826666667 -0.0722541 -0.00762233333333
0.00157726315789 -0.0835528684211 -0.0727869473684
0.00218771428571 0.0308785714286 0.0353573571429
0.00159816 0.03330482 -0.0603616
0.00190266666667 0.0580481111111 0.0322126111111
0.00159268181818 -0.0853395454545 -0.0571297727273
0.00194982142857 -0.0576878571429 -0.007614
0.00153970588235 -0.0741438529412 -0.0304691764706
0.00167922222222 0.0706388888889 0.0506197222222
0.00189990909091 0.0324509090909 -0.0296769090909
0.00172019047619 0.0306890238095 -0.0441507619048
0.00158266666667 0.034469625 -0.060787625
0.00244188888889 0.017309462963 -0.0163147037037
0.00164508333333 0.0326609583333 -0.0288383333333
0.00158608695652 0.0236355434783 -0.0219612608696
0.0017558 0.0379681 0.0441744666667
0.00175755 0.0317962 -0.0435333
0.00141743478261 -0.0883148043478 -0.0581433478261
0.00144225 0.03304990625 -0.06249371875
0.00155747826087 0.0236921956522 -0.0224492173913
0.00166895454545 0.0473244545455 0.0172337272727
0.0014825 0.02303925 -0.0207666
0.00160931578947 -0.0855934473684 -0.0596532105263
0.00156255 -0.08186475 -0.0379854
0.00143260869565 -0.0844018043478 -0.0714360434783
0.001407625 0.0325225 -0.06194315625
0.00144613333333 0.0323365 -0.0612750666667
0.00250955555556 -0.0536243888889 -0.00687288888889
0.00139428571429 -0.0827802142857 -0.0355001428571
0.00147069565217 -0.0860240217391 -0.0554594782609
0.0014337 -0.0879301 -0.0596232
0.00147731818182 0.0397238636364 -0.0743193636364
0.00144591666667 -0.0776437083333 -0.0188924583333
0.00140326315789 -0.0744042368421 -0.0310743157895
0.00180214285714 0.0619644047619 0.0371151904762
0.00227116666667 -0.0703226666667 0.02377575
0.001671375 -0.0666456875 -0.019277875
0.00178451612903 -0.0718901774194 -0.00914503225806
0.0008065 0.0425524166667 -0.00399875
0.00224192 0.01841414 -0.01757652
0.00143623333333 0.0343235666667 -0.0630183666667
0.0017836 -0.07034985 -0.0233687
0.001552 -0.0856156052632 -0.0600696842105
0.00152325 0.0395037916667 -0.0739972083333
0.00168305555556 0.0339257777778 0.0343941111111
0.00158592592593 0.0391730555556 -0.073534
0.00106054545455 -0.059797 -0.0125635454545
0.00150895833333 0.0383770416667 -0.073716875
0.00206136842105 0.0513494473684 0.0649301052632
0.0022455 0.0453303333333 0.0578948333333
0.00191572727273 0.0707814090909 0.0519253636364
0.00141584210526 0.0690556052632 0.067985
0.00177890909091 0.0300349090909 -0.0438026363636
0.00126731818182 -0.0763075909091 -0.0340879545455
0.0006045 -0.029659 -0.008343
0.00164694444444 -0.0854723333333 -0.0587854444444
0.00169273684211 0.0303716578947 -0.0443317894737
0.0016085 -0.032844 0.0330613333333
0.0014559047619 -0.0826527380952 -0.0372094761905
0.00137638095238 -0.0884351190476 -0.058613
0.00130681481481 -0.0740333518519 -0.0145174444444
0.0019015 0.0731031 0.0581263
0.00197661538462 0.0538461153846 0.0273431538462
0.00194747058824 -0.0721758529412 0.0196221176471
0.00159633333333 -0.0423988333333 -0.00247841666667
0.0014829 0.0397724 -0.0744558
0.00146007142857 0.0348515357143 -0.06305825
0.001641 0.0289796111111 -0.0434397777778
0.00229192307692 0.0189940384615 -0.0177824230769
0.00176108333333 -0.0728452916667 -0.00424720833333
0.00171747826087 0.0641878478261 0.0396072173913
0.00126986666667 0.0641497666667 0.0700634666667
0.001767875 0.0336816875 0.034647
0.00119943478261 -0.0799253695652 -0.0387306956522
0.001633 0.03983075 0.04737695
0.0015375 -0.06587825 0.02811025
0.0015093 0.0325548 -0.02372355
0.00125975 -0.0852172 -0.07207575
0.001857875 -0.0278335 0.0309385
0.00221255555556 0.0290068333333 0.0353261111111
0.00191923076923 -0.00426357692308 -0.0165753076923
0.0016173 -0.0706027 -0.02406005
0.001416 -0.0373710714286 0.0342781428571
0.00167488888889 0.000637833333333 0.0246266666667
0.00161089473684 -0.0824219210526 -0.030256
0.00168318181818 0.0323203636364 -0.0232528181818
0.00124895652174 0.0398478043478 -0.0713247391304
0.00107734782609 -0.0596961086957 -0.0121489130435
0.001521875 -0.0727065416667 -0.00514354166667
0.00174042857143 0.0377405 0.0437265
0.00171297368421 -0.0582212368421 -0.00952276315789
0.00206336842105 -0.0576833947368 -0.00694552631579
0.00139752941176 0.0157743235294 -0.00961964705882
0.00157570588235 -0.0836743823529 -0.0732141176471
0.00184692 0.05402638 0.02777728
0.00147092857143 0.0399134642857 -0.0730048214286
0.00133965 -0.0762557 -0.0173189
0.001574 -0.0837220625 -0.0733609375
0.00219666666667 0.0195614047619 -0.0179776190476
0.0016007 0.07344285 0.05905975
0.00177493333333 -0.0722837666667 0.0190479333333
0.0016816 0.0322871 -0.02214495
0.00172528571429 0.0250316428571 -0.0269717142857
0.00131739130435 -0.0725921086957 -0.00591173913043
0.001562625 0.04889275 0.023529
0.00159877777778 0.0502375555556 0.0250818333333
0.00143914285714 0.0384045952381 -0.0744395714286
0.00151284210526 0.0312037105263 -0.0450787368421
0.0014966 0.0408447 0.0489831
0.001041 0.0385481 -0.0113567333333
0.00170282352941 -0.0723717352941 0.0185395294118
0.00124445833333 -0.0831931666667 -0.0367598333333
0.001867625 -0.044245625 0.03494075
0.00162716666667 0.0477525 0.0605979166667
0.00179641176471 0.0369909705882 0.0422058823529
0.00193811764706 0.0489659705882 0.0622827647059
0.00138666666667 0.0376065833333 0.0343154166667
0.00130377272727 -0.085796 -0.0547687727273
0.00148035714286 0.03999325 -0.0734738571429
0.00128979310345 0.0374718103448 -0.073260862069
0.00116241666667 -0.0755584166667 -0.0163579166667
0.0014165 -0.00257958333333 -0.0161295
0.00141178947368 0.0332792894737 -0.0424800526316
0.00160878947368 0.0172398684211 -0.0123654736842
0.00127208695652 -0.0830381086957 -0.0710789565217
0.00195333333333 0.05347775 0.0270840416667
0.000803636363636 0.0429355909091 -0.00304327272727
0.00196945454545 0.0321621363636 -0.0191065909091
0.00132095833333 0.034392375 -0.0596586666667
0.00112669565217 -0.0766001086957 -0.034700826087
0.00180808695652 0.0321715869565 -0.0208220434783
0.00117514285714 0.0330253571429 -0.0259682857143
0.001893 0.0208515 -0.0186145
0.00171535294118 -0.0725218529412 0.0180021764706
0.00210116666667 -0.0148063333333 -0.0158223333333
0.0016287 0.0256546 0.0345873
0.0013875 0.03771795 -0.07052055
0.00132673076923 0.0376761923077 -0.0738259615385
0.00181776470588 0.0701103823529 0.066794
0.00131936363636 -0.0848957727273 -0.0557334545455
0.00173233333333 0.0467736111111 0.0114608888889
0.00158452380952 0.0293265952381 -0.043988
0.00149836842105 -0.0828325 -0.0734238421053
0.00132661904762 0.025904547619 -0.0383183809524
0.0013282 0.02572245 -0.03697775
0.00141758333333 0.0126938333333 -0.00961766666667
0.00141470833333 0.033286375 -0.0593474166667
0.00128457142857 0.0376399285714 0.033984
0.00146838461538 0.0406316538462 -0.0746253076923
0.0010203 -0.0367152 0.0339589
0.00131319230769 0.0318703076923 -0.0614256153846
0.00198918181818 0.0285232272727 0.0351270909091
0.0021202 0.0057448 -0.0147548
0.001292 0.0469216578947 0.0142111052632
0.00145836842105 0.0276768684211 -0.0421558421053
0.0017375 0.0731018 0.05776785
0.0011535 0.0705952222222 0.0485881666667
0.00150321428571 0.0468739285714 0.0129828571429
0.00127292307692 -0.0800314615385 -0.0205804230769
0.00156555 0.0405529 0.0486052
0.0013634 0.0332062666667 -0.0628931333333
0.00108635714286 0.0103132142857 0.0271986428571
0.00162705555556 -0.0670412222222 -0.0199986111111
0.001229 0.0624562058824 0.0701010588235
0.00135973333333 -0.0723448 -0.0109858666667
0.00110107142857 -0.0724593928571 -0.00688067857143
0.00149531578947 -0.0828583421053 -0.0731854736842
0.001319 -0.0860122916667 -0.061034375
0.00177168421053 0.0583351315789 0.0327719473684
0.00186582608696 0.0326585434783 -0.0181582173913
0.00122981481481 0.0356255740741 -0.0624388148148
0.00157433333333 -0.0241640555556 0.0288057777778
0.00164079310345 -0.0724784655172 -0.0123718275862
0.00114003125 0.0319285 -0.06200015625
0.00112581818182 0.0412978636364 -0.0741596818182
0.00139335 -0.0848782 -0.05622025
0.00142530434783 0.0339037173913 -0.0355745217391
0.00143604545455 0.025714 -0.0358975
0.00144447058824 0.0490102647059 0.0240669411765
0.00127095238095 0.0313711666667 -0.0460366190476
0.00116268421053 0.0259088157895 -0.0395268947368
0.00112451612903 -0.0723553064516 -0.00757764516129
0.000801307692308 0.0434087307692 -0.00185907692308
0.0017343 0.07292845 0.05705665
0.00141515151515 -0.0721860151515 -0.010276030303
0.0013575 0.0305676666667 -0.0458546111111
0.00134532352941 -0.07215 -0.009705
0.00162904347826 0.0337098043478 -0.0352897826087
0.00138875 -0.0823751666667 -0.0742481666667
0.00143261111111 0.0599862777778 0.0696777777778
0.00154533333333 -0.0003031 -0.0159180666667
0.00115455555556 -0.0817449444444 -0.0738871111111
0.00120952631579 -0.0832128157895 -0.0384881578947
0.00149295 0.0389097 0.04480165
0.00174254545455 0.0644212272727 0.0398840909091
0.00090748 -0.07681702 -0.03525456
0.00140547826087 0.0340484565217 -0.036695
0.00135259090909 0.0340071818182 -0.0361606363636
0.00168345454545 -0.0223780454545 0.0281830909091
0.00113763333333 -0.0822643666667 -0.0237044
0.0015269047619 0.052367452381 0.0655027142857
0.001159 -0.085119452381 -0.0707625238095
0.00179391666667 0.0271596666667 0.0348684166667
0.0011203 0.03661905 0.0331565
0.00116969230769 0.0389892692308 0.0351203846154
0.00105131818182 0.0383159545455 -0.0695121818182
0.00102688461538 0.0367587307692 -0.0732340769231
0.001313 0.023673 -0.023352375
0.00114147826087 -0.0855475 -0.0540756086957
0.00114027777778 -0.0834732222222 -0.0376707777778
0.0011459375 0.0386809375 0.0346431875
0.0009925 0.0365707142857 -0.0136453571429
0.00109326086957 0.0394098043478 -0.0704036086957
0.00158966666667 0.0264940555556 0.0346665555556
0.00168205263158 -0.0691751842105 -0.0221754736842
0.00156011111111 0.0372609444444 0.0405858888889
0.00160066666667 0.0370863333333 0.0399793333333
0.00124016666667 0.0253465833333 -0.0342525833333
0.00124815 -0.08822615 -0.05624865
0.001553 0.0478895769231 0.0606988461538
0.0012181 0.0352309666667 -0.0635882
0.0012794 0.02626555 -0.04011435
0.00115260714286 0.0357066785714 -0.0630789285714
0.00071675 -0.04226725 0.03438
0.001237 0.0341533125 -0.03981375
0.00066735 -0.0836112 -0.0343918
0.0023084 -0.0736740333333 0.0144696
0.00114685185185 0.0250745 -0.033104037037
0.0011241 -0.0827775666667 -0.0271224
0.00114419047619 0.0685733571429 0.068515047619
0.00136847368421 0.0390084473684 0.0443577368421
0.001567 -0.03810125 -0.00251216666667
0.00102512903226 -0.0817051451613 -0.0223978387097
0.00112104166667 0.0413261666667 -0.0738558333333
0.0015952 -0.0275332 0.0306021
0.00103011111111 0.00658261111111 0.0252657777778
0.0013275 0.0137759375 -0.0091600625
0.00118248387097 -0.0826885967742 -0.0263096451613
0.000971772727273 0.0247510909091 -0.0320079545455
0.00112857894737 0.0248373421053 -0.0315474736842
0.00173957894737 -0.0674127105263 -0.0202000526316
0.00162085185185 0.0336558703704 -0.0167637037037
0.00147751851852 -0.0588087222222 -0.0108537407407
0.001568 -0.0669088888889 -0.019748
0.00167752631579 0.0575260789474 0.0317753157895
0.0008644 0.04002665 -0.0090717
0.0011066 0.0478409 0.0226416
0.00143489473684 0.0326110789474 -0.0215706842105
0.00110195652174 -0.0829169782609 -0.0311795652174
0.00116635 -0.08505335 -0.0733656
0.00111755555556 0.0487885555556 0.0246628888889
0.00103380952381 0.0327267857143 -0.0457566666667
0.00115108333333 -0.084957625 -0.0703151666667
0.001092125 0.0408025416667 -0.0723992083333
0.00117740909091 -0.0854009090909 -0.0615313181818
0.000889105263158 -0.0809122368421 -0.0405935789474
0.00110917391304 -0.0846781086957 -0.0549690434783
0.00104652631579 0.0341449736842 -0.0407952631579
0.000860954545455 -0.0708689545455 -0.0257117727273
0.00188104545455 -0.0737602272727 0.0126524545455
0.00108110526316 0.0292406578947 -0.0457022105263
0.0011442 0.0022182 0.0242793
0.00109075 0.038666625 0.0342505
0.00129268421053 0.0264067631579 -0.0404264736842
0.00111469565217 0.0374971521739 -0.0744206086957
0.00177811111111 0.00316383333333 0.0248136666667
0.00162818181818 -0.0377453181818 -0.00267063636364
0.00106168965517 -0.0827258448276 -0.0251888965517
0.00123757894737 0.0311014473684 -0.0466062631579
0.00125335 0.02383695 -0.02425365
0.00102995 -0.08374665 -0.0384819
0.00109173913043 -0.0838917608696 -0.0698086086957
0.00119935 -0.0879491 -0.0555272
0.00141858823529 0.0385653823529 0.0436292941176
0.000979285714286 0.0101415 0.0269285714286
0.00115475 0.03392425 -0.06363396875
0.00055325 -0.060972375 -0.014300375
0.00100921428571 -0.0826189642857 -0.0245779285714
0.00128133333333 0.0636611666667 0.0389544583333
0.00138325 0.0479380833333 0.060578
0.000837590909091 -0.0858699545455 -0.0710775454545
0.0009411 -0.0891585 -0.059288
0.00100188235294 0.0423750882353 0.0503849411765
0.00101143478261 0.0406932826087 -0.0718455217391
0.00144830769231 -0.0737641538462 0.0111592692308
0.000581 -0.0472501666667 -0.0040825
0.00142266666667 -0.0139608333333 0.0265163333333
0.00144018518519 -0.0738325 0.010340962963
0.000728652173913 -0.0835628913043 -0.0351041304348
0.00139172 -0.0738837 0.00949236
0.001675 -0.0371241 -0.0029593
0.00134755555556 -0.0738821296296 0.00882951851852
0.001348 0.0387265 0.0435930625
0.00114125 0.03756905 -0.0745914
0.00125825 -0.0841058333333 -0.0742804166667
0.000972074074074 0.0368880185185 -0.0707418148148
0.00161040909091 0.0526021818182 0.0270535909091
0.00115722222222 0.0392351666667 0.037369
0.000994947368421 0.0341417631579 -0.0414327894737
0.00027775 -0.034956125 0.03319375
0.00103442857143 -0.0712708333333 -0.026124047619
0.00151117857143 -0.0739500714286 0.00819678571429
0.00144725 0.0405814 0.0481768
0.00192261538462 0.00423803846154 -0.0151106153846
0.001424 -0.0738938076923 0.00908192307692
0.00120252 0.04104474 -0.0736794
0.001034125 0.0479168125 0.0231393125
0.00123793103448 0.0342987413793 -0.0162653793103
0.000193333333333 0.0143343333333 0.029144
0.000961222222222 -0.0649331666667 0.0284751111111
0.0008105 0.0442891875 0.0004715
0.00145314285714 0.0550240238095 0.0293652380952
0.0013943125 0.0385265625 0.0432909375
0.001049 -0.0749577083333 -0.0323615416667
0.00113476190476 0.0322966428571 -0.0587071904762
0.000778631578947 -0.0812077631579 -0.0717522631579
0.00104388235294 0.0657132647059 0.0697401176471
0.0008625 0.0364196153846 -0.0715009615385
0.000974045454545 -0.0714225 -0.0264770454545
0.00109788461538 -0.0866538076923 -0.0538241923077
0.00152631578947 0.0586131842105 0.033427
0.00062168 -0.07917558 -0.03908148
0.0010662 0.03726585 -0.0690975
0.000957652173913 -0.0847462391304 -0.0615573913043
0.000930666666667 -0.0851364583333 -0.0535855416667
0.000894615384615 -0.0838814230769 -0.0390596538462
0.00126388888889 0.0506038888889 0.0264512777778
0.00104885185185 0.0409340185185 -0.0728654444444
0.00152466666667 0.0398660555556 0.0471244444444
0.0010543 0.06779455 0.0690097
0.000964857142857 0.00808942857143 0.0259241428571
0.0014595 0.0656887777778 0.0412193333333
0.00102531818182 -0.0814310909091 -0.0729288636364
0.000960208333333 0.0332475 -0.028227125
0.00111836842105 0.0560777105263 0.0680303157895
0.001036625 0.0468362916667 0.0166864583333
0.0008955 0.0332897083333 -0.0273762083333
0.00119047368421 0.0265914473684 -0.0411827368421
0.000975961538462 -0.0851897307692 -0.0700446153846
0.00103054545455 0.0330968636364 -0.0293631363636
0.00101631034483 -0.0824764655172 -0.0240953793103
0.00118342857143 0.0492763571429 0.0254081428571
0.000990619047619 0.0467611666667 0.0147958095238
0.00101803448276 0.0357984655172 -0.0640787586207
0.000513105263158 -0.0602058684211 -0.0134077894737
0.000868416666667 0.039046 -0.0695220833333
0.00113535714286 0.0346914642857 -0.06422075
0.001068625 -0.0757519583333 -0.0164835833333
0.0009435 0.04675365 0.01415575
0.00126495238095 0.0338149285714 -0.0344974285714
0.000488764705882 -0.0607966764706 -0.0138550588235
0.000930045454545 -0.0752411363636 -0.0157845454545
0.00107005555556 -0.0659147777778 -0.0193526111111
0.00160277777778 -0.0665112777778 -0.0186016666667
0.000699954545455 -0.0834287727273 -0.0327273636364
0.0013169375 0.0013474375 -0.01539575
0.000940578947368 0.0384552368421 0.0335834736842
0.00150107142857 -0.0562197142857 -0.0081545
0.000969933333333 0.0367173666667 -0.0134896
0.00103081818182 0.0293471818182 -0.0460677727273
0.00105833333333 -0.074666375 -0.0151670833333
0.000906823529412 0.0419698529412 -0.0744980588235
0.000737947368421 0.0711233947368 0.0486347368421
0.00086724 -0.08471594 -0.06209212
0.000830684210526 0.0573864473684 0.0686545263158
0.000835166666667 -0.04582 -0.00363666666667
0.0011192 -0.05950822 -0.01179428
0.00097684 -0.0853935 -0.06224424
0.00102157894737 -0.0722430263158 -0.0278723684211
0.0011624 0.0114178 -0.0098086
0.00162240540541 -0.0579485 -0.00869472972973
0.00151375 -0.069251375 0.024675125
0.00108437931034 -0.0808380862069 -0.0213076551724
0.000576375 0.039078125 -0.0107565
0.00096675 0.04462455 0.00155335
0.000752571428571 -0.080688 -0.0742872857143
0.000852 0.0394691666667 -0.0100450555556
0.001316 0.0172945555556 -0.0116187777778
0.00100781481481 -0.0804238333333 -0.0207885185185
0.000965652173913 -0.0845266304348 -0.0543469130435
0.000997304347826 0.032872326087 -0.057544826087
0.000959230769231 0.0312144615385 -0.0597417307692
0.00185827272727 0.0180080454545 -0.0171091818182
0.000987833333333 -0.0538876666667 0.0334618333333
0.000859185185185 -0.085098537037 -0.0695629259259
0.00105475 0.0373776 -0.07461735
0.00090496 0.03681458 -0.07000904
0.00114485714286 0.0676074285714 0.0435315
0.00137407692308 0.0335327307692 0.0337319230769
0.00173428571429 0.00554464285714 -0.0143484285714
0.000609875 -0.045556 0.034341
0.00141831818182 0.0537189545455 0.0282779545455
0.000660956521739 -0.0861398478261 -0.0711083913043
0.00108542857143 -0.0877873571429 -0.0548773809524
0.000761416666667 0.037640875 -0.0683947916667
0.00118269230769 0.00527865384615 0.0249697692308
0.000990090909091 -0.0734720909091 -0.000560409090909
0.000989347826087 0.0315135 -0.0480473478261
0.000921222222222 0.0358032222222 -0.0145736666667
0.000876466666667 0.0321692333333 -0.0629844333333
0.0017736 -0.005417 -0.0165242
0.000874619047619 -0.0734885 -0.000121142857143
0.00149055555556 0.0578779444444 0.0323805
0.00100280952381 0.0420757380952 0.0497356666667
0.00105996296296 -0.0726648333333 -0.0114636666667
0.000999045454545 0.0416728181818 -0.0741062727273
0.00123715 0.01790505 -0.0155682
0.0019995 -0.0540561666667 -0.007312
0.00104360714286 0.0335235357143 -0.0637583928571
0.00104778947368 0.0285280789474 -0.0449418421053
0.000776263157895 -0.0821988684211 -0.042364
0.000397347826087 -0.0838336304348 -0.0342592173913
0.0009959375 0.0391041875 0.0344219375
0.000620461538462 0.0491460384615 0.0612052307692
0.000663695652174 0.0360901521739 -0.0728008695652
0.00090780952381 -0.0836678333333 -0.0692806190476
0.00112476923077 0.0688959615385 0.0452478461538
0.000811 0.0710083 0.0485454
0.000896357142857 -0.0742894642857 -0.0146391428571
0.000906375 -0.0753787083333 -0.033179
0.00115264705882 0.0731798529412 0.0563931764706
0.00103866666667 -0.0662576666667 -0.0197786666667
0.000714964285714 -0.083807 -0.0367661071429
0.00098356 -0.08653626 -0.05313376
0.00058025 0.041188625 -0.0069793125
0.000763888888889 0.0123056111111 0.0283317777778
0.000884541666667 0.0363144583333 -0.0624186666667
0.00136372222222 -0.0584075 -0.00968469444444
0.000640692307692 -0.0804248846154 -0.0745781538462
0.000895545454545 -0.0861994545455 -0.0623938181818
0.001939 0.0466299545455 0.00974063636364
0.00102927777778 -0.0738325555556 0.00489861111111
0.000888037037037 0.0360410555556 -0.0647011111111
0.00178566666667 0.0184856666667 -0.0173799583333
0.000965357142857 0.0706763571429 0.0672523571429
0.000673833333333 0.0308292083333 -0.0615195
0.00119066666667 0.0448091666667 0.0021238
0.00084236 -0.07869898 -0.0192894
0.00126292 -0.07388238 0.00746484
0.00056904 -0.0783771 -0.03814964
0.000833259259259 -0.0849264259259 -0.0625588888889
0.0004098125 0.074356875 0.0613334375
0.000964235294118 0.0482456764706 0.0241931176471
0.000622608695652 0.0341345434783 -0.0434570434783
0.00190283333333 -0.00464441666667 -0.01660025
0.00074488 -0.08416454 -0.04069492
0.00131713333333 0.0667168333333 0.0424948
0.000348714285714 -0.0627641428571 -0.0164235
0.0005112 0.03592078 -0.07203568
0.00092 0.012604875 -0.00880225
0.00142594736842 -0.0682319736842 -0.0215704736842
0.000975380952381 0.0419735952381 0.0494832857143
0.000642769230769 -0.0780792692308 -0.0374978846154
0.000841052631579 -0.0888936052632 -0.0604351578947
0.0007062 0.0332552 -0.0463222
0.00125042857143 0.0649003095238 0.0401710952381
0.000864142857143 0.0303625 -0.0484083809524
0.00081735 0.02282405 -0.0213561
0.00176328571429 0.0192000714286 -0.0178014761905
0.000329692307692 -0.0637754230769 -0.0177902307692
0.000924857142857 -0.0734018333333 -0.0299417142857
0.0004751 -0.0795928 -0.04026355
0.000978173913043 -0.0874678043478 -0.0540770434783
0.000793954545455 0.0367606363636 -0.0689417727273
0.0003842 0.0441789666667 0.0522854666667
0.001657375 0.004959875 -0.0145215
0.00050595 -0.08121715 -0.07074375
0.000734545454545 0.0374119090909 0.0324770454545
0.000743739130435 0.0351001086957 -0.0587163043478
0.00102619230769 0.0359085384615 -0.0616592692308
0.000785476190476 -0.0834075952381 -0.0423398571429
0.00107877777778 0.000567888888889 -0.0153523333333
0.000832782608696 0.0467079782609 0.0171456086957
0.000930166666667 0.0331435 -0.0227868888889
0.0009134 0.0400678333333 0.0359975333333
0.00132888235294 0.0171270294118 -0.0111948235294
0.000647391304348 0.0229139347826 -0.0218410869565
0.00118433333333 -0.0239915 0.028452
0.000650423076923 -0.0839513461538 -0.0375482307692
0.000659807692308 0.0310957307692 -0.0620796923077
0.00120092857143 0.038957 0.0431487857143
0.000702043478261 0.0307884130435 -0.0610332173913
0.000917620689655 0.0340718793103 -0.0643196896552
0.00065147826087 0.0339781956522 -0.0567895652174
0.000742761904762 0.0466598809524 0.0176282380952
0.000970533333333 0.0397947 0.0357205333333
0.000714052631579 -0.0825416052632 -0.0430696315789
0.000664333333333 0.0108131 0.0270368666667
0.00129264705882 -0.0717343235294 0.0197419411765
0.00124109090909 -0.0419491363636 -0.00230509090909
0.000901666666667 0.0540492777778 0.0666384444444
0.0008548 0.0417355 -0.07383536
0.00086825 -0.07357935 -0.03036665
0.000888142857143 -0.086188452381 -0.0524994761905
0.0004974 -0.08426478 -0.03812072
0.000520826086957 0.0628438043478 0.0380634347826
0.000639666666667 0.0314067380952 -0.0566842857143
0.0005325 -0.08967655 -0.05964195
0.00121343478261 0.0337492826087 -0.017276
0.0007144 0.0292369 -0.04751825
0.000792 0.030476547619 -0.0489283333333
0.0014375 0.00252241666667 -0.0151994166667
0.000558111111111 0.0375129814815 -0.0674447777778
0.000886166666667 0.0268605 -0.0426195
0.000762631578947 -0.0836282894737 -0.0427463157895
0.00139927272727 0.0453072272727 0.00384118181818
0.00111352380952 0.0413903095238 0.0487341904762
0.000828764705882 0.0467063823529 0.0185631176471
0.000698538461538 0.0326491923077 -0.0484769230769
0.000626454545455 -0.0756668181818 -0.0339777727273
0.000792208333333 0.0358349166667 -0.0655189166667
0.0008516 0.02565675 -0.039668
0.000690111111111 -0.0856353518519 -0.0697545925926
0.000808413793103 0.0347529137931 -0.0648459310345
0.000546 0.0334782727273 -0.0469919545455
0.000578 0.0229473076923 -0.0224131153846
0.00121763157895 0.0534822894737 0.0283987368421
0.00069847826087 0.0690120217391 0.0686464347826
0.00072175 -0.08411015 -0.0419893
0.000722913043478 0.0327440652174 -0.0559655217391
0.000623227272727 -0.0843295 -0.0413957272727
0.00075445 0.0482889 0.0248388
0.000584789473684 -0.0877975526316 -0.0620044210526
0.000497 -0.0652253 0.0279618
0.000664529411765 0.0495719117647 0.0271568235294
0.00052108 0.03728162 -0.06670236
0.0011541 0.0539626 0.0289655
0.00117339130435 0.0639095 0.0391617826087
0.000748666666667 -0.0842096666667 -0.0540740833333
0.000472294117647 -0.0861580294118 -0.073976
0.000800875 0.0100825625 0.0266943125
0.000375176470588 -0.0797221470588 -0.0407941176471
0.000739904761905 0.0307293571429 -0.0496645714286
0.000683869565217 0.0307210217391 -0.0605202173913
0.000541692307692 -0.0411295 -0.00199530769231
0.000647178571429 -0.0846580714286 -0.0633813928571
0.000904307692308 0.0397437307692 0.0349006923077
0.000867526315789 0.0390875 0.0340186315789
0.000744833333333 -0.073985 -0.0311586666667
0.00078175 -0.08602225 -0.05189855
0.000436533333333 0.0418408333333 -0.0055938
0.00087565 0.0415514 0.0479882
0.000375307692308 0.0335852692308 -0.0253243461538
0.00136910526316 0.0182621315789 -0.0170692105263
0.000754347826087 -0.0839654565217 -0.068548
0.000717708333333 0.0360862083333 -0.0663585416667
0.000877285714286 0.0717963571429 0.0515762857143
0.000688208333333 0.0361722916667 -0.0669955416667
0.000375615384615 0.0335953461538 -0.0243545769231
0.00120883333333 0.0326315833333 0.0336848333333
0.000478043478261 0.0246007173913 -0.035084173913
0.001166 0.0335875 -0.0175590909091
0.000470875 -0.0844951666667 -0.0419710833333
0.000575954545455 0.0327221363636 -0.0493223181818
0.00065544 0.03223658 -0.05015948
0.000673421052632 0.0336993421053 -0.0456347368421
0.000995315789474 0.0171438157895 -0.0107083157895
0.00110646153846 -0.00160780769231 -0.0157529230769
0.000864571428571 0.0519803095238 0.028359047619
0.0006075 0.0414053 0.037827
0.000561739130435 -0.0847927173913 -0.0514093478261
0.000642137931034 0.0308613275862 -0.0510722413793
0.00139910344828 -0.0579259827586 -0.00807365517241
0.000687117647059 -0.0828986176471 -0.0438468823529
0.00124021212121 -0.0584870151515 -0.00968421212121
0.000887285714286 0.0231562142857 0.033173
0.000603739130435 0.0333439782609 -0.0478024782609
0.000813769230769 -0.0807594230769 -0.0744227692308
0.000589964285714 -0.0855599642857 -0.0693701428571
0.000554958333333 0.031154625 -0.05618725
0.00101357142857 0.033363547619 -0.0188041428571
0.001183 0.0191973 0.0321152
0.000599538461538 0.0314786923077 -0.0528524615385
0.000755615384615 0.00402788461538 0.0242657692308
0.000621724137931 -0.0853849137931 -0.0633822068966
0.000587857142857 0.0348616904762 -0.0579743809524
0.000360333333333 0.0339468333333 -0.0464227777778
0.00077235 0.0257077 -0.04012025
0.00068245 -0.08417345 -0.04248165
0.000473666666667 0.0490776666667 0.0609804166667
0.000902588235294 0.0331436176471 -0.0220664705882
0.000706210526316 -0.0833368684211 -0.0439088947368
0.001335 0.0458915 0.006213125
0.000612714285714 -0.0735900714286 -0.0132941785714
0.000655347826087 -0.0873787173913 -0.0526739130435
0.000616551724138 -0.0847517413793 -0.0634167241379
0.000553125 0.032637375 -0.0498784166667
0.000794941176471 0.0663874411765 0.0697208823529
0.00046 0.0333702826087 -0.0553509565217
0.00115133333333 -0.0694413 -0.0232599333333
0.000555576923077 0.0310038461538 -0.0530281153846
