3
1539
1.4633900 6.1099529 9.8192701
1.5923099 6.1145429 9.9719102
1.6158901 5.8424328 9.9579897
1.6291400 6.5262471 10.0649903
1.6325500 6.3912431 10.0659505
1.6983820 6.3931569 10.1403501
1.7304280 5.9838602 10.1218699
1.7632900 6.3960929 10.2171199
1.4506200 6.6523040 9.8167295
1.4766600 6.9212769 9.7814398
1.6205300 7.0614973 9.9148396
1.6453500 7.1951980 9.8863598
1.6695620 7.3290020 9.8586595
1.8501700 7.2013000 10.1053100
1.9225499 7.2027971 10.1743294
1.9493600 7.3383981 10.1438304
2.0902599 7.3427036 10.2854501
1.5218310 8.1591029 10.1307295
1.5394610 8.0360034 9.5360000
1.6034499 8.1209028 10.1791099
1.6740300 7.8969980 9.6360901
1.7283100 7.5981990 9.7908294
1.7448700 8.0697024 10.0735193
1.8185030 7.8921998 9.8360004
1.9751310 7.9227993 10.2427993
2.0728500 7.7764988 10.2000907
1.5969700 12.1908002 9.8741194
1.8931000 12.2208996 10.1200398
1.9884000 12.3023996 9.9977301
2.0209602 12.2563001 10.1614706
2.1116200 12.3282000 10.0394897
2.1853501 12.5116995 9.4687706
2.2600901 12.2953998 10.2397408
2.3030802 12.5214001 9.5064100
2.5103700 3.9051699 9.4493907
2.5894900 3.8619260 9.5038991
2.7533600 3.7896112 9.6013499
2.9221398 3.9022190 10.0640897
2.9816101 3.5880210 9.4710505
3.1612800 3.9031729 10.2882097
3.1830899 3.8215590 10.1878997
3.2058798 3.5618390 9.7158402
3.2303701 3.4839730 9.6127195
2.4042202 4.1994974 9.8738698
2.4472999 4.3333322 10.1175606
2.5267799 4.2944332 10.1682795
2.5312400 4.0013790 9.7206598
2.6112599 3.9589778 9.7741215
2.6689810 4.0006791 9.9257100
2.7294399 4.0455610 10.0746006
2.3856100 12.4623002 9.8317899
2.5284300 12.5425998 9.5840301
2.5310700 12.4118999 10.0289294
2.5738000 12.5147998 9.7465292
2.7037100 12.5811007 9.4981408
2.7122900 12.4609005 9.9419300
2.8076898 12.5791999 9.5349299
2.9550090 12.4022001 10.1766102
3.0258801 12.4452002 10.0516798
3.0541411 12.3877004 10.2116605
3.0624298 12.5377998 9.7700199
3.2521200 12.3589002 10.2833696
3.2995101 0.7292330 10.2498997
3.3785701 0.8604228 10.1888701
3.4165499 0.6765574 9.7332802
3.4206910 0.4914477 9.9606803
3.4745201 0.8062273 9.6718501
3.4898510 1.1032820 9.9562500
3.5031801 0.4556999 10.0094201
3.5110200 0.5353615 9.5763197
3.5263200 0.5041733 9.6121104
3.5321200 0.7840395 9.4742803
3.6040002 0.4703999 9.4931694
3.6483000 1.1738321 9.6677700
3.6624898 0.4419312 9.8804394
3.6868700 0.4346893 9.5413998
3.7274798 1.1619630 9.5702615
3.8237399 1.1517330 9.4703194
4.0588002 0.4249215 9.9786902
4.0835701 0.4174933 9.6399803
4.1185897 0.4152432 9.8250099
3.5815202 1.3208609 10.1693403
3.5987999 1.3220679 10.0677200
3.7004000 1.4493470 10.0676799
3.7231701 1.3070030 9.7669298
3.8836901 1.2858290 9.5696598
3.9555700 1.5601290 9.9680703
4.0275003 1.6942689 10.2671804
4.0753498 1.6888980 10.1672094
4.1116201 1.6849490 10.0674694
3.2967611 3.7205589 10.1238498
3.3795701 3.5068020 9.8001901
3.4372301 3.3679830 9.5803803
3.4675400 3.4809711 9.8419404
3.5603300 3.4644310 9.8746205
3.5923501 3.5806301 10.1322494
3.6507801 3.2633620 9.5395697
3.6511400 3.4445969 9.9109802
3.6609198 3.6423500 10.2688102
3.7468199 3.6287380 10.2958400
3.7475100 3.4249721 9.9494997
3.8448700 3.2460319 9.5948093
3.8691100 3.3491331 9.8639000
3.8774800 3.1841320 9.4801802
3.9015601 3.4663831 10.1212999
4.0909699 3.2603589 9.8112300
4.1628899 3.1481308 9.5708705
3.2946100 12.4574006 9.9991299
3.4276601 12.3927006 10.1932101
3.6274900 12.5027997 9.8235598
3.6961902 12.4049000 10.1409899
3.7204300 12.3424996 10.3007406
3.7467100 12.5555005 9.5742699
3.7895802 12.3787001 10.1746097
3.8202100 12.4607999 9.8923193
3.8404500 12.5290006 9.6079595
3.8940900 12.5387004 9.4813993
4.1598803 12.4047007 9.8682698
4.2220801 0.4188121 9.8437099
4.3254700 0.4223734 9.8620001
4.3647899 0.4279092 10.0412099
4.4038002 0.4332513 10.2197798
4.5525697 0.4135967 9.5657697
4.6990998 0.4309267 9.7581102
4.8023299 0.4344583 9.7766398
4.8169801 0.4477799 10.2945697
5.0482000 0.4473925 9.9929003
5.0835898 0.4452765 10.1781106
4.2075999 1.5332400 9.6681900
4.2315600 1.6719331 9.8675303
4.2677997 1.5266309 9.5679900
4.2794999 1.8092771 10.2666998
4.4716904 1.7883411 9.8665599
4.6279603 1.9156409 10.2659101
4.7348500 2.0439180 9.8652495
4.7546299 2.0452370 10.0664301
4.7701304 2.0426060 10.1657603
4.7648503 2.8231370 9.7381296
4.7654598 2.9724990 9.8745897
4.7747600 2.6616680 9.4541498
4.7823200 2.1799800 9.8645305
4.7896197 2.3170558 9.4633000
4.7940789 2.1791831 9.9648898
4.7961101 2.4547430 9.4624795
4.8033101 2.6918580 9.8451599
4.8061898 2.9768869 9.9728601
4.8462399 2.3149031 10.0628594
4.8487801 2.9823780 10.0702997
4.8665097 2.7066988 10.0631304
4.8679598 2.4525521 10.0625297
4.9058800 2.4384712 10.1728803
4.9088104 2.5753009 10.1639405
4.9367901 2.3080709 10.2836508
4.9411990 2.9942619 10.2619305
4.9529001 2.7180610 10.2579007
4.1870498 3.4306501 10.2122398
4.2499700 3.3018661 9.9851908
4.2575700 3.1345929 9.6020615
4.2582103 3.0849869 9.4689000
4.4483198 3.1065422 9.6217301
4.4498700 3.2375380 9.9378200
4.5441901 3.2827780 10.0638801
4.6079797 3.1013119 9.7426502
4.6644099 3.0974669 9.8024393
4.8583490 3.2741730 10.2730105
4.8634000 9.9708000 10.2749001
4.9769804 9.6885050 10.2631506
4.9822400 9.4027976 10.2677001
4.9828100 10.2484999 9.9178003
5.0762701 10.2883000 9.6763493
4.2890902 11.0994000 10.1458598
4.3249303 10.8160004 10.1981098
4.4759796 10.8164996 10.0625297
4.5327800 10.9567000 9.9705597
4.5930999 10.9552005 9.8819397
4.6062004 10.8143995 9.8967897
4.6090004 10.3920000 10.2587007
4.6663899 10.8122993 9.8077599
4.7152499 11.0081993 9.5419502
4.7169998 10.8085005 9.7074900
4.7836900 10.8551001 9.4409902
4.8156800 10.3909001 10.0288400
4.9699401 10.4918005 9.6329302
5.0787702 10.4029002 9.5272195
4.2194598 11.2437997 10.2242399
4.2376197 11.5328999 10.2529004
4.2867698 11.8190004 10.1446500
4.2961203 11.9628999 10.1678399
4.3507097 11.9620003 10.0638708
4.3520690 12.1056000 10.0705503
4.4038002 11.8161999 9.9652205
4.4507198 11.8132997 9.8636402
4.5140102 11.5302000 9.9514099
4.5178598 11.3869002 9.9538900
4.5288098 11.6209006 9.8415604
4.5606699 11.3840001 9.8435404
4.5986902 11.4678005 9.6409805
4.6107103 11.6219996 9.4401194
4.6152803 11.4686005 9.5416000
4.6245297 11.3134002 9.6401600
4.6907701 11.3137998 9.4387904
4.1957404 12.3536000 10.0304801
4.2619598 12.1726003 10.1997303
4.2673601 12.4289999 9.6156700
4.3015298 12.3800999 9.7742304
4.3292698 12.2073004 10.0785401
4.3552397 12.3922005 9.6480306
4.3834900 12.3258000 9.8052798
4.4968999 12.2470995 9.7023798
4.5856200 12.1337008 9.5923701
5.2504502 0.4467070 10.0363595
5.3022397 0.4208014 9.8937098
5.3540901 0.4502908 10.0552300
5.3888690 0.4481972 10.2400603
5.4014502 0.4165471 9.9184299
5.5088704 0.4279092 9.9311508
5.5520399 0.3861413 9.8001407
5.8578900 0.4445613 10.1666702
5.9528500 0.4324168 10.1968898
5.1155402 8.9728022 10.1006199
5.1536597 9.2511047 9.9778697
5.2012298 9.1051012 9.8756002
5.2105300 9.2500979 9.8884106
5.2679703 9.2487046 9.7932797
5.3510801 8.7969005 10.0480895
5.3515201 9.0670008 9.7789094
5.4521100 9.3431044 9.5120901
5.5499901 8.7957997 10.0828102
5.5783903 9.3225027 9.4395904
5.6771496 9.3050012 9.4737299
5.6781401 9.1962963 9.6272705
5.8500399 8.7985033 10.1461802
5.8501400 9.0686018 9.8402994
5.9499303 8.8002989 10.1481397
5.9504290 8.9327032 10.0166304
5.1098200 9.9653974 9.9263201
5.1268903 10.1780007 9.6976301
5.1520299 9.6826041 9.9899704
5.1699500 9.5409984 10.0066606
5.1753889 10.1792999 9.5676500
5.2175396 9.9608982 9.7299004
5.2244603 10.0992005 9.5586497
5.2283201 9.3953991 9.9110501
5.2764700 9.3920017 9.8031703
5.3678397 9.5305014 9.5834499
5.3746598 9.3906987 9.5905801
5.3988202 9.6696997 9.4521595
6.0336399 0.4051477 9.7076707
6.1204899 0.4334227 10.0548798
6.1596599 0.4395768 10.2342600
6.2442096 0.4199073 9.7387508
6.3435500 0.4155711 9.7632194
6.3867401 0.4298985 9.9370703
6.4299996 0.4441366 10.1109501
6.5110899 0.4158765 9.6202204
6.5499702 0.4793182 10.1056807
6.6185598 0.4272685 9.6327700
6.9132601 0.5991161 9.5403101
6.0502002 8.8035027 10.1399999
6.1500003 9.0755010 9.9320700
6.3501503 8.7967971 10.1325903
6.3501503 9.0712020 9.9275205
6.4505702 8.9368979 10.0333700
6.4513604 9.3789995 9.4556799
6.5396200 9.3422020 9.4879102
6.5425700 9.0058008 9.9416506
6.6219703 9.2941979 9.5182508
6.6241203 9.1857985 9.6713202
6.6505698 8.8019986 10.1145292
6.7055500 9.1338027 9.6992198
6.7815399 9.1876024 9.5771002
6.7898100 8.9785988 9.8838098
6.8500699 8.6608995 10.2234399
6.8523102 9.2322975 9.4544003
7.0847203 0.7883534 9.7659901
7.1180500 0.8450598 10.2607803
7.1305898 0.8088276 9.9367108
7.1766502 0.8293316 10.1071801
7.3846597 0.8386895 10.1418896
7.4726199 0.8193329 9.6381400
7.5971200 0.8562505 10.1697193
7.6600299 0.8486286 10.0100199
7.7851200 0.8333325 9.6896496
6.9501800 8.7933997 10.0806598
6.9516804 9.1039995 9.6399207
7.0274002 9.1561014 9.5175505
7.0398799 9.0712989 9.6742492
7.0619103 8.8905031 9.9845501
7.1208701 9.1290995 9.5510995
7.1597500 8.9846039 9.8671401
7.3387297 9.1437995 9.6306000
7.3487200 8.6639011 10.2510797
7.3618800 9.0788985 9.7919498
7.4480902 8.8042999 10.1997405
7.5485301 8.9422027 10.1222899
7.7511300 9.0776989 10.0679398
7.8489399 8.9491988 10.2865202
7.8522898 9.2102000 9.9142399
7.9675596 0.8544624 10.0681102
8.3015002 0.8484796 9.7822798
8.4056593 0.8531064 9.7994003
8.4267398 0.8330196 9.4614606
8.4467195 0.8655116 9.9769095
8.5053900 0.8496121 9.8227598
8.5467398 0.8619726 10.0004300
8.5724602 0.8500814 9.6560698
8.6352192 0.8423179 9.4957305
8.6508803 0.8666366 10.0177899
7.8733098 9.3735987 9.5234299
7.9532200 9.2104981 9.9761700
8.0508497 9.0861032 10.2456799
8.3523197 9.2234993 10.1931300
8.5520092 9.3657980 10.1424595
8.7506501 9.3721980 10.2328192
8.1033204 9.5143998 9.4550699
8.1463205 9.3815038 9.7691296
8.5024796 9.5601985 9.7460495
8.5770907 9.7243050 9.4765015
8.6650401 9.4356025 10.0981100
8.6987801 9.7478041 9.5182899
8.7629901 9.5297033 9.9835098
8.8391397 0.8434132 9.5364107
8.9004999 0.8883402 10.2293305
8.9844102 0.8604676 9.7310999
9.0257609 0.8729175 9.9090906
9.1510778 0.8573681 9.5880199
9.2127528 0.9023398 10.2809696
9.2340847 0.8822531 9.9431798
9.2709577 0.8864477 10.1272799
9.2923893 0.8662790 9.7892908
9.3184449 0.8542091 9.4443699
9.3795424 0.8993000 10.1377806
9.4223265 0.8588508 9.4613200
9.4635431 0.8713380 9.6394997
9.5876977 0.9086803 10.1724900
8.7753497 9.4398046 10.1365903
8.8368105 9.6955979 9.7153503
8.9511899 9.5079029 10.0915702
9.0668295 9.7279046 9.7974502
9.1842879 9.6302042 9.9855606
9.2683090 9.8182047 9.7224200
9.2868581 9.7356969 9.8742601
9.2879515 9.6279019 10.0247897
9.5336149 9.9428976 9.5261401
9.5573952 9.8738009 9.6809193
9.5923683 9.4795004 10.2821998
9.6671553 9.8773027 9.7194100
9.7504249 0.8974224 10.0356098
9.7917262 0.9098276 10.2134598
9.8759215 0.8817762 9.7144302
9.9172387 0.8942410 9.8920902
9.9431369 0.8821413 9.5473696
10.0043798 0.9273589 10.2413706
10.1470901 0.8832216 9.5879398
10.1966998 0.8506626 9.4465902
10.2918698 0.8389130 9.4766300
10.2966698 0.9086281 9.7767599
10.4458900 0.8725822 9.6589494
10.4649998 0.7824227 9.5626293
9.7362837 9.9240029 9.6005015
9.7858850 9.7727040 9.9143498
9.8060183 9.9660028 9.4796102
9.8405676 9.9181989 9.6381502
9.8723788 9.7441981 9.9403001
10.0144194 9.9558989 9.5550204
10.0643598 9.7035030 10.0106802
10.0773405 9.6080983 10.1585397
10.1707894 9.5800022 10.1909703
10.2380300 9.7410996 9.9275503
10.2868006 9.9802027 9.5096501
10.3108706 9.9093029 9.6633192
10.4174502 9.7894007 9.8461006
10.4431398 9.6023986 10.1442207
10.5082598 9.8731015 9.7324895
10.5236899 9.6704001 10.0297695
10.5367200 9.5776999 10.1792198
10.6911799 0.8860976 9.8777507
10.7245194 0.6977394 9.6917292
10.7574500 0.5092025 9.5055997
10.8107598 0.6695613 9.7345905
10.8829299 0.7395819 9.8674903
11.0026300 0.5228892 9.7245099
11.1174900 0.5436987 10.2711003
11.1890296 0.4908666 9.7911097
11.2062795 0.4621372 9.4584394
11.2625705 0.4993975 10.1599600
11.4881294 0.4801229 9.8615102
11.5162199 9.2267031 10.2438005
10.6170103 9.6443975 10.0641204
10.6300199 9.5509002 10.2121402
10.6949396 9.8214978 9.8014902
10.7022999 9.7187990 9.9484595
10.7103502 9.6169049 10.0973500
10.7174600 9.5139006 10.2446005
10.7439002 9.9465037 9.5313499
10.7735600 9.8847011 9.6856896
10.8888000 9.6628973 10.0142695
11.0554304 9.6888999 9.9308202
11.0590197 9.5784971 10.0770397
11.3171600 9.8382020 9.4516603
11.4305196 9.7349007 9.6384399
11.4921704 9.7633982 9.5163500
11.5554603 0.4803986 9.6940100
11.6185099 0.4724562 9.5331604
11.6292601 0.4891306 10.0635001
11.6659096 0.4934222 10.2476301
11.7637701 0.4896820 9.7283600
11.8008005 0.4940927 9.9128904
11.8417703 0.5066320 10.0912508
11.9353700 0.4945919 9.5779104
12.0178098 0.5199164 9.9341096
12.2248698 0.5906895 9.7316103
12.3927295 0.8323267 10.2731204
12.4183800 0.6366596 9.5489100
11.5901502 9.2787985 10.1323500
12.0891100 9.0686986 10.2152703
12.1929701 9.3716020 9.6313693
12.2280903 8.9360038 10.2390498
12.3463497 9.2559988 9.6885702
12.3511292 8.8014985 10.2413194
12.3609696 9.1674039 9.8371999
12.4279102 8.8021997 10.1758903
12.4313701 8.9818025 10.0074103
11.7374398 9.4994996 9.7503997
11.8001606 9.5305014 9.6296798
11.9422795 9.5079029 9.5396992
11.9649898 9.4334045 9.6896905
12.0637799 9.3880976 9.7106304
12.1111702 9.4199041 9.6013602
12.2518698 9.3964050 9.5104203
12.5105204 0.8273497 9.9722603
12.5419702 0.9434894 10.2092307
12.6042999 0.9240434 10.0557599
12.7034597 0.8446425 9.7815702
12.7106998 1.0603589 10.1367394
12.7905104 0.9520277 9.8863905
12.9162902 0.7982031 9.5034000
12.9203498 1.0073930 9.8647401
13.0331805 0.8284226 9.4998507
13.0513096 1.1818110 9.9151200
13.2672898 0.8898377 9.4936704
13.3330701 1.0756030 9.7042406
12.9276197 1.3155190 10.1436200
13.0260894 1.6122460 10.2895005
13.1558999 1.6071800 10.1263700
13.2383499 1.6075220 10.0702597
13.2473605 1.9021480 10.2628199
12.8445104 8.4052989 10.2522895
13.1641394 8.2710022 10.0102099
13.1999301 7.8737000 10.2378102
13.2017098 8.1397975 10.0626098
13.2376095 7.7397008 10.2947000
13.2645704 8.3685005 9.7471802
13.3164395 8.3800042 9.6238498
12.4764601 9.2113996 9.5940903
12.4931093 8.8938037 10.0303404
12.5288693 9.2227990 9.4708698
12.6006203 9.1547016 9.4976593
12.6150195 9.0653980 9.6458104
12.6849301 8.9915032 9.6726902
12.7640301 8.8218013 9.8442901
12.9005006 8.5546011 10.0382101
13.0848801 8.6432025 9.6792299
13.4694204 1.0146720 9.6050715
13.5067599 0.9558573 9.4829304
13.6761907 1.1483280 9.7093415
13.7448795 1.0252219 9.4700903
13.9514506 1.1587370 9.5747998
13.4309595 1.1972559 9.7968401
13.5249207 1.3109000 9.8945601
13.5495998 1.5407731 10.0343795
13.5498503 1.8376190 10.1219993
13.6336703 1.3222621 9.9073099
13.6483693 1.6910430 10.1146605
13.6494106 1.5421730 10.0467503
13.6495708 1.9851031 10.1615405
13.7321502 1.4431630 10.0003900
13.8448598 1.4618490 10.0079700
13.8488999 1.8451210 10.1996101
13.9573095 1.4855860 10.0093102
14.0458699 1.2689230 9.6767703
14.0641099 1.6215889 10.0909201
14.1506204 1.9928510 10.2508599
14.2162200 1.2759189 9.5242104
13.4683196 2.1919091 10.2336397
13.5025401 2.3349901 10.2850506
13.6503298 2.1284672 10.1619000
13.7495007 2.1302481 10.1739001
13.7520600 2.4090779 10.1432698
13.7722706 2.6174709 10.1490896
13.8780102 2.8953031 10.1306001
13.9499996 2.5532988 10.1609202
14.1490297 2.4182871 10.2240499
14.1495997 2.5573671 10.2063399
14.2490193 2.5585520 10.2118300
14.2494300 2.6970129 10.1832105
14.2498594 2.2798181 10.2615207
14.2499395 2.9712392 10.0634703
14.2505299 2.1381532 10.2615403
13.8607398 3.1770170 10.2849193
13.8889402 3.0326990 10.1483297
13.9638595 3.4502002 10.2627398
13.9739197 3.5864259 10.2797206
13.9890006 3.3059791 10.1200398
14.0174199 3.7158800 10.1667503
14.0356394 3.0289518 10.0071300
14.0393600 3.2992510 10.0149298
14.0661299 3.3823180 9.9748205
14.1674103 3.4280419 9.8492093
14.2506203 3.1042770 9.9723395
14.2531404 3.2371210 9.8754596
13.9784496 3.9902781 10.2867205
13.9816599 4.2601600 10.2934903
14.0444897 4.3923180 10.2084596
14.0500097 4.6619028 10.2164606
14.0529703 4.7972496 10.2236299
14.0907094 4.1183899 10.0971805
14.0976403 4.2537297 10.1071103
14.1034601 4.5246710 10.1210000
14.1064599 4.6589971 10.1222899
14.1328098 3.9753690 9.9756001
14.1872000 3.9711967 9.8791998
14.2109208 4.2451471 9.9161193
14.0576493 4.9326201 10.2317603
14.0594197 5.4714158 10.2423402
14.0629504 5.0679599 10.2398796
14.1166002 5.1993434 10.1441601
14.1656902 5.3297728 10.0396601
14.2071508 5.5935690 9.9292295
14.2512703 5.7228878 9.8142000
13.8438195 6.5425793 10.2890600
13.9042502 6.5398300 10.2031203
14.0002202 6.1366940 10.1554701
14.0251303 6.4002583 10.0241601
14.0531901 6.1329240 10.0651002
14.0968999 6.2635397 9.9495500
14.1169103 5.9963171 9.9736005
14.1288303 5.8628703 9.9933101
13.5012101 7.4701020 10.1474598
13.5368202 7.3387031 10.1987300
13.6036100 7.0737009 10.2976402
13.7003101 7.4682990 9.9034999
13.7578398 6.9380999 10.1674302
13.8248596 7.4642976 9.7312294
13.8440998 7.0665041 9.9376095
13.8807502 7.5540026 9.5166899
13.9289796 6.9314400 9.8830992
13.9433201 7.1323970 9.7166998
13.9474096 7.2754999 9.6182497
13.9831202 6.9298381 9.7798007
13.9857596 7.1362038 9.6182404
13.9916800 6.9928919 9.7155804
14.0386801 6.6627190 9.8672304
14.1447205 6.7198500 9.6159698
13.3677702 7.7392021 10.1272603
13.3765601 8.1688985 9.7893002
13.4020206 7.8706974 10.0007197
13.5442996 8.1045041 9.5662298
13.5544399 7.9984972 9.6921306
13.6331199 7.7345972 9.8041203
13.6941206 7.7321008 9.7172204
13.7335192 7.8319022 9.5187500
14.4515699 1.6755391 9.8971799
14.6048097 1.6713960 9.7663198
14.6762505 1.6283171 9.6631600
14.6860108 1.6738470 9.7082797
14.8265800 1.8211229 9.7375894
15.0389001 1.8210779 9.5180599
14.3492799 2.9718499 10.0951008
14.4326799 2.1133421 10.2260904
14.4480700 2.2648871 10.2459202
14.4488299 2.9750022 10.1213707
14.5451296 2.2559022 10.2139795
14.5508600 2.5594011 10.2330307
14.6504296 2.9750390 10.1430900
14.6523099 2.3962930 10.1954499
14.7238001 2.2583681 10.1235900
14.8250908 2.3979919 10.0957407
14.8515701 2.9712920 10.1043796
14.8777999 2.2563559 9.9943308
14.9048204 2.3997501 10.0348601
14.9194002 2.5373029 10.0576002
15.0240399 2.8152689 10.0354999
15.0943501 2.5413111 9.9582002
15.1402401 2.1093860 9.6678492
14.2941307 3.8274820 9.6801305
14.3520497 3.3742930 9.8105604
14.4551806 3.9148028 9.4650807
14.5204598 3.8453559 9.4844708
14.5487497 3.2462699 9.9822395
14.5496698 3.1110870 10.0693498
14.6493400 3.3809619 9.9172899
14.6500999 3.1119362 10.0822700
14.7489896 3.6497491 9.7404495
14.8508195 3.2471791 10.0081395
15.0540704 3.2450999 9.9756802
15.1180197 3.8726700 9.5672393
15.1691400 3.3500271 9.8960698
14.3179502 4.3719714 9.7216703
14.3189300 4.6410407 9.7210901
14.3554201 4.0935129 9.5915301
14.3583603 4.2292699 9.5986705
14.3313194 5.1832134 9.7451797
14.3677499 5.5938521 9.6201403
14.3774701 5.4484978 9.6437903
14.4195408 5.4700379 9.5158899
14.3350000 6.0265288 9.5167300
15.2076902 2.8190911 9.9499198
15.2106397 2.1071879 9.5932595
15.3108900 2.3967100 9.7420905
15.3409503 2.5393369 9.7876899
15.3802605 2.9549899 9.8492494
15.4344793 2.6788558 9.7478302
15.5135496 2.8167809 9.6883494
15.3516103 3.7762302 9.5978705
15.3783802 3.0893681 9.8473905
15.4358400 3.7437079 9.5800692
15.4745197 3.6148131 9.6364804
15.5035201 3.4867001 9.6786497
15.5197298 3.7459431 9.5267203
15.7280099 3.0815229 9.4710803
15.7340504 3.3519189 9.4802100
15.7376397 3.2179279 9.4872704
0.9090595 8.4612006 11.0004302
0.9822010 8.3449045 10.7535291
1.1290710 8.2350979 10.8740199
1.1446520 8.2746008 10.3111500
1.2173899 8.2189972 10.3709698
1.2481001 8.1999982 11.1062499
1.2573100 8.1565995 10.7868901
1.3112080 8.1328014 10.6392493
1.3787800 8.1364000 10.4741203
0.6734517 9.0202997 10.8289002
0.6743215 9.1548050 10.8279493
0.6843202 9.0191001 10.6290402
0.6879701 9.1502974 11.0399704
0.6938709 8.8851973 10.9298695
0.6965895 8.8841030 10.6296903
0.7035902 9.1523016 10.4281502
0.7204500 9.1487030 11.1638894
0.7283485 8.7489048 10.8303502
0.7291392 9.2860023 10.3277601
0.7338712 9.2825005 11.1462204
0.7785198 8.6140055 10.7310796
0.7869715 8.6120004 10.6310397
0.8446903 8.5335979 10.9285004
0.8684800 8.4759006 10.6319403
0.7709891 9.5582018 10.4257800
0.7883798 9.6957013 10.8246002
0.7957399 9.6957991 10.6253205
0.7964096 9.6943015 10.3253201
0.7983802 9.6943015 10.5254697
0.8037502 9.6955011 10.4250601
0.8285700 9.8313028 10.3243599
0.9538794 10.1068001 10.8226603
0.9853200 9.9651003 11.1579504
0.9865996 10.2434000 10.6222900
0.9886895 10.2440994 10.8217299
0.9934606 10.2427993 10.3222998
0.9947217 10.2427993 10.4222698
1.0030001 10.2327997 10.9930895
1.0081610 10.1004997 11.1314496
1.0379291 10.2364998 11.0973194
1.0109700 10.5179008 10.5208699
1.0237599 10.6544998 10.3205005
1.0284700 10.5170999 10.3207901
1.0300210 10.7926000 10.4191909
1.0475301 10.9293004 10.5174100
1.0486291 10.5181001 10.9185306
1.0878200 10.6568001 10.9191397
1.1220190 11.0493004 10.7094804
1.2024000 11.1871008 10.7691698
1.2602900 11.0576004 10.9956795
1.3228001 11.0601000 11.0749099
1.0841599 11.2047996 10.3168497
1.1205099 11.2047996 10.5160000
1.1281500 11.3426996 10.3160692
1.2610500 11.3261007 10.7049104
1.3347201 11.5956003 10.4840500
1.3461390 11.7278993 10.3293601
1.9279000 5.4550702 10.3655299
1.9497820 5.3173527 10.3463698
2.0103399 5.3235004 10.4281502
2.0375499 5.5956100 10.5326595
2.0806000 5.3222179 10.4974499
2.0962900 5.7326411 10.6106196
2.1198299 5.4635713 10.5950199
2.1897398 5.1881298 10.5335899
2.2390299 4.9616918 10.4201101
2.2394599 5.0463527 10.4886107
2.2650498 5.1874970 10.5996998
2.3083300 5.7397489 10.8210603
2.3178898 5.0472696 10.5514694
1.8983090 6.5358728 10.3594800
1.9703980 5.8609773 10.4505299
1.9722830 5.9954007 10.4452102
1.9810400 6.2657301 10.4266005
2.0514200 6.4033573 10.4932208
2.2268901 5.8721830 10.7581904
2.2287599 6.0060332 10.7525298
2.2383300 6.1400542 10.7394001
2.3063801 6.1425571 10.8117396
2.3316301 6.4115832 10.7788397
2.3452002 6.5461402 10.7610393
1.9032001 6.6708932 10.3504797
2.0473199 6.6745956 10.4881600
2.0665200 6.8089589 10.4660103
2.1278199 6.6755200 10.5489707
2.1641799 6.9435090 10.5054602
2.2127300 6.6766967 10.6059602
2.2180299 6.8120221 10.5967997
2.2477901 7.4822977 10.4069402
2.3133999 6.9471900 10.6381299
1.6146300 8.0728019 10.3992205
1.7206400 8.0133015 10.6499996
1.7447401 8.0517987 11.1589404
1.7944790 8.0200005 11.0179298
1.8116600 7.9931999 10.6863296
1.8758110 7.9765031 10.5398195
1.9350500 7.9680020 10.9128999
1.9473999 7.9263980 10.5935698
1.9848589 7.9358965 10.7715102
2.0521020 7.8700054 10.3013804
2.0715101 7.9685980 11.1215003
2.1208101 7.8745047 10.6724706
2.1326202 7.8149969 10.3584295
2.1666999 7.8336978 10.5368001
2.1670489 7.8957984 10.8442493
2.2663099 7.5607980 10.4178404
1.4416601 11.1978995 11.0947704
1.4364580 11.3297002 10.9551894
1.4392000 11.4617003 10.8080497
1.5058900 11.3329999 11.0271396
1.5864701 11.6018998 10.7978201
1.6565720 11.3353003 11.1591304
1.7353210 11.4713004 11.0767204
1.9373200 12.0791998 10.4382895
2.0746000 11.9169001 10.7932501
2.1502390 11.8405996 10.9536108
2.2498299 11.8428003 10.9926993
2.0442000 12.1857999 10.3213200
2.2919900 12.1390000 10.5578499
2.4130601 4.7761505 10.4367305
2.5755600 4.5660883 10.4707899
2.7738800 4.1853492 10.3138909
2.7945901 4.7760610 10.7902698
2.8423599 4.2496920 10.4489801
2.9035399 4.5468211 10.7338494
2.9963099 4.6569710 10.8369403
2.9971700 4.5334031 10.7671097
3.0169201 4.1946019 10.5326101
3.1254899 4.0843640 10.4755200
3.2163099 4.0644333 10.5119692
3.2332202 3.9715101 10.4200803
2.3774100 4.9044490 10.4967896
2.3907300 5.0510471 10.6195603
2.4245901 5.1908870 10.7225999
2.5084300 5.1890914 10.7809603
2.5466699 5.0519709 10.7466802
2.6698101 5.1933979 10.9011298
2.6703600 4.9137701 10.7689397
2.7055100 5.0549358 10.8699705
2.9295299 4.9126968 10.9355897
2.9701800 5.4676309 11.1594805
2.9975499 5.3302129 11.1365402
2.3883500 5.7414332 10.8815897
2.4122000 6.5476079 10.8350897
2.4622700 5.8766832 10.9455995
2.5469689 5.8770627 11.0035604
2.6227301 6.2841410 11.0555999
2.6305690 6.4184000 11.0433595
2.7106800 6.4196070 11.1030703
2.7219600 5.8780909 11.1111300
2.7413499 5.7418873 11.0957697
2.4336199 6.6814730 10.8093703
2.5093299 7.0837000 10.7217599
2.5335399 6.8173641 10.8469101
2.8108398 6.9533810 10.9885102
2.8491002 7.5493981 10.7569909
2.8500499 7.1334019 10.9180398
2.9062200 6.9536571 11.0344701
2.9493200 7.2745010 10.8947400
2.9504700 7.4113980 10.8288405
3.0492002 7.2769006 10.9331599
3.0507201 7.1384022 11.0056102
3.0508188 6.8623200 11.1190993
3.0511001 7.4130967 10.8657796
3.1491101 7.0042019 11.0986698
3.2492098 7.4205031 10.9586893
3.2507000 7.5571020 10.8919097
2.4262499 7.6055978 10.5929608
2.5064601 7.8383023 10.7885106
2.6817701 7.9139033 10.9465998
2.8499500 7.8276033 10.7440595
2.8565300 7.9953009 11.0993301
2.9060901 7.9630995 10.9579097
2.9342200 7.6880013 10.7341697
2.9496199 7.8293988 10.7277203
3.0483899 7.8302994 10.7332403
2.5149700 12.0353000 10.7860500
2.7192801 12.0120002 10.8558703
2.9130699 11.9701996 10.9247398
2.9908200 11.7967995 11.1051099
3.0019300 11.9351000 10.9589007
3.0061600 12.0598003 10.8076604
3.0903299 11.8937995 10.9878397
3.1942101 11.9988006 10.8690700
3.2485500 11.8386000 10.9876096
2.8723900 12.3449005 10.3014298
2.8893598 12.2636994 10.4582701
2.9770802 12.3353004 10.3361392
3.0763901 12.3198992 10.3712194
3.1047899 12.1508995 10.6855696
3.3179100 0.6036013 10.3912605
3.3344401 0.6067604 10.5387699
3.3852998 0.5335584 10.6125399
3.4205599 0.4841835 10.4883499
3.4219502 1.0309960 10.5674397
3.4671600 0.4912913 10.6661897
3.4906599 1.0467989 10.7768895
3.4912901 1.1705610 10.6350007
3.5027000 0.6528273 11.0519202
3.5085101 0.9233728 10.9027103
3.5107201 0.5037412 10.8379005
3.5546701 0.5139932 11.0081797
3.6097500 0.4465729 10.5611701
3.6927999 0.4634634 10.9106302
3.7877799 0.4514233 10.9417299
3.9068102 0.4339889 10.6353899
3.9266502 0.4495979 11.1425398
4.0300698 0.4533679 11.1614503
3.5316802 1.3274481 10.3696203
3.5767299 1.3170609 10.6791798
3.6165491 1.3163690 10.7842907
3.6530499 1.4557689 10.5691897
3.6758399 1.4547779 10.6698796
3.7130800 1.4518501 10.8267497
3.7189401 1.2016670 11.1092497
3.7628401 1.3316200 11.0630002
3.9557400 1.7025770 10.4671493
3.9634900 1.7088881 10.6688300
3.4519900 3.7538782 10.3032598
3.5244999 3.8231020 10.4338201
3.6186399 3.8095191 10.4656294
3.7140902 3.7984098 10.4955705
3.7321611 3.7089291 10.4015395
3.8945898 3.8812980 10.6379604
3.9901999 3.8704281 10.6673399
4.0043900 3.7731682 10.5789099
4.0889001 3.8652790 10.6937196
4.1033402 3.7679970 10.6049404
4.1841604 3.8538279 10.7237995
3.2747099 4.6072532 10.9376097
3.2788899 4.4906880 10.8641600
3.3086101 4.0466711 10.5463797
3.3677400 4.7173281 11.0411793
3.3710999 4.4723670 10.8978795
3.3896300 4.1325907 10.6650107
3.4028599 4.0334980 10.5780298
3.5553700 4.6909233 11.1086201
3.5689098 4.2129378 10.8107496
3.6864099 3.9952467 10.6699197
3.7502102 4.6089073 11.1443698
3.7506002 4.4637318 11.0795405
3.7851701 3.9903368 10.6962007
3.8513001 4.4679120 11.1157903
3.8600899 4.1889702 10.8931595
3.8836701 3.9843321 10.7232202
3.9524389 4.4730380 11.1499792
4.0388596 4.2683482 11.0406401
4.1423002 4.2727659 11.0601699
3.3495200 7.4229022 10.9967496
3.6506800 7.4260980 11.0812299
3.3495401 7.6979999 10.8574601
3.4065500 7.9414025 10.7796695
3.4449000 8.2475031 11.0245002
3.4496600 7.6996991 10.8826105
3.5091101 8.0873016 10.7587203
3.5506301 7.8374986 10.8404700
3.5506599 7.6993043 10.9043000
3.6353099 8.3870003 10.9443106
3.6503400 7.9514021 10.7831806
3.7311001 8.0949003 10.7276095
3.7504002 7.5649028 11.0195996
3.7510400 7.6999003 10.9399501
3.8502300 7.8395018 10.8556300
3.8504000 7.7015990 10.9425206
3.9507002 7.7006971 10.9530296
4.0500001 7.5675030 11.0466303
4.0502502 8.1136981 10.6791500
4.0503703 7.8400010 10.8680204
3.8981200 8.9808041 11.1606596
3.9909203 8.5373009 10.7561601
4.0183603 9.2656994 11.1583099
4.1672103 8.6978981 10.8360900
3.5334600 10.2541000 11.1598503
3.7785999 10.1105003 10.9896204
3.8156400 9.9703008 11.0432496
3.8999401 9.9721039 10.9895598
3.9494899 9.8313997 11.0613005
3.9935089 9.9705020 10.9484997
4.0023997 9.5502008 11.1366799
4.0099402 10.2533000 10.7981004
4.0165801 9.4083045 11.1569595
4.0441998 9.8315040 11.0220406
3.4870100 10.9657999 11.0985497
3.4986602 10.5369994 11.1063402
3.5608900 10.3917997 11.0265501
3.5976099 11.1060003 10.9092500
3.6614400 10.5309999 10.8191799
3.7330100 10.5290003 10.7490793
3.7684701 10.6709991 10.6224297
3.8211802 10.8121000 10.5239293
3.8354800 10.9553002 10.5443299
3.8723098 10.3878006 10.7740294
4.1628298 10.8142998 10.3156799
4.1755401 10.5340006 10.5101801
3.3547201 11.5476996 11.1009302
3.3691900 12.0340995 10.7770795
3.4070401 11.2530002 11.1623202
3.4535602 11.8292002 10.8816791
3.5206799 11.3933003 10.9751793
3.5480398 11.8284998 10.8320303
3.5667201 11.6766999 10.8677102
3.6434000 11.8289003 10.7853599
3.7457100 11.3922004 10.7741496
3.9949790 11.3933999 10.6057897
4.0022200 11.8254004 10.6206099
4.0348601 11.2474002 10.4863299
4.1772798 12.1064996 10.3497999
3.2746200 12.2900996 10.4418695
3.9802003 12.2174993 10.3945201
4.2168298 0.4451573 10.6920898
4.2522801 0.4419536 10.8759003
4.3160100 0.4409701 10.7169198
4.3839100 0.4477129 10.5515802
4.4152490 0.4368574 10.7416203
4.4828099 0.4435182 10.5762500
4.5576901 0.4453212 10.9385001
4.5862799 0.4472286 10.5950497
4.6895300 0.4509464 10.6139900
4.7532502 0.4494563 10.4546100
4.7642700 0.4528463 10.9760705
4.8674401 0.4565865 10.9950202
4.9950900 0.4541204 10.6766596
5.0347201 0.4591570 10.8550601
5.0587300 0.4525706 10.5169602
4.6518403 1.9136290 10.3659397
4.7501703 1.7778280 10.9764608
4.8353299 1.8127190 10.8873704
4.8500299 1.7729030 10.9611796
4.9912501 2.3125780 10.3722094
5.0220401 2.1831910 10.4883602
5.0514000 2.3164300 10.4537001
5.0598797 2.4529020 10.4415501
5.0615803 2.5898220 10.4366904
4.1985102 3.7571790 10.6348107
4.4967290 3.7460921 10.7080694
4.5344802 3.5685080 10.5181504
4.7197198 3.6630330 10.6500704
4.7580199 3.4865811 10.4608694
4.8322300 3.6819798 10.6589207
4.9327500 3.6793801 10.6819002
5.0528101 3.4304408 10.5662802
4.3576197 4.1807289 10.9985704
4.5503890 4.3254201 11.0905599
4.7645704 4.3291003 11.1472905
4.7936202 4.2352299 11.0575305
4.9223597 4.1548461 10.9772906
4.9350001 4.0602088 10.8871898
5.0247796 4.1618119 10.9947696
5.0331890 4.0550679 10.9146200
4.2502601 7.4327001 11.1492900
4.3504499 7.4322973 11.1489901
4.4506402 7.4327001 11.1386999
4.7501200 7.2873980 11.1199794
4.8502204 7.2889999 11.1232204
4.8509990 7.4281031 11.0519603
4.9502002 7.2880019 11.1215897
5.0501698 7.2885007 11.1110602
4.2501101 7.7051967 10.9830108
4.2506000 8.2511986 10.6021501
4.3501700 7.8414986 10.8934501
4.3503097 8.1122974 10.6763402
4.3504802 8.2508037 10.5901696
4.4501801 8.3948011 10.5405394
4.4505703 8.2513029 10.5910199
4.5502000 8.1159025 10.6703797
4.5503601 7.9739997 10.7874200
4.5505199 7.7077970 10.9876702
4.6499101 8.1176991 10.6721297
4.6501090 7.9801986 10.7838605
4.6504103 7.7051967 10.9833404
4.6504103 7.8443000 10.8977007
4.6505490 7.5666979 11.0350195
4.7510699 7.5673023 11.0250795
4.8490902 7.5630997 11.0049797
4.8500900 8.2527036 10.5919195
4.9500400 7.8397030 10.8565502
5.0493497 7.7045038 10.9266192
5.0499900 7.8412974 10.8818505
4.3011289 8.8400999 10.8592901
4.3295389 8.9830020 10.9024597
4.3488997 9.1265002 10.9323505
4.3688896 9.2698047 10.9626707
4.4196201 8.6914003 10.6774801
4.5278403 8.8372016 10.6612192
4.5636301 8.6890990 10.5336504
4.5928201 8.8332975 10.5770798
4.6191299 8.9787999 10.6174098
4.6343999 8.6868042 10.4599204
4.6921903 8.9794025 10.5482796
4.7623101 8.9775035 10.4728006
4.7965790 8.6871022 10.3414301
4.8220200 8.5481042 10.3785899
4.8609800 9.2634046 10.4437796
4.9273702 9.2615047 10.3603294
4.1970899 9.4109038 11.0661602
4.2177700 9.8339999 10.9219402
4.2711701 10.2546997 10.6483605
4.2714402 9.5532993 10.9988805
4.3696598 9.4124982 10.9648202
4.3759700 9.8346034 10.7994303
4.4204998 9.9741006 10.6881903
4.5708590 9.9735046 10.5542801
4.5859590 9.4102034 10.7510900
4.6111490 10.1143997 10.4361298
4.6374002 9.5499996 10.6505407
4.6849898 10.1129999 10.3674894
4.7213100 9.4083045 10.5956700
4.7768103 9.5489034 10.4987798
4.8882701 9.8308036 10.3093497
4.9063703 9.6898014 10.3337606
5.1620798 0.4562289 10.5356900
5.2366802 0.4587174 10.8983498
5.3290599 0.4580766 10.3944400
5.4283701 0.4538596 10.4193501
5.4678889 0.4593209 10.5979005
5.6347097 0.4611090 10.4563795
5.6946701 0.4511327 10.3020398
5.7450598 0.4616306 11.0045997
5.8522201 0.4732684 11.0177202
5.9121400 0.4636199 10.8637400
5.9676901 0.4461110 10.7155703
5.2486500 1.9128701 10.8552203
5.3478600 2.0504671 10.8174002
5.4496997 1.7804580 10.9672500
5.6472099 2.0601379 10.9221200
5.6497403 1.6506170 11.0728899
5.7495497 1.7859560 11.0107502
5.7504503 1.6452889 11.0630104
5.8498601 1.9219290 10.9681198
5.9502800 2.0606068 10.9371496
5.9504197 1.6491120 11.0813603
5.1571997 2.3103880 10.6021995
5.1764101 3.0087531 10.5923703
5.2405302 3.0122099 10.6702503
5.2513401 2.7357189 10.6683504
5.3127697 2.8767509 10.7443798
5.3204698 2.7379771 10.7413903
5.3849099 2.8790010 10.8143399
5.4695602 2.8782710 10.8737005
5.4867901 2.6016380 10.8644301
5.5577504 2.8776082 10.9291198
5.5675996 2.7385580 10.9257093
5.7480996 2.3419412 10.9351994
5.7493499 2.4848732 10.9553300
5.7494403 2.9122231 11.0176895
5.8488590 2.2018699 10.9390896
5.8494201 2.7713920 11.0196508
5.8495495 2.4857600 10.9693799
5.9503997 2.7732630 11.0281091
5.1293401 3.4243022 10.6289601
5.1556500 3.2847081 10.6057897
5.1966198 3.8533511 10.9428996
5.1992000 3.4270510 10.7001308
5.2891504 3.8345612 10.9767597
5.3498503 3.8967731 11.0296896
5.3805397 3.0164421 10.8144507
5.4526902 3.7570889 11.0114999
5.5186399 3.2957271 10.9524801
5.5884901 3.4355300 11.0205999
5.6506200 3.1947119 11.0277301
5.6521702 3.9098188 11.1488998
5.7496899 3.6226211 11.1065097
5.9494199 3.0575991 11.0845501
5.2043702 3.9932127 11.0005299
5.2492297 4.3270220 11.1622298
5.1497896 7.4258973 11.0477302
5.1498190 7.2883000 11.0994903
5.2501401 7.2883968 11.1227306
5.8524390 7.2876960 11.0788606
5.8531100 7.1488032 11.1198798
5.2501103 7.7058980 10.9958900
5.3502689 8.3851963 10.4489895
5.4499600 8.3891982 10.4533304
5.4502501 8.1193978 10.7084196
5.4503297 7.9818005 10.8328108
5.5500004 8.3886990 10.4650799
5.5504297 8.1173042 10.7059497
5.5505801 7.5716982 11.0895392
5.6501497 8.2577029 10.5730109
5.6505497 8.1176022 10.7067404
5.6507001 7.5702970 11.0866800
5.8521498 7.5663025 11.0002207
5.8543701 7.8464979 10.8558498
5.3500901 8.5242996 10.3257000
5.6499401 8.5256994 10.3516597
5.7499800 8.5266018 10.3647402
6.0315197 0.4441291 10.5554797
6.3124802 0.4547909 10.9569393
6.3763699 0.4528687 10.7964696
6.4157401 0.4584566 10.9756608
6.4550200 0.4638881 11.1540202
6.4798999 0.4565120 10.8151902
6.5165400 0.4721433 10.4578203
6.5786801 0.4523099 10.8401496
6.6181202 0.4579500 11.0191004
6.7727999 0.4359633 10.8952299
6.8164100 0.4495681 11.0686598
6.0506403 1.6475989 11.0496199
6.0509802 2.0604730 10.9346900
6.0510500 1.7829459 10.9872399
6.1504003 1.5046370 11.0648405
6.1507602 1.7818060 10.9831309
6.2514101 1.9199180 10.9381303
6.3493000 1.6442459 11.0200504
6.3516004 2.0560920 10.8832996
6.3889297 1.5996320 11.1256400
6.4472500 1.7850030 10.9640397
6.4508501 2.0532010 10.8540095
6.5407599 1.8556791 10.9669501
6.5509700 2.0530520 10.8336899
6.0502803 2.9163209 11.0517303
6.0504498 2.6282521 10.9949103
6.2512900 2.7672502 10.9822797
6.4503499 2.3341330 10.8369906
6.5521998 2.9022619 10.9184403
6.6503603 2.7547332 10.8254207
6.6541801 2.1896879 10.7723800
6.7503601 2.1841819 10.7371192
6.8504401 2.6034410 10.7114697
6.8518901 2.4622532 10.7022896
6.8759299 2.1092671 10.9064300
6.9128498 2.2285508 10.7104797
6.9386102 2.1125970 10.9851705
6.0501099 3.2030721 11.1329807
6.1503500 3.2032882 11.1316899
6.2506599 3.2019319 11.1202095
6.2507000 3.0580088 11.0815205
6.3499496 3.7675570 11.1539802
6.3509797 3.3425319 11.1206900
6.4500500 3.1970290 11.0531598
6.4507998 3.4820361 11.1064399
6.5479204 3.3371602 11.0355299
6.5496401 3.9070318 11.1410907
6.5497900 3.4780281 11.0527901
6.6490597 3.4726190 10.9884702
6.6500502 3.1858610 10.9263798
6.7479499 3.4687519 10.9346099
6.7497501 3.7546679 11.0021802
6.7498600 3.1800789 10.8625898
6.8502403 3.0338389 10.8000198
6.7482102 4.0403227 11.0493405
6.7493301 4.3230802 11.0777505
6.7494400 4.6081473 11.1274300
6.7503802 4.1810721 11.0677304
6.8478500 4.3224390 11.0430606
6.7509399 5.0327037 11.1453505
6.0456502 7.1505005 11.0927597
6.0507399 7.2847982 11.0264793
6.1503402 7.1445042 11.1063700
6.4506102 7.1471040 11.1449296
6.5491199 7.4255993 11.0235596
6.6507603 7.2880988 11.1329099
6.0513401 8.1153000 10.6344698
6.0516302 8.3931014 10.4596205
6.0517001 8.2566002 10.5503099
6.0520801 7.5607980 10.8885802
6.1510201 8.3893035 10.4429601
6.1519197 7.6984991 10.8038997
6.2501100 7.8379000 10.7520306
6.2506301 7.9756984 10.6860902
6.4499304 8.2502002 10.4938699
6.5465104 7.8407982 10.8046196
6.5482603 7.5628990 10.9249493
6.5488801 8.2532037 10.4973000
6.5490096 7.9779038 10.7225506
6.6487100 8.2535986 10.5100200
6.8486501 8.2544992 10.5464598
6.8504098 8.1117013 10.6641902
6.0513499 8.5304976 10.3581697
6.7482800 8.5309008 10.3223305
7.0186201 0.4490316 11.1118695
7.3099299 0.8824170 10.6254593
7.4185799 0.8953586 10.6363604
7.7430601 0.8732080 10.3640696
7.7676903 0.9134114 10.8710499
7.8258002 0.8977130 10.7183503
7.2483602 2.8854390 10.7275499
7.2488398 2.6023390 10.7008796
7.2935401 2.3565961 10.7666105
7.3012700 2.4946479 10.7541401
7.3599601 2.7775469 10.8286198
7.3608398 2.6377891 10.8317602
7.4250000 2.3624899 10.9170601
7.5249900 2.7894299 11.0863801
7.5272899 2.6499701 11.0884896
7.0505999 3.3119400 10.7781403
7.1496703 3.1682479 10.7386904
7.1505699 3.7447209 10.8879991
7.2514000 3.4602880 10.8489506
7.3550600 3.4876908 10.9532401
7.3835300 3.2046810 10.9339505
7.4417200 3.2072661 11.0165300
7.4847699 3.3522102 11.1104902
6.9503197 4.1743959 10.9923203
7.0374697 4.5977309 11.1139696
7.0454502 4.4573769 11.0676000
7.0500001 4.0305783 10.9550199
7.1420004 4.3170229 11.0795004
7.1474197 4.1750069 11.0223107
7.2354004 4.1754991 11.0957399
7.2429702 4.0462022 11.0421106
6.9506797 7.4291979 11.1319302
6.9491901 7.9824040 10.7747605
6.9492203 8.2529048 10.5564697
6.9493698 8.1166038 10.6700500
7.1498398 8.3902040 10.4906801
7.2480300 7.9846019 10.8242705
7.2491700 8.2547972 10.6056407
7.2509600 7.8416029 10.9288795
7.3481998 7.9850042 10.8607104
7.3501803 8.2518989 10.6263198
7.4479999 8.1233028 10.7967192
7.5518298 7.7102040 11.1170392
7.6461500 8.2679996 10.7997907
7.6498599 7.9891020 10.9837195
7.8500696 8.2665021 10.8813802
7.0494800 8.5280025 10.3660002
7.5434200 8.5392976 10.4620894
7.6433900 8.5415030 10.5366698
7.6447902 8.6765001 10.4327900
7.6464899 8.8111022 10.3157498
7.7454001 8.6788014 10.4949996
7.9346597 0.9105876 10.7289497
8.0343103 0.9070709 10.7525503
8.0509009 0.8790717 10.4225399
8.0799302 0.9275302 10.9229805
8.2466500 0.9247065 10.7809296
8.2885707 0.9369776 10.9576602
8.3050495 0.9088889 10.6273806
8.3465595 0.9212419 10.8047891
8.3965594 0.9498894 10.9685101
8.4047094 0.9054169 10.6514106
8.4257005 0.8855090 10.3143593
8.5297199 0.8901730 10.3311902
8.6170100 0.9230226 10.6794396
8.6752195 0.9071976 10.5260098
7.9488494 8.4066028 10.7961707
7.9509802 7.8532025 11.1306002
8.0498001 7.9943994 11.0738697
8.0508785 8.2674995 10.9293303
8.1501994 7.8568021 11.1603094
8.2508801 7.8558037 11.1571597
8.3503500 8.4085995 10.8935600
8.3507095 8.1340009 11.0695204
8.4500397 8.2736015 11.0088103
8.4501198 8.4109018 10.9201698
8.5510593 8.2736984 11.0434107
8.6510004 8.1380028 11.1450600
8.1479996 8.5493037 10.7620293
8.1495401 8.6829001 10.6677394
8.3509907 8.5444013 10.8025800
8.3542606 8.9550028 10.5352700
8.4498096 8.9619020 10.5777103
8.5505508 8.5487003 10.8676702
8.5505899 9.2324996 10.3096999
8.6488500 8.8298032 10.7458802
8.6501502 8.5510015 10.8941896
8.7501295 8.5524032 10.9199602
8.8210693 0.9241626 10.7201897
8.8377399 0.8960217 10.3893504
9.0915551 0.9259731 10.5951205
9.2539126 0.9147227 10.4582794
9.3124639 0.8988604 10.3049297
9.4579374 0.9158701 10.4993097
9.5038693 0.9364933 10.6702205
9.6119875 0.9493902 10.6809800
9.6653933 0.4773885 11.1118695
8.8521400 8.4128017 11.0392198
9.0511907 8.2786987 11.1550195
9.1505824 8.4178010 11.0937301
9.2506167 8.2788030 11.1552803
9.3509965 8.2763005 11.1502502
9.4504068 8.4185014 11.0940300
8.8514304 8.9631975 10.6989099
9.0508545 8.5546980 11.0049797
9.1506261 8.6931000 10.9300399
9.3511697 9.3768025 10.4078902
9.5509160 8.9679006 10.7877105
9.6504670 9.3737999 10.4299802
9.6510230 9.2389006 10.5946800
9.6511552 8.5565010 11.0652195
9.7290417 0.9175688 10.3738001
9.7745098 0.9381622 10.5445702
9.9372528 0.9268969 10.4079396
10.1355799 0.4719869 11.0340994
10.4060899 0.4737526 10.9084304
10.5249705 0.9507090 10.3271194
10.5339698 0.4578680 11.1286100
10.5481101 8.4140012 11.0502793
9.7506093 8.9678029 10.7998895
9.8505132 8.5593984 11.0823493
9.8505327 8.6952979 11.0031404
10.0402702 9.1936002 10.5939899
10.0499401 8.5572973 11.0666398
10.0500099 9.1070021 10.6773702
10.1495506 8.6933989 10.9771797
10.3494497 9.0990001 10.6085101
10.3497896 9.2445035 10.4799503
10.4496405 8.6920047 10.9167993
10.4503399 9.3789045 10.3845997
10.5488906 8.8227997 10.7834199
10.5496394 8.5538048 10.9798694
10.5504701 9.2397043 10.4980497
9.7739128 9.4171027 10.3489300
10.6724501 0.4672110 10.7888300
10.7052494 0.4630909 10.9793600
10.7425302 0.4672185 11.1632794
10.8423103 0.8500591 10.3018302
10.9479101 0.4770384 10.6566399
10.9763201 0.4647598 10.8533893
11.0135097 0.4688576 11.0376198
11.1239301 0.4903302 10.5004096
11.2145599 0.4703924 10.5371503
11.2842703 0.4706011 10.9113706
11.3258101 0.4830435 11.0890800
11.3924704 0.4834682 10.9221805
11.4339301 0.4960522 11.1001795
11.4553403 0.4757569 10.7620293
10.6498701 7.8551034 11.1332303
10.7483594 8.4119970 10.9895095
10.8501101 7.7119032 11.1194896
10.8975004 8.3704963 10.9479195
10.9468000 8.2677985 10.9588802
10.9502999 7.8494037 11.0331206
11.0491505 8.4064975 10.8775301
11.0506499 7.7115004 11.1441398
11.1497901 8.2658986 10.8909998
11.1503694 7.9883048 10.9713301
11.3492496 8.4016025 10.7999397
11.3500794 8.1257978 10.9400302
11.3506494 7.9860985 11.0010598
11.4499899 7.9850042 11.0115698
10.6486995 8.6880038 10.8749708
10.6488504 8.8239023 10.7844397
10.6499009 8.9638019 10.6869005
10.7496995 8.9642042 10.6871901
10.7497303 9.1001997 10.6076803
10.7499501 9.2404047 10.5106002
10.7501494 9.3796039 10.3973299
10.7501894 8.8272030 10.7659902
10.8499099 8.9650983 10.6767993
10.9615093 9.2500979 10.4806600
11.0166399 9.0461979 10.5946595
11.1213503 8.6428979 10.7458197
11.3504399 8.8213021 10.6159402
11.4100706 9.0582985 10.4659209
10.8932108 9.4392980 10.3075299
11.6267502 0.4808680 10.6121907
11.8529396 0.5846620 10.9269898
11.9109293 0.7531792 11.1488402
12.0103098 0.7962063 11.1036701
12.1685695 0.7489622 10.7260803
12.2207701 1.0305870 11.0310894
12.2412005 0.7228479 10.3347600
12.3824794 1.0488110 10.8290007
12.3933004 0.9069592 10.5294203
12.4208694 0.9075999 10.4300696
12.1284304 1.9062379 11.1071104
12.2099398 1.7668230 11.0485898
12.2162597 1.9042490 11.0588903
12.2487098 1.3616830 11.1021902
12.2925099 1.7673080 10.9919002
12.3183401 1.2212170 11.0251997
12.3857902 1.9075720 10.9523600
12.3900604 2.2048131 11.1392401
11.5499804 7.8504020 11.0692503
11.5502002 7.9895034 10.9957708
11.6487201 7.8442032 11.0500203
11.6490293 8.3991000 10.7609592
11.7489705 7.7108000 11.1553697
11.7496904 7.8466022 11.0175200
11.9508002 7.9841996 10.9058907
12.1500902 8.1167007 10.7529005
12.1501302 7.8431973 10.9309498
12.2495303 7.9772025 10.8148400
12.3504102 7.8407014 10.8810104
12.3573998 7.5697014 10.9593403
12.3982495 8.4006051 10.4850596
11.5956701 9.0613002 10.3808399
11.6652902 9.0978015 10.3053302
11.8512297 8.5396999 10.6558399
12.0884106 8.5302005 10.5637601
12.4725401 1.0563430 10.6302295
12.4994805 1.0575129 10.5307903
12.5494609 1.0624829 10.4304897
12.4508897 1.2141990 10.8635994
12.4758901 1.3581810 10.9016998
12.4785602 1.4973511 10.9075699
12.4912001 2.0525530 10.9296907
12.5228399 1.2059660 10.7293399
12.5501696 1.4945270 10.8342506
12.6194693 1.4918300 10.7580200
12.6809105 2.0606520 10.8521003
12.7426302 1.9152460 10.7657602
12.7652995 2.0601230 10.7988501
12.8110908 1.7762410 10.6874397
12.8876604 1.7751079 10.6225405
12.9750408 1.6205390 10.3939604
13.0280200 2.0631920 10.6529500
13.1185306 1.9123179 10.4313903
13.2875005 2.0474119 10.3218807
12.6282899 2.2000370 10.9550003
12.7611803 2.3508971 10.9734097
12.7935596 2.2083891 10.8409794
12.8038703 2.4986570 11.0370498
12.8423003 2.3525432 10.9147700
12.8653301 2.7811301 11.1296503
12.9209207 2.6377288 11.0322507
12.9332505 2.3540112 10.8695598
12.9667297 2.9177521 11.1017702
13.0218202 2.3552780 10.8234594
13.0376797 2.7824710 11.0271601
13.1220799 2.7818379 10.9734405
13.1389508 2.4964509 10.8183399
13.1431902 2.9214020 11.0050496
13.1749893 2.3521781 10.6931897
13.2068302 2.7812270 10.9204594
13.2430000 2.3503599 10.6160501
13.2891396 2.7817190 10.8628999
13.3078303 2.3452791 10.5320904
12.9813002 3.0558479 11.1244898
13.0671794 3.0556920 11.0718701
13.0949495 3.5969019 11.1175003
13.0999302 3.8667319 11.1280000
13.1754400 3.3277120 11.0573303
13.1804198 3.6152301 11.0668298
13.2704098 3.8680511 11.0212499
13.2706696 3.5993310 11.0177808
13.3119896 4.5469110 11.0877305
13.1955603 6.4257090 11.1083100
13.2179204 6.2941620 11.1398604
12.4669103 7.3387031 11.1103700
12.5746895 7.4744010 10.9143294
12.5914495 7.2098980 11.1147901
12.7121098 7.3444028 10.9376004
12.7203707 7.0805028 11.1252302
12.7536096 7.4770013 10.8219301
12.8734596 7.3420038 10.8199297
12.9462304 7.3445002 10.7491901
12.9600605 6.8207094 11.1203007
12.9960803 7.2102998 10.8230403
13.0288294 7.3408042 10.6947096
13.0385198 6.8223029 11.0582300
13.0839003 6.9511910 10.9494803
13.1418202 6.6896612 11.0312002
13.1612597 7.4758977 10.5350902
13.2181793 6.9493433 10.7917096
13.2267503 7.2123040 10.6284702
13.2373804 7.4755996 10.4697105
13.2601000 7.0801009 10.6768506
13.3020198 7.2117974 10.5621303
13.3043500 7.4765976 10.3885001
13.3385798 7.3442021 10.4381908
12.5082498 7.8720013 10.8163795
12.5364708 7.7408040 10.8576100
12.5867100 8.1418017 10.5830301
12.7176801 8.2760984 10.4213497
12.7348602 8.0085034 10.6206303
12.7353603 7.6086000 10.7955299
12.8094098 7.7442010 10.7275797
12.9635604 7.7454974 10.6004495
12.9844397 7.6114987 10.6300199
13.1062604 7.7428971 10.4566300
13.1344404 7.6098000 10.4966601
13.3926095 2.6401731 10.6618097
13.4154400 2.4886129 10.5140302
13.4582007 2.6364701 10.5792796
13.4775601 2.4851409 10.4276799
13.4969503 2.7782770 10.6358202
13.5176806 2.6300179 10.4865907
13.5893896 2.9155158 10.5962800
13.6657804 2.7663480 10.3511196
13.3650303 3.4663680 10.9800799
13.5985902 3.6003371 10.7900202
13.6675797 3.5988761 10.7137403
13.7252305 3.4611300 10.6205596
13.7315104 3.5964178 10.6298504
13.7570398 3.1862929 10.4899704
13.7858400 3.4591779 10.5340304
13.7951896 3.5939810 10.5455704
13.8092404 3.1815169 10.3877401
13.8627701 3.7271532 10.4684494
13.9180701 3.5881400 10.3683202
13.9249098 3.7247692 10.3830798
13.3703407 4.4096927 10.9948898
13.4286704 4.0023332 10.8995400
13.4602496 4.5447797 10.9494105
13.5299899 4.2752251 10.8732898
13.6131896 4.4097011 10.8179506
13.6162201 4.5448020 10.8249197
13.7182903 4.2672683 10.6151002
13.7338303 4.4043511 10.6398603
13.7484102 4.6757013 10.6643401
13.7845697 4.2660679 10.5369901
13.7894806 3.9973180 10.5408402
13.8037903 4.5372993 10.5647100
13.8100209 4.8078969 10.5785299
13.8634499 4.5353398 10.4777599
13.9222099 4.5320988 10.3853103
13.4210298 4.9544130 11.0737802
13.4785203 5.2198619 10.9805502
13.5345301 5.3512831 10.8859800
13.5369394 5.2168970 10.8878603
13.5513404 4.9500470 10.9080095
13.5990297 5.3498303 10.8066499
13.7347402 5.3464030 10.6488997
13.8055598 5.3451890 10.5747608
13.8067100 5.2107428 10.5756298
13.8126202 5.0771991 10.5846999
13.8781406 5.2100201 10.5059901
13.9409509 4.9387887 10.4172099
13.9431600 5.0740098 10.4234507
13.9936898 5.6077316 10.3193903
13.3964596 6.1609903 11.0455202
13.4236002 6.4243013 10.9107196
13.4270899 5.7612136 11.0872602
