3.95042 5.904191 11.53253
3.95027 6.043822 11.52731
3.95031 6.184869 11.52694
3.95048 6.324262 11.51145
3.951429 6.460399 11.46906
3.95094 6.598078 11.3977
3.95049 6.734796 11.32235
3.95127 6.872751 11.28004
3.95063 7.013701 11.25915
3.95072 7.1522 11.23039
3.950669 7.291504 11.183
3.95051 7.428803 11.11949
3.95019 7.566303 11.03307
3.9507 7.700697 10.95303
3.95057 7.8372 10.86396
3.95022 7.9778 10.76942
3.85025 7.974998 10.77559
14.46565 4.629903 6.919308
3.84286 8.106203 10.70307
3.94976 8.1127 10.68734
3.85149 8.2533 10.65644
14.17584 6.719284 6.717656
14.22051 6.720894 6.819761
7.67429 13.0328 5.67277
7.68863 12.9172 5.8101
9.549486 3.476307 12.63697
9.650174 3.47878 12.65544
9.549408 3.615409 12.6364
9.850428 2.05531 12.29099
9.950197 2.051838 12.29377
9.849997 2.202988 12.41649
9.951384 3.893331 12.6515
9.850443 3.755957 12.66557
9.65056 7.304602 11.39357
10.74856 8.6867 10.84917
10.75019 8.827203 10.76599
10.64885 8.823902 10.78444
10.6487 8.688004 10.87497
10.44949 7.575699 11.21851
10.45077 7.716798 11.18669
10.34868 7.718601 11.22902
10.50781 7.157103 4.84114
10.51452 7.304401 4.83527
10.614 7.302598 4.86316
10.14805 6.526128 12.42408
10.24957 6.520682 12.40463
9.450445 8.556099 11.01898
9.450505 1.569979 11.71564
9.450438 1.729608 11.85942
11.44891 6.905519 11.7648
11.4479 7.043504 11.7468
11.34789 7.044301 11.76777
9.550041 7.727303 11.39086
9.450221 8.0034 11.29298
9.551046 9.240204 10.58368
9.451012 9.103299 10.66102
10.15009 1.418352 11.59725
10.1484 1.279227 11.60657
10.04887 7.862904 11.27903
10.04875 8.002401 11.26254
10.74905 6.236159 12.34281
9.749802 3.479481 12.67081
6.01144 0.5139783 11.19144
5.908269 0.5102083 11.17247
5.951399 0.4690811 11.04235
14.24909 7.147201 7.517268
14.25261 7.148602 7.616657
13.27662 1.754537 10.12717
13.35068 1.689889 10.06812
13.35365 1.835071 10.12493
15.76745 2.512939 7.518333
15.71986 2.369218 7.517882
14.37393 4.202291 6.921072
14.35889 4.060946 6.922314
3.50129 12.2354 3.27317
11.94608 5.650141 11.97298
12.04938 5.651959 11.94812
11.94777 5.788185 11.91927
3.30068 10.8471 6.209193
3.21714 10.9237 6.212624
12.04946 5.788289 11.90965
12.05013 5.924613 11.86645
11.94826 5.92535 11.85994
12.0489 6.063238 11.82147
11.94927 6.064319 11.81529
12.04977 6.202408 11.79175
11.94957 6.202609 11.77827
9.852146 1.745321 11.9375
9.851354 1.894213 12.07365
9.850488 2.627552 12.46084
7.3315 0.4986376 12.00364
7.27212 0.5056709 12.15587
7.22441 0.4869476 11.99059
9.850315 1.568109 11.7029
10.85077 4.859999 12.56334
10.95069 4.858122 12.53914
10.85117 4.996241 12.52814
10.34577 6.89815 11.93164
10.4484 6.89824 11.87111
10.35139 7.0332 11.62561
9.751111 7.161804 11.40339
9.617814 7.246502 11.38439
9.640169 7.1107 11.40537
10.15097 1.744851 11.9901
9.949391 1.421489 11.6198
9.949194 2.76316 12.44767
9.849252 2.901599 12.44507
15.16179 2.036393 6.924356
14.14602 6.85756 6.719403
14.18428 6.860361 6.819131
7.70053 9.224304 9.758661
9.290955 10.0506 8.71336
9.450589 10.0838 8.34037
9.396893 10.0744 8.46461
3.1602 14.1087 3.42931
7.61444 9.629198 7.669874
7.56675 9.6263 7.798048
7.51838 9.625399 7.926143
7.08181 14.4148 5.28126
6.98309 14.4141 5.34661
7.08214 14.5627 5.32106
3.33437 3.565237 6.51049
3.33386 3.722608 6.35197
3.43567 3.576159 6.41805
3.37142 14.2388 1.08801
3.38342 14.0967 1.09396
3.3243 14.0863 1.19655
10.11199 7.872001 4.96094
10.21184 7.871897 4.97309
10.20282 7.802904 4.95898
5.92522 4.68336 5.12719
5.82549 4.683457 5.11276
5.92479 4.829653 5.07739
7.18549 13.6722 5.29274
7.18456 13.8213 5.24182
2.40453 9.961904 6.239278
3.38158 13.3921 1.15031
4.050469 4.471943 11.18121
4.05072 4.617758 11.24443
3.93374 4.38612 11.09255
4.0525 4.763678 11.28908
4.05202 4.905463 11.31577
4.05138 5.046331 11.33033
4.05097 5.187303 11.34438
4.05066 5.329676 11.36941
4.05003 5.469248 11.39263
4.0503 5.615734 11.45009
4.04973 5.76292 11.502
4.0492 5.900361 11.50344
4.05024 6.043844 11.51853
4.050429 6.185778 11.53847
4.05013 6.32573 11.51741
4.05026 6.463171 11.47571
4.05054 6.598533 11.40949
4.05054 6.734722 11.32255
4.04978 6.87448 11.2776
4.05034 7.014901 11.27407
4.05029 7.154301 11.24741
4.05018 7.293001 11.19773
4.05032 7.429399 11.13247
4.05 7.567503 11.04663
4.050769 7.701397 10.96564
4.05037 7.840001 10.86802
4.05016 7.976503 10.77884
4.05025 8.113698 10.67915
4.05074 8.251802 10.61699
3.95088 8.252204 10.629
9.450904 7.588603 11.40438
9.350639 7.5887 11.408
6.55955 12.2028 6.751366
10.04971 2.345771 12.41163
9.950171 2.350658 12.47347
9.950311 2.20342 12.41515
16.02932 3.36878 7.814035
10.45951 7.161297 11.50146
10.35272 7.160999 11.46753
8.87126 15.2441 4.15022
8.78025 15.2647 4.13245
8.78757 15.31641 4.17158
10.84902 1.411341 11.51901
10.75185 1.408763 11.54461
10.74869 1.270913 11.52774
3.34703 11.9283 3.62457
3.28707 11.9176 3.53668
3.42694 12.0277 3.52179
10.35143 6.386251 12.44725
10.34794 6.516204 12.37659
10.4502 4.45047 12.65768
9.750379 5.839929 12.67366
9.950222 1.89051 12.09033
9.950165 8.832299 10.91474
10.04941 8.828902 10.91022
9.95003 8.9705 10.81547
10.249 8.279704 11.16669
11.44842 7.179901 11.69727
11.34754 6.905638 11.79483
9.750488 9.237603 10.59373
9.651023 9.2389 10.59468
14.10386 6.994397 6.721284
14.13546 6.998837 6.818534
10.05035 5.567022 12.73793
10.74923 6.101504 12.42708
10.73166 5.462923 12.63131
10.75205 5.558707 12.62726
15.42552 1.789726 7.920996
15.44139 1.787178 8.02055
15.26315 1.626559 8.02089
9.750005 3.618494 12.67093
9.750574 2.050936 12.26827
2.53151 11.995 4.05971
2.549891 12.1286 4.01218
2.67249 11.8715 3.96188
15.5466 2.075173 7.421414
14.24994 2.971239 10.06347
14.25062 3.104277 9.97234
14.15111 2.96706 10.03495
14.15387 3.102377 9.95203
14.15243 3.236078 9.90336
14.46156 6.596461 7.916087
14.49279 6.459229 7.916323
14.05486 2.964593 10.01455
10.55116 7.435099 11.29177
10.55548 7.297904 11.45124
8.77561 13.8894 4.6251
8.89384 13.8437 4.61956
8.80059 13.759 4.74057
14.55542 5.758912 7.417683
9.55063 1.733519 11.89501
14.72196 1.303248 7.527833
14.75429 1.294628 7.623912
9.649345 7.588499 11.41283
10.053 4.459128 12.78265
9.952508 4.320718 12.79427
10.95052 4.720837 12.56135
10.95045 4.582733 12.57308
11.0276 4.662298 12.52854
11.35046 7.846699 11.07674
14.36072 1.113698 7.426675
5.24862 12.6385 7.914965
5.29531 12.5045 7.906939
5.35705 12.6494 7.819518
14.25053 2.138153 10.26154
14.24986 2.279818 10.26152
10.62449 1.013711 11.56279
10.74025 1.02134 11.55033
10.64843 1.132309 11.55852
8.58451 9.925202 8.45753
9.343875 10.0634 8.58888
6.80718 14.8722 6.191899
9.135019 14.1144 4.52266
9.047443 13.9814 4.43996
9.070484 14.029 4.41516
3.074409 12.7013 6.712335
3.0178 12.6776 6.837407
7.40995 9.6064 8.17956
7.35637 9.591901 8.30719
7.29806 9.567999 8.43315
2.89535 12.6278 7.087841
7.2383 9.5471 8.55889
7.17965 9.521098 8.68448
2.5047 10.1092 6.240467
2.50422 10.2548 6.265651
2.60618 10.2552 6.233735
7.21555 2.355337 10.70258
7.2299 2.492689 10.68456
7.14957 2.456322 10.63758
3.35324 0.8369833 6.351492
3.25318 0.8292571 6.425846
3.35181 0.9753704 6.411416
3.43706 3.423616 6.55588
2.41109 8.935199 6.271826
2.31611 7.200703 5.98546
2.31484 7.343099 6.047147
2.41443 7.347301 5.98325
1.90636 9.949499 6.505654
1.806291 9.948597 6.544758
1.90267 10.0966 6.565965
9.332995 6.041654 3.40314
9.234666 6.056913 3.38529
9.252052 6.194167 3.4451
7.08393 14.1183 5.24497
7.18308 14.1188 5.1923
7.18378 13.9703 5.20408
7.08452 13.9699 5.24426
4.03214 4.380837 11.12039
2.40701 9.670102 6.205695
4.1511 4.475847 11.20339
4.15033 4.619531 11.27061
4.15142 4.764929 11.31837
4.14964 4.905768 11.34985
4.15177 5.049199 11.36889
4.15077 5.189114 11.3717
4.15138 5.33066 11.38144
4.15061 5.47167 11.39692
4.15044 5.614982 11.43498
4.15027 5.756744 11.46281
4.15163 5.896904 11.46761
4.1503 6.043882 11.52323
4.15028 6.185882 11.5399
4.15036 6.32599 11.52695
4.15037 6.461882 11.48266
4.15022 6.59813 11.40843
4.14984 6.736979 11.31908
4.14998 6.874964 11.28962
4.15014 7.0161 11.28821
4.1503 7.155903 11.26268
4.15028 7.293597 11.20973
4.15039 7.430301 11.1452
4.15018 7.568904 11.06051
4.15001 7.705197 10.97144
4.15018 7.8398 10.87966
4.15027 7.9766 10.77913
4.15028 8.113497 10.67864
4.15126 8.251504 10.60801
4.1513 8.392804 10.61856
4.03868 8.390301 10.63038
9.449727 3.614411 12.62254
9.450259 3.753282 12.61955
8.99188 13.8118 4.63864
10.3515 6.249048 12.49546
10.24998 6.386318 12.4785
10.45061 4.724912 12.61317
10.45135 4.862138 12.59314
10.55013 7.714898 11.1587
10.54871 7.856698 11.16722
7.95298 13.083 5.63778
10.2513 5.286716 12.72444
10.45135 7.035003 11.63879
10.04935 8.965203 10.80928
14.07967 7.564299 8.016489
9.449588 2.479643 12.38028
11.44787 7.310197 11.61637
11.44923 7.4443 11.48169
11.34975 7.4436 11.49316
10.98089 3.580511 12.45289
10.98313 3.446177 12.45535
9.750646 4.467018 12.87588
10.25057 3.889211 12.58596
9.75084 4.325703 12.85379
14.03742 7.135302 6.717173
14.08293 7.136301 6.819264
9.950306 3.201351 12.65388
9.949829 3.34055 12.67322
9.451534 2.194397 12.28973
9.45053 2.339028 12.35249
9.750226 2.201453 12.39036
10.24787 8.002304 11.25049
10.1497 8.968503 10.77723
10.84553 1.576997 11.69205
10.74716 1.586512 11.78111
10.35057 4.1674 12.59901
10.25274 4.167207 12.61852
10.25145 4.028209 12.60425
14.15131 0.9407699 7.724875
14.3074 1.016691 7.73914
14.18337 0.9521469 7.781447
10.55005 6.903857 11.82677
9.450469 7.728003 11.39307
9.450305 7.865802 11.35455
10.6499 8.963802 10.6869
10.45047 5.701602 12.68401
10.45043 5.836718 12.62441
10.35036 5.837568 12.63643
9.951551 4.034773 12.6848
5.047259 11.168 7.739502
14.45032 2.55996 10.23503
14.34964 2.55926 10.22399
10.0499 0.8594319 11.66363
9.975846 0.9774268 11.67748
9.948275 0.8623675 11.68325
7.15444 1.722619 11.88083
7.25463 1.853026 11.79606
7.12635 1.755446 11.79663
8.52594 9.9011 8.58201
8.72245 9.677597 9.67341
8.63052 9.592102 9.78767
9.640419 10.0946 7.835725
8.52644 9.488703 9.90085
8.42973 9.390698 10.01351
5.40886 3.571093 10.91289
5.42792 3.432631 10.8969
5.50696 3.433771 10.96087
5.45111 3.609993 10.95126
4.16981 1.473963 11.35847
4.25257 1.528829 11.35332
4.25413 1.597598 11.2703
2.95975 12.6596 6.964434
3.13963 12.7344 6.590082
7.11552 9.488099 8.80835
7.05044 9.451897 8.93203
2.83098 12.5937 7.211062
6.9812 9.411604 9.05603
6.39283 12.7766 5.85131
6.39108 12.9232 5.75688
8.51525 13.2865 5.40579
8.51069 13.18091 5.56607
3.11995 5.799599 5.28935
3.12033 5.942129 5.31663
3.21823 5.946048 5.27461
3.34075 3.419898 6.624929
2.61277 7.9242 6.094328
2.51229 7.920601 6.157462
2.61154 8.066901 6.156055
3.218781 6.088369 5.30142
4.24557 1.01418 6.090086
4.1472 1.009241 6.1198
4.24658 1.150891 6.156692
6.81384 0.8677691 3.96386
6.91295 0.8537322 3.98065
6.87774 0.6735474 3.95547
1.902971 10.2422 6.606892
1.80165 10.2406 6.659912
1.90335 10.3877 6.636342
2.31381 8.638599 6.403526
2.41336 8.641505 6.363856
2.41583 8.490303 6.445625
1.808021 9.656602 6.492322
1.8063 9.8034 6.503089
1.90726 9.805002 6.464916
7.08296 14.2664 5.25686
7.18146 14.4153 5.21767
4.250559 4.32758 11.11576
4.25047 4.474752 11.20563
4.14992 4.323877 11.10714
4.2502 4.620567 11.28357
4.25024 4.76487 11.33498
4.252729 4.912518 11.38951
4.251259 5.052023 11.40851
4.25259 5.193621 11.41691
4.25168 5.333268 11.41985
4.250959 5.47348 11.42092
4.25148 5.616159 11.44185
4.25066 5.75623 11.44505
4.2501 5.89744 11.46686
4.25039 6.043852 11.52768
4.25016 6.185912 11.5399
4.25049 6.326497 11.51928
4.25045 6.463789 11.47737
4.25016 6.59784 11.39666
4.25028 6.735161 11.313
4.25025 6.87515 11.29871
4.25028 7.016801 11.30053
4.25029 7.156 11.27298
4.25072 7.291899 11.21703
4.25026 7.4327 11.14929
4.25009 7.570297 11.07441
4.25011 7.705197 10.98301
4.25038 7.839703 10.89105
4.24997 7.978098 10.78101
4.25037 8.112104 10.67615
4.2506 8.251199 10.60215
4.25175 8.391798 10.59516
7.74055 12.7229 6.23639
8.77336 1.205392 12.04523
8.7461 1.320809 12.04383
8.67596 1.201168 12.07817
9.664326 1.241408 11.75525
9.645764 1.29091 11.74905
9.567476 1.237378 11.7881
10.5503 4.027829 12.58582
10.24862 7.4372 11.30232
10.35013 7.438198 11.28343
10.24849 7.578798 11.26651
9.449654 4.604198 12.85145
10.34897 7.576399 11.24132
10.24999 7.7203 11.24791
10.65131 5.280123 12.62471
10.65084 5.139158 12.58754
10.69865 5.188838 12.58396
10.54889 8.8228 10.78342
9.950176 3.479831 12.67029
9.849643 3.47954 12.67431
3.79652 11.6024 6.439012
3.83345 11.4455 6.476943
3.77267 11.4309 6.383886
9.851822 4.180811 12.78063
9.851008 4.036501 12.70874
11.44947 7.578299 11.34399
11.44985 7.711098 11.21568
11.35054 7.711001 11.21551
9.750119 5.290106 12.75494
5.95791 12.0087 6.530526
6.03654 12.1103 6.43402
5.59301 12.3194 6.300473
5.49289 12.3185 6.325669
5.49106 12.4663 6.247545
9.649971 5.56691 12.72933
14.25362 6.725081 6.916938
9.850177 2.350219 12.47476
1.104689 7.099897 8.24002
1.09038 6.965332 8.14017
7.47305 12.6633 6.663069
7.31508 12.5368 6.522771
7.34619 12.5425 6.493802
10.25203 4.307777 12.62797
10.45007 6.382168 12.40732
9.950089 8.695 11.00287
10.04987 8.694702 10.99069
9.449664 3.475577 12.62438
9.449166 3.891543 12.63731
11.35006 7.577099 11.35499
11.25119 7.709697 11.21465
10.7497 8.964204 10.68719
15.05141 3.10459 10.01699
14.95286 3.108412 10.04744
15.03974 2.957083 10.03584
11.84933 5.654522 11.98488
13.96829 7.271901 6.724292
13.9746 7.1828 6.626212
13.89262 7.331498 6.667544
10.82186 8.640901 10.84227
10.84768 8.684398 10.80952
14.01633 7.270299 6.821104
4.30265 2.626702 7.463231
4.215159 2.768919 7.460939
6.23388 3.067449 5.77236
6.33385 3.066987 5.78459
14.45103 2.419561 10.24876
14.44988 2.699137 10.20977
14.34926 2.698399 10.19757
8.46172 9.867602 8.70423
2.97442 12.2263 2.36255
2.99723 12.3659 2.10213
7.2254 4.539542 3.43432
7.32351 4.544862 3.36828
7.32449 4.402451 3.39518
3.47662 11.5869 5.10747
4.35101 1.404032 11.48345
4.25038 1.401886 11.44763
4.35118 1.271397 11.57133
4.35385 1.523674 11.37224
6.20377 14.47331 6.546447
4.45061 1.77978 10.98952
4.350639 1.659147 11.20515
6.91067 9.366998 9.17821
6.83886 9.319202 9.298881
6.94994 8.6618 10.22439
8.45123 13.7822 4.89159
8.57271 13.729 4.87849
6.69959 9.2377 9.54817
6.62412 9.185799 9.67132
6.54728 9.128303 9.79162
6.91375 7.151098 4.72959
6.81318 7.149704 4.7526
6.91407 7.293404 4.74497
5.93516 2.632663 5.86808
5.83541 2.633296 5.85466
5.93417 2.777867 5.84437
8.20221 12.947 5.96064
8.11822 12.8773 6.057426
8.12151 12.9551 5.90219
6.81418 7.291601 4.77092
6.86176 5.770147 4.34432
6.81802 5.873539 4.48228
6.93298 5.91071 4.34025
2.70223 10.8423 6.304019
2.60421 10.841 6.322028
2.70092 10.9888 6.301184
1.80099 10.3862 6.714096
1.79716 10.533 6.764353
1.90099 10.5346 6.673737
1.90896 9.658397 6.453857
6.78729 7.742502 5.02497
6.67847 7.741698 5.02747
4.3502 4.472002 11.19593
4.35022 4.325651 11.10435
4.35027 4.621163 11.28205
4.35021 4.765943 11.3476
4.35147 4.914232 11.41771
4.35021 5.054512 11.45004
4.35202 5.197503 11.4689
4.35211 5.337462 11.46901
4.35291 5.477638 11.46514
4.350679 5.616479 11.46121
4.35081 5.756952 11.45907
4.35005 5.898469 11.48198
4.35024 6.043666 11.52654
4.35016 6.185651 11.53856
4.35013 6.324769 11.51284
4.34979 6.46206 11.473
4.35024 6.59787 11.38593
4.35019 6.735541 11.31547
4.35029 6.876961 11.31638
4.35031 7.017702 11.31307
4.35024 7.156201 11.27397
4.35053 7.295497 11.2036
4.35045 7.432297 11.14899
4.35025 7.568099 11.08231
4.35003 7.706397 10.98466
4.35017 7.841499 10.89345
4.35023 7.976198 10.79025
4.35031 8.112297 10.67634
4.35048 8.250804 10.59017
4.35193 8.391404 10.57075
10.25147 4.448213 12.63666
10.15279 4.453689 12.70999
4.45018 8.394801 10.54054
4.45057 8.251303 10.59102
10.24846 8.415804 11.10016
12.0602 4.684091 12.09288
12.14316 4.684217 12.03677
12.06498 4.81917 12.10092
14.61397 4.642628 7.52018
9.952224 4.603118 12.84165
9.952701 4.462883 12.83091
9.849905 6.252535 12.58525
9.85004 6.388657 12.53603
9.95077 3.058992 12.60413
9.850612 4.87876 12.81499
9.451667 9.237402 10.56916
9.351002 9.240502 10.54776
9.350327 9.106399 10.64033
9.850287 3.895961 12.66805
9.750243 6.522991 12.46317
9.750216 6.390378 12.53992
13.8759 7.495404 6.89586
13.88181 7.406697 6.789626
13.8029 7.542499 6.820266
10.15091 1.582868 11.77014
16.08734 3.373906 8.51617
16.08111 3.511913 8.51635
16.07736 3.511667 8.61629
9.850241 2.49023 12.48542
11.25066 7.443004 11.50477
11.25104 7.574603 11.36503
10.94978 8.824998 10.71477
10.95011 8.964398 10.65249
10.84991 8.965098 10.6768
10.85006 9.103798 10.60118
10.84856 6.50467 12.16302
6.51102 4.670031 4.9504
10.94969 9.102301 10.58683
11.01664 9.046198 10.59466
6.53583 2.628803 5.92394
6.63543 2.628952 5.92384
2.6149 6.790229 5.61494
2.51618 6.785587 5.66809
2.61242 6.932751 5.67436
14.25314 3.237121 9.87546
14.16181 3.376149 9.86411
15.81659 2.656102 7.517446
9.751248 5.978726 12.64419
9.650117 6.521099 12.4715
11.00662 4.928753 12.50109
10.95179 4.994959 12.50675
9.448111 4.465289 12.85785
13.15129 1.39606 9.99133
13.25091 1.543351 10.02933
13.11169 1.45787 10.0603
15.41934 3.286563 6.909073
15.41025 3.169283 6.827889
15.32901 3.210731 6.781432
13.76787 7.542499 6.718642
13.70893 7.683501 6.716913
13.74772 7.6859 6.816678
13.64319 7.820503 6.717977
13.68294 7.823699 6.817269
13.5616 7.962004 6.715195
13.59611 7.962198 6.816663
14.44976 2.838142 10.18302
14.34891 2.837017 10.16051
8.40314 9.842799 8.82857
11.84726 5.517409 12.05075
4.45102 1.139797 11.65154
4.35089 1.00264 11.68768
4.45127 1.003258 11.69712
4.45051 1.272909 11.58455
4.45191 1.401909 11.50323
4.45199 1.527376 11.37595
4.450039 1.663081 11.21953
4.24561 1.212321 11.57366
6.46464 9.061002 9.9103
3.59636 10.8454 6.253296
3.49703 10.8462 6.230033
8.67875 13.8083 4.7493
7.28117 8.8982 10.06038
2.75045 14.4948 2.84767
5.04524 11.7557 6.730532
5.15075 11.723 6.747467
3.50667 11.5142 5.3966
3.35109 0.6970465 6.311406
3.45205 0.8421615 6.315337
6.81571 6.440588 4.6025
11.84894 0.4969984 6.23493
11.91352 0.5612522 6.232323
11.91388 0.5612895 6.332175
2.41176 7.065103 5.86571
2.41258 7.206299 5.93003
6.98255 14.266 5.32004
2.60529 10.1099 6.216609
1.80257 10.0956 6.606004
7.15626 0.8139387 7.411543
7.12876 0.8259192 7.213562
4.24649 4.278637 11.07731
4.35762 4.180729 10.99857
5.87231 0.5681366 11.2879
5.80079 0.4985929 11.15962
4.450039 4.469961 11.18498
4.46094 4.323296 11.09139
4.4501 4.618518 11.27309
4.45026 4.76601 11.34775
4.45037 4.91301 11.42202
4.45163 5.059682 11.47827
4.45227 5.201027 11.5038
4.451429 5.340271 11.50839
4.45203 5.480372 11.50617
4.45168 5.619437 11.49632
4.451049 5.758703 11.48409
4.45021 5.899817 11.48936
4.450379 6.042988 11.51691
4.4497 6.184683 11.52512
4.45071 6.323837 11.49182
4.44943 6.460004 11.4463
4.45041 6.597952 11.36611
4.45017 6.735214 11.32389
4.44982 6.877132 11.32834
4.45063 7.018403 11.30705
4.45043 7.156 11.2627
4.45051 7.293798 11.19937
4.45064 7.4327 11.1387
4.45026 7.569001 11.07246
4.45016 7.705302 10.99469
4.45003 7.8443 10.89722
4.45023 7.9766 10.79077
4.450359 8.116298 10.67062
4.37618 8.545504 10.60976
10.25025 2.909787 12.51087
9.550298 2.90031 12.43234
14.49905 6.177709 8.61555
10.1501 2.764858 12.43674
14.62048 4.92353 7.618416
11.1514 7.312 11.64311
9.45032 3.1946 12.59894
11.45003 7.8488 11.07955
11.75012 8.539 10.6772
13.78536 7.688001 6.916769
10.24706 6.776348 12.14765
9.350104 6.255903 12.63419
9.350183 6.392763 12.56503
10.85198 4.165381 12.57746
10.25029 2.760932 12.40213
10.15175 2.47965 12.38164
10.84889 6.768778 11.92062
3.61857 12.519 3.03885
3.61286 12.469 3.14098
15.15215 3.513768 9.81771
9.95035 2.490751 12.48747
9.950309 2.628401 12.47664
3.94693 11.2151 6.544397
3.82688 11.2927 6.434133
3.90419 11.2927 6.541926
11.8473 6.899022 11.68145
11.84753 7.036098 11.64541
11.84875 6.760024 11.70854
11.94801 6.758541 11.69408
11.84956 6.621927 11.72822
11.94833 6.619908 11.71957
15.05407 3.2451 9.97568
12.73731 2.787068 4.92414
12.81353 2.935983 4.92233
12.82135 2.797268 5.02691
11.84724 6.342382 11.76306
11.94892 6.341741 11.76186
11.84887 6.48214 11.75148
6.23337 3.21956 5.70277
6.33288 3.216907 5.69582
3.47437 1.59546 7.568144
3.77517 1.702011 7.467011
7.59516 12.9369 5.77068
14.53684 5.899072 8.51607
1.3239 5.467803 8.647799
1.31867 5.469867 8.54763
16.0666 3.094822 8.51682
16.0795 3.234252 8.51668
16.06845 3.233373 8.61711
0.882 11.3373 9.2161
0.85603 11.3364 9.11639
5.11913 10.8617 8.33952
5.10346 10.8607 8.4392
5.16406 10.7097 8.43972
14.44883 2.975002 10.12137
14.34928 2.97185 10.0951
11.94938 6.48135 11.73832
4.55244 1.133136 11.65715
4.55027 1.273751 11.58563
4.55048 1.401171 11.50302
15.07854 1.459278 8.421659
15.07656 1.462556 8.52142
14.83264 1.302548 8.52188
13.79749 0.7409677 8.09015
13.71127 0.7098988 8.28773
13.6694 0.6828085 8.11245
3.60464 11.4435 5.76439
3.54137 11.4373 5.67814
3.6204 11.5383 5.58201
3.66579 11.5588 5.68862
13.48249 8.098603 6.71647
13.49031 8.132399 6.819561
2.9457 14.193 3.49138
2.853909 14.2223 3.45714
2.8887 14.1733 3.6135
2.79592 14.1996 3.57825
2.73305 14.1671 3.69822
2.8311 14.1513 3.73495
7.48118 9.101504 9.83088
7.57918 9.198205 9.71598
5.44509 10.1451 8.78282
5.39007 10.2381 8.75967
3.33694 3.896922 6.101101
3.43225 3.7321 6.249336
3.45055 0.9811521 6.36175
6.985 14.1175 5.29718
3.3337 4.046641 5.90922
3.431829 4.052319 5.81849
3.43801 3.905542 5.99193
11.59709 5.598687 4.08022
11.68479 5.567924 4.11688
11.62319 5.493857 4.08947
2.30463 10.2513 6.342617
2.30289 10.3968 6.378696
2.40448 10.3992 6.317645
3.40916 7.6679 5.57913
3.31191 7.663899 5.6094
3.40776 7.810504 5.62859
2.3036 9.960198 6.288456
7.2874 13.5248 5.34684
7.38834 13.3762 5.40975
7.1386 1.087651 4.03973
7.13818 1.229547 4.05109
7.23836 1.228981 4.06326
3.38086 12.2591 2.75378
3.441791 12.3706 2.68627
7.12291 1.364999 4.09949
7.23866 1.087584 4.05204
4.550389 4.32542 11.09056
4.55023 4.471391 11.18232
3.66634 3.131293 6.948851
3.59261 3.178626 6.88505
4.5501 4.616909 11.26143
4.5501 4.761793 11.32703
4.55034 4.912347 11.40855
4.55025 5.0589 11.48325
4.55094 5.202011 11.51936
4.55066 5.341411 11.52404
4.55041 5.481244 11.52537
4.55095 5.62124 11.52239
4.55082 5.760454 11.51014
4.5503 5.899638 11.48823
4.54933 6.041579 11.49797
4.54957 6.18174 11.48821
4.5505 6.321207 11.45367
4.55001 6.45829 11.41089
4.55028 6.59632 11.36086
4.55016 6.735959 11.32594
4.55249 6.876737 11.2954
4.55035 7.015601 11.27594
4.55093 7.155702 11.24048
4.54933 7.2902 11.18134
4.55015 7.429503 11.12117
4.5503 7.568002 11.05938
4.55052 7.707797 10.98767
4.55032 7.844702 10.90956
4.55036 7.974 10.78742
4.5502 8.115903 10.67038
4.55063 8.253598 10.58256
4.54945 8.395799 10.51234
4.65052 8.254 10.58256
4.6509 8.389101 10.50292
9.548762 4.605748 12.86977
11.44666 6.62642 11.85999
11.44699 6.764554 11.79677
11.34806 6.766633 11.82444
11.36813 6.528341 11.97668
11.34626 6.626979 11.90469
9.549491 5.151183 12.73962
9.449674 5.013951 12.76107
6.2885 13.0706 5.70097
6.38988 13.0724 5.67882
10.14967 8.003601 11.25823
6.52853 3.966168 5.23808
6.52774 4.11465 5.16146
6.60448 3.952637 5.14831
10.85087 2.750114 12.29664
9.350996 8.2763 11.15025
13.35218 1.990288 10.22045
13.36067 2.048187 10.25279
11.55 8.401998 10.77783
12.04871 6.341458 11.76927
10.35008 4.308671 12.62031
14.24682 3.428653 9.78791
14.25502 3.372177 9.80932
14.35205 3.374293 9.81056
10.93157 4.256889 12.56419
11.74897 7.7108 11.15537
11.84707 7.705398 11.13783
11.74969 7.846602 11.01752
11.84671 6.136545 11.79185
11.84844 6.2024 11.77707
11.75297 6.268397 11.8312
9.45068 8.140498 11.22861
9.350448 8.141802 11.21995
9.350751 8.002304 11.30195
11.84997 5.927682 11.86726
11.84912 6.064713 11.81735
11.79261 6.005668 11.8881
14.44927 3.10909 10.04355
14.3495 3.106713 10.01862
14.44853 3.243603 9.945271
14.34691 3.242828 9.90897
14.44941 3.376581 9.84543
14.45042 3.508538 9.75412
14.35313 3.506497 9.73105
14.45305 3.641777 9.64316
14.35266 3.640361 9.65247
14.17216 7.000797 6.918755
14.45696 3.776751 9.54424
14.35793 3.778093 9.61624
5.0617 11.0141 8.33936
2.1533 11.7461 11.07301
3.57115 11.8287 4.49253
14.16081 7.141799 7.01822
14.1224 7.138901 6.918556
14.09984 7.280298 7.017672
3.73021 11.9033 5.34141
3.75841 12.064 5.3426
3.73786 11.9057 5.44187
15.52084 1.937427 7.621284
15.63061 2.08424 7.620646
15.53932 1.93283 7.71983
15.70523 2.229542 7.619533
15.73171 2.231017 7.718519
15.65843 2.084658 7.719292
13.75985 7.834003 9.41868
13.78425 7.835002 9.31802
13.68905 7.997 9.3344
11.84783 7.173397 11.58501
11.91348 7.206098 11.53843
11.74805 7.309601 11.53391
4.65037 1.139179 11.63882
4.55008 1.003318 11.69658
4.65661 1.016803 11.67985
4.650129 1.273923 11.5857
4.64975 1.40354 11.49405
7.50184 12.956 5.73053
7.51002 12.8417 5.87408
6.03078 1.607977 4.8689
6.1632 1.570068 4.70269
5.94229 1.474909 4.76931
9.514418 6.894723 12.08482
9.504303 6.783747 12.2341
4.6502 1.657657 11.20409
4.55275 1.787543 11.02183
14.45518 3.914803 9.46508
6.23211 3.367148 5.62443
6.33203 3.365248 5.61979
4.97121 10.3796 9.78403
5.0237 10.2774 9.80532
2.8457 12.5755 7.800576
3.24299 15.0805 1.44027
3.32418 15.0263 1.46801
8.4046 7.586398 4.78772
8.31582 7.735402 4.82997
8.41418 7.719599 4.84748
2.62997 12.6269 8.451439
2.91441 14.7779 2.18654
9.049428 2.907909 12.48422
8.95097 3.049843 12.50813
8.94863 2.899237 12.41839
4.1401 12.5538 8.84341
6.98437 0.8228496 12.24978
6.91974 0.675641 12.17774
7.07497 0.6802008 12.30596
7.05466 0.82504 12.32249
7.0012 0.8157715 10.26274
6.90153 0.8191913 10.23901
6.96381 0.8116588 10.07902
11.73961 0.4345924 7.021298
11.67125 0.4368574 7.192575
11.63555 0.430122 7.004365
4.14382 9.472803 6.225763
4.10023 9.524704 6.220861
4.20299 9.5253 6.261728
2.30213 10.5423 6.431376
2.40333 10.5448 6.367424
1.81386 8.472302 6.77962
1.917429 8.478501 6.717387
1.919138 8.3339 6.791234
2.40432 10.6911 6.384009
1.816239 8.623601 6.716084
1.91742 8.627401 6.650297
6.70962 12.3455 6.395709
4.5858 4.223369 11.02304
4.65028 4.32542 11.10474
4.65066 4.475594 11.20439
4.65012 4.617527 11.26023
4.65016 4.761592 11.31279
4.65032 4.909114 11.38637
4.64961 5.056568 11.46207
4.65001 5.201422 11.50601
4.65014 5.338617 11.50488
4.65072 5.482361 11.53456
4.65114 5.623378 11.54573
4.65026 5.761669 11.5276
4.65035 5.900473 11.49968
4.65027 6.039821 11.47559
4.64975 6.178394 11.44757
4.65038 6.318264 11.41514
4.6503 6.456629 11.38533
4.65038 6.596439 11.36141
4.65032 6.735161 11.32358
4.65004 6.873869 11.27565
4.65025 7.0135 11.23919
4.650909 7.151701 11.19949
4.65097 7.290803 11.13848
4.6509 7.429198 11.08761
4.650549 7.566698 11.03502
4.65041 7.705197 10.98334
4.65041 7.8443 10.8977
4.650109 7.980199 10.78386
4.64991 8.117699 10.67213
4.6205 8.543105 10.43764
4.53552 8.543403 10.49037
9.450663 5.841703 12.70387
9.750734 4.606351 12.87913
9.649926 4.606582 12.87997
9.74993 3.755763 12.66246
9.952455 4.741699 12.83222
10.74769 1.741111 11.93962
9.350819 7.446804 11.39265
9.350894 8.6924 10.92844
9.351129 8.553297 11.01374
9.750905 4.182473 12.80407
5.00014 11.3197 8.2378
4.97288 11.3189 8.33798
5.00947 11.1681 8.33989
9.350088 8.833104 10.8456
5.02842 11.0127 7.540861
15.97511 2.671428 8.11681
16.0267 2.813727 8.1162
15.97837 2.670452 8.21686
11.55048 8.263499 10.85412
9.450278 3.336757 12.61862
12.04841 6.480657 11.74378
10.82839 5.59903 12.60092
9.750377 3.895111 12.6733
10.93902 4.391819 12.57875
11.64745 7.309199 11.56772
11.64747 7.4398 11.4527
11.85107 7.848599 10.98481
11.85004 7.984103 10.91791
11.74948 7.984103 10.94103
14.6481 4.645362 7.918999
14.65562 4.530288 7.92212
14.22452 6.863572 6.918213
14.41694 4.065983 9.45614
14.53129 3.982373 9.3466
8.41099 13.0985 5.69111
8.58457 13.1827 5.638
10.14888 9.101198 10.65952
10.15019 3.342129 12.67922
12.89606 3.79277 4.92634
12.96786 3.796883 5.01658
12.89846 3.649019 5.00745
14.9468 1.457371 7.523787
15.00217 1.469843 7.624267
12.82217 3.64463 4.92455
12.96062 3.939122 4.92491
13.02998 3.943838 5.0188
3.79608 12.2203 5.24205
3.81233 12.376 5.24174
3.79829 12.3759 5.3418
14.0054 6.98936 6.520224
13.95657 6.986939 6.419246
13.95669 7.128098 6.519072
5.7188 11.778 7.347562
5.90971 11.9467 7.342301
0.6200199 8.875304 8.53042
11.5473 6.62531 11.81291
11.15151 7.577703 11.36811
11.15122 7.446297 11.49641
10.05564 1.279786 11.62128
16.05521 2.954409 8.41714
16.06526 2.955727 8.31644
16.07571 3.095888 8.41669
10.55001 7.574402 11.19393
4.83403 1.160629 11.58402
4.79705 1.29585 11.53289
4.74805 1.269311 11.56595
8.93973 14.1925 4.28015
4.74988 1.6573 11.20391
4.748 1.901209 10.79722
3.89409 12.5387 9.4814
3.98765 12.512 9.51504
13.72544 7.970103 9.20387
8.34128 9.841898 8.66112
8.27687 9.807997 8.78394
4.7538 3.423132 10.36351
4.8562 3.43214 10.43604
3.45893 4.825913 11.14837
7.18896 13.3768 5.42576
3.50288 9.969399 6.124612
3.60242 9.822601 6.141607
2.30284 10.837 6.421852
2.40316 10.8187 6.384422
2.30832 9.3731 6.280684
2.41049 9.3764 6.236029
2.30306 10.6896 6.434991
2.30409 10.1054 6.327952
2.40449 10.1077 6.277857
6.27318 0.4492104 10.77782
6.17388 0.4534275 10.75294
5.0442 0.8994192 5.83251
4.94685 0.8950382 5.8438
5.04455 1.040816 5.86035
4.74478 1.873232 6.30216
4.64502 1.866728 6.364842
4.74416 2.015457 6.314449
7.7263 0.8576587 6.017059
7.61789 0.8451119 6.006846
4.75049 4.476838 11.23102
4.75081 4.622027 11.2799
4.75061 4.765332 11.31774
4.75035 4.908637 11.37156
4.7499 5.05516 11.43114
4.74892 5.197756 11.47141
4.75035 5.33785 11.4899
4.75037 5.482562 11.53696
4.75018 5.623363 11.5539
4.75036 5.762309 11.53765
4.75044 5.901158 11.51123
4.75006 6.038733 11.47034
4.75024 6.177113 11.41581
4.75024 6.316789 11.39324
4.75033 6.45727 11.38723
4.75132 6.596014 11.36811
4.75101 6.735057 11.33264
4.75073 6.873392 11.29361
4.75013 7.012703 11.23619
4.75009 7.150203 11.17298
4.75012 7.287398 11.11998
4.74991 7.425204 11.06803
4.75107 7.567302 11.02508
4.75082 7.706598 10.97432
4.7503 7.843197 10.8849
4.75009 7.979804 10.78325
4.750249 8.115203 10.6921
4.74948 8.252398 10.59139
4.75092 8.389899 10.49209
14.64212 4.645132 7.819032
14.631 4.784688 7.818385
10.35062 3.199749 12.64502
10.45011 4.168637 12.60951
6.53717 2.339378 5.97471
6.53654 2.482817 5.962
6.63705 2.339572 5.97451
11.15087 7.179298 11.74223
11.24903 7.178903 11.7403
10.23439 9.237797 10.50184
11.54693 6.763123 11.77084
10.25086 3.341228 12.67384
11.54995 8.125798 10.92925
6.06198 11.9525 7.137589
5.7794 11.7853 7.036677
11.5502 7.989504 10.99577
11.54936 7.4462 11.45958
11.5477 7.310398 11.5929
11.54943 7.577904 11.33144
11.54947 7.711597 11.20405
12.04867 6.619268 11.70968
12.04758 6.757163 11.68126
12.04806 7.978798 10.88648
12.1502 7.980199 10.84228
12.05156 8.120299 10.77036
10.15098 2.622239 12.41662
10.05359 2.486557 12.45076
14.32806 7.012099 8.01615
14.32452 7.010498 8.11579
14.371 6.875419 8.11628
14.14526 1.256727 6.948607
14.17308 1.227491 7.024864
14.02098 1.091003 7.037868
11.64877 7.576198 11.31793
11.74704 7.440001 11.42882
7.28581 13.8228 5.20674
7.32632 0.8544475 10.29521
7.26847 0.8701831 10.44821
7.22682 0.8579567 10.27127
10.0495 1.420848 11.60563
9.950063 1.568019 11.70389
15.69539 2.088457 7.918952
15.77131 2.233669 7.917793
15.70851 2.089337 8.01876
10.35128 5.1445 12.6735
10.2515 5.146228 12.69927
10.25271 5.005822 12.67791
10.3513 5.286083 12.71024
10.1501 3.479861 12.66673
10.05034 3.479041 12.66018
3.81445 12.5289 4.04126
3.8194 14.2532 1.44127
3.79173 14.4072 1.43773
3.79973 14.2528 1.54029
5.19601 10.6313 8.45941
5.1481 10.7086 8.53953
3.80253 14.0963 1.64092
3.7004 1.449347 10.06768
3.76336 1.43972 9.96888
7.61303 7.443801 4.67972
7.71222 7.587001 4.74862
7.7128 7.443697 4.68121
14.32229 5.880587 6.519892
14.28837 5.878389 6.418299
14.29772 6.02337 6.521659
5.99566 11.9481 7.241998
7.33761 1.635969 4.29166
7.23736 1.634702 4.3036
7.3425 1.768649 4.41222
10.84986 8.8254 10.73924
11.1503 7.8488 11.03225
11.15191 7.707097 11.19973
10.3506 5.702779 12.6972
10.25069 5.838991 12.64027
10.35097 5.973772 12.56751
10.34971 6.109603 12.5256
13.90081 7.553898 7.016128
13.95784 7.449501 6.945452
4.7484 1.523547 11.36109
4.67163 1.543537 11.34394
12.25195 7.601098 10.97482
12.24909 7.701204 10.95338
12.15063 7.705801 10.98344
4.84872 1.527831 11.3411
4.84999 1.655817 11.17907
11.2488 8.957603 10.55898
4.95051 1.773082 10.97221
4.94454 1.90872 10.73101
3.37852 14.1945 2.64465
3.32829 14.1901 2.77167
3.27924 14.1872 2.89949
3.22849 14.1772 3.02381
1.42523 7.904903 9.0349
0.8571504 11.4743 9.21537
0.8538293 11.4737 9.11556
8.20944 9.763599 8.910621
12.15791 9.044402 10.19368
12.14629 8.937598 10.29783
12.22809 8.936004 10.23905
0.8350995 11.6116 9.21478
0.8402097 11.6114 9.11525
4.96374 3.426559 10.49674
5.91779 0.4341901 10.01151
5.85789 0.4445613 10.16667
5.81892 0.4384667 9.9868
1.91169 8.772098 6.615608
1.81383 8.7704 6.672608
3.69208 14.626 0.8637898
3.57164 14.5364 0.8779301
3.48077 14.6525 0.9153101
1.322659 9.390899 6.825781
1.420399 9.387502 6.727898
1.40977 9.252102 6.72986
9.914036 7.592604 4.80752
9.988992 7.698402 4.86803
10.01341 7.590898 4.83504
5.04355 0.7577315 5.80396
4.95913 0.8525327 5.83557
8.3653 12.9993 5.97562
8.34161 12.9908 6.017451
11.11252 7.8699 5.0735
11.01112 8.013801 5.06319
11.17043 8.034104 5.11004
12.39731 3.1977 4.53638
12.31651 3.244311 4.48574
12.33086 3.343359 4.5043
8.02077 0.8435026 6.645421
8.09756 0.8585826 6.461675
5.89093 12.7679 5.97043
5.889 12.9177 5.91795
5.99308 12.7713 5.9249
4.851339 4.483521 11.26181
4.85081 4.623801 11.30598
4.8503 4.766308 11.34639
4.85026 4.910514 11.38079
4.85079 5.049117 11.40592
4.85053 5.192161 11.42721
4.85046 5.336568 11.47762
4.85018 5.482458 11.53901
4.85026 5.624399 11.56131
4.85043 5.763412 11.55102
4.8503 5.90197 11.5238
4.85012 6.038599 11.47021
4.85023 6.176942 11.41515
4.85015 6.317161 11.40238
4.85039 6.458879 11.4111
4.850639 6.599069 11.39844
4.850599 6.738201 11.37255
4.85131 6.875538 11.33116
4.849949 7.015698 11.26446
4.85033 7.1534 11.19051
4.85022 7.289 11.12322
4.850999 7.428103 11.05196
4.84909 7.5631 11.00498
4.8508 7.705704 10.93982
4.85018 7.842802 10.86132
4.85014 7.978299 10.78241
4.84994 8.117304 10.69493
4.85009 8.252704 10.59192
4.85076 8.391404 10.48157
4.80793 1.930937 10.53906
8.47426 13.6467 5.00211
9.448002 4.324242 12.84734
10.35152 3.340073 12.66286
6.08091 12.0688 7.279786
10.84946 1.128457 11.53159
10.95815 1.171969 11.51866
10.84875 1.269206 11.51471
11.08601 8.777604 10.69396
11.12135 8.642898 10.74582
11.54998 7.850402 11.06925
14.24943 2.697013 10.18321
3.53007 12.0616 3.72443
3.59244 12.1735 3.6492
3.64026 12.1927 3.75512
5.50983 11.8739 6.613606
5.53023 11.7484 6.74046
10.14928 8.554802 11.05079
10.14955 8.693398 10.97718
12.05013 7.844904 10.95681
12.15013 7.843197 10.93095
10.05028 2.627499 12.46165
10.2501 5.973362 12.58646
10.45022 4.30917 12.63795
10.25046 7.033304 11.62614
10.25096 7.1617 11.44387
10.15009 7.161804 11.43156
10.94879 6.634243 12.00581
10.84762 6.635763 12.05263
10.44866 8.139105 11.16751
10.54807 8.1376 11.14038
10.85065 4.72375 12.59821
10.14928 8.142599 11.24095
10.14947 8.281202 11.19217
11.15009 8.125604 10.92728
11.05014 8.268201 10.91847
4.75011 12.7892 7.946562
4.85037 12.7854 7.954267
14.58945 4.640616 7.420006
4.85069 12.6432 8.04716
4.67023 12.8553 7.873827
14.58885 4.780769 7.419775
2.88736 11.2566 6.02721
2.96333 11.2544 5.95068
5.48136 11.6266 7.463419
5.34088 11.5038 7.283923
3.79927 12.5313 5.24181
3.79521 12.5306 5.3413
11.02029 4.79579 12.51886
13.75436 2.549298 10.143
13.75206 2.409078 10.14327
4.94427 1.391277 11.41317
4.948969 1.524672 11.29196
4.84741 1.395643 11.45165
4.95028 1.654841 11.14292
15.89424 3.474899 9.19118
15.9454 3.470749 9.08869
15.88141 3.606983 9.17199
11.24861 7.043101 11.78938
11.15006 7.044599 11.79384
2.84219 6.687664 11.10625
4.95416 2.026439 10.63006
4.84919 1.903571 10.76444
2.7379 11.2849 6.108036
2.81161 11.2969 6.013998
3.44328 11.9686 10.79738
3.45356 11.8292 10.88168
3.54804 11.8285 10.83203
8.39977 9.865799 8.5367
7.94717 9.539501 9.25414
8.04017 9.623104 9.13862
8.12656 9.6979 9.02236
6.50483 12.1884 6.655168
6.44384 12.1785 6.567176
6.61759 12.2569 6.510608
2.29994 10.9838 6.430524
2.29761 11.1306 6.454743
2.39915 11.1318 6.4032
1.652641 8.421102 6.921816
1.7174 8.472004 6.837557
4.73348 3.471993 5.98
7.33856 1.086682 4.06481
7.33819 1.227602 4.07767
6.65258 3.385022 5.4462
6.6314 3.374517 5.53028
6.53122 3.516831 5.51749
4.93937 0.6902888 5.80266
4.852009 0.8472279 5.84168
4.81964 5.985432 4.79971
4.81916 6.130122 4.79445
4.91991 6.128721 4.81324
5.01733 7.998304 5.14225
5.11854 7.9958 5.15013
5.11172 7.844904 5.09475
5.98786 12.9176 5.87713
5.98691 13.0681 5.82667
6.09193 12.9219 5.82266
4.95045 4.332483 11.17999
4.9504 4.4792 11.27038
5.79394 0.4468933 10.32688
5.69467 0.4511327 10.30204
5.75853 0.4488528 10.14161
4.949979 4.622929 11.32414
4.95015 4.767373 11.37561
4.95015 4.910097 11.39987
4.949329 5.051837 11.4061
4.95035 5.191438 11.41383
4.95028 5.337097 11.4762
4.9503 5.482264 11.53947
4.95042 5.623319 11.55716
4.95035 5.763598 11.55301
4.9502 5.902119 11.52499
4.9503 6.039583 11.46608
4.95008 6.177813 11.42368
4.95002 6.318972 11.4287
4.95114 6.462053 11.45363
4.95049 6.601751 11.43724
4.9505 6.740749 11.40057
4.9503 6.878779 11.35099
4.94997 7.016801 11.2883
4.95011 7.153601 11.21291
4.9502 7.288002 11.12159
4.95024 7.426098 11.0368
4.95009 7.563599 10.96146
4.94984 7.706397 10.90734
4.95004 7.839703 10.85655
4.94995 7.978902 10.79415
4.95008 8.115404 10.70407
4.95018 8.2495 10.58796
4.95263 8.393199 10.47324
5.05041 8.524598 10.37414
5.0383 8.5589 10.34474
4.95101 8.526304 10.37703
3.14938 11.2066 6.017153
10.54811 8.414001 11.05028
11.54871 6.903351 11.73819
9.890686 7.394799 11.41727
9.878593 7.259399 11.40764
10.2771 6.9815 11.75918
3.58622 11.6153 5.30087
10.15088 5.839967 12.64367
10.15056 5.704761 12.69313
10.25048 5.70342 12.69864
10.15077 5.975463 12.6027
3.49075 11.2629 6.066491
3.63832 11.3654 6.045878
9.749933 8.002901 11.28965
14.49079 6.318242 8.51569
13.75018 2.27008 10.16063
9.750914 8.694501 10.98999
9.451246 9.374605 10.43085
10.45139 5.564742 12.7126
10.35104 5.56577 12.72413
13.74928 1.988217 10.1843
13.7495 2.130248 10.1739
9.650162 6.389641 12.54871
9.35066 7.867002 11.3581
9.351277 8.4138 11.0862
14.55381 2.406538 10.23771
14.55086 2.559401 10.23303
14.54513 2.255902 10.21398
14.55074 2.69933 10.21208
14.55013 2.838612 10.19381
14.55002 2.974898 10.14265
11.01968 8.642205 10.77394
11.05044 8.547702 10.81888
11.1475 8.542099 10.79758
10.45133 5.142756 12.65046
11.04915 8.406498 10.87753
11.15111 8.407601 10.84616
4.95047 12.4968 8.07183
4.95009 12.6412 8.01915
12.14264 0.4862473 6.866855
12.10547 0.5817711 6.831511
12.24551 0.683628 6.780017
4.95035 12.7865 7.943584
5.20577 8.8344 10.05757
5.35108 8.796901 10.04809
5.3531 8.934499 9.89808
13.14145 0.8414611 6.886328
14.57402 4.499316 7.321166
5.04328 10.5498 7.241956
5.00149 10.5487 7.142097
4.98821 10.7029 7.241503
14.54967 3.111087 10.06935
13.74917 1.843281 10.17174
10.44728 8.0003 11.20134
16.06816 3.649756 8.5162
16.05561 3.648907 8.61665
3.06172 5.054266 11.08087
3.00352 4.913152 10.98469
3.10588 4.914403 11.04114
5.04989 1.394473 11.38293
5.04824 1.518629 11.26306
4.89319 1.29687 11.49412
4.98916 1.29877 11.45637
5.04986 1.648366 11.11417
5.05019 1.776993 10.95132
6.23162 3.515959 5.56426
6.33139 3.513128 5.55611
5.04925 1.904361 10.77607
5.04863 2.036169 10.66255
8.45885 9.889104 8.41212
5.05971 2.162673 10.56191
5.1572 2.310388 10.6022
5.10957 2.31988 10.53928
7.0605 9.559699 7.758806
7.01825 9.572902 7.888885
7.16436 9.558701 7.796681
3.2358 12.0503 2.9411
3.31018 12.1542 2.84702
3.35556 12.1761 2.95356
2.74116 12.5473 9.65843
2.63851 12.5479 9.62237
2.281641 12.2278 10.40017
2.70678 12.6105 9.20745
2.81667 12.6164 9.2455
3.45196 11.6553 4.80875
3.5904 11.766 4.80052
0.7362703 9.2856 10.22729
0.7380696 9.284803 10.12739
3.46205 14.03301 2.81988
5.02269 3.27792 10.45527
8.23844 0.8561462 9.94218
8.17584 0.8638203 10.10248
8.13879 0.8597001 9.91868
9.797956 0.8649603 9.35231
9.693354 0.8602664 9.33477
9.756259 0.8523911 9.17416
5.05281 3.430441 10.56628
4.63796 3.470242 6.036473
3.85937 1.195319 6.32525
3.74766 1.131907 6.322101
3.74447 1.170099 6.350908
4.32816 4.238829 5.3245
4.22858 4.239187 5.32567
4.32703 4.38308 5.24259
4.813029 11.4272 6.976015
4.89164 11.5457 6.909271
4.90869 11.4221 7.040293
7.21428 6.729842 4.60085
7.21385 6.871723 4.62552
7.31445 6.872744 4.60221
12.29081 3.089078 4.44215
6.52915 3.81808 5.31445
6.59195 3.809407 5.24124
7.31396 7.015102 4.62737
5.050099 4.475258 11.26395
2.71402 0.5501434 7.645302
2.73986 0.6585568 7.586956
2.76587 0.5229935 7.501169
5.05021 4.624806 11.3343
5.05028 4.76899 11.38666
5.050039 4.912042 11.40794
5.05071 5.049594 11.4039
5.05049 5.191342 11.4146
5.05078 5.33478 11.46801
5.04945 5.483687 11.53213
5.04977 5.624526 11.55995
5.04996 5.763352 11.5502
5.05045 5.902373 11.51636
5.05023 6.039329 11.46494
5.0508 6.177567 11.4207
5.05033 6.320388 11.45022
5.05031 6.463431 11.4743
5.05022 6.60237 11.44817
5.05037 6.741852 11.40407
5.05041 6.880329 11.35442
5.05038 7.016801 11.29965
5.05033 7.152401 11.2218
5.05017 7.288501 11.11106
5.05015 7.424698 11.0228
5.05019 7.5619 10.96922
5.04935 7.704504 10.92662
5.04999 7.841297 10.88185
5.04976 7.9811 10.80885
5.050039 8.116798 10.70596
5.050099 8.256399 10.57174
5.05039 8.389399 10.47794
14.43985 4.48779 6.919646
14.47259 4.491523 7.02151
8.05051 9.219804 10.03074
8.05085 9.086103 10.24568
11.94916 8.1179 10.80087
11.9508 7.9842 10.90589
10.14962 8.418598 11.11808
11.24994 6.095984 12.31045
16.00963 2.951398 7.816569
16.03447 2.95379 7.916361
15.98737 2.810523 7.916393
13.84486 1.461849 10.00797
13.75013 1.5461 10.06904
13.73215 1.443163 10.00039
10.14866 7.862502 11.26664
14.54875 3.24627 9.98224
13.84949 1.695551 10.14897
14.54797 3.379822 9.882431
14.54924 3.511459 9.7904
13.85027 1.549639 10.07784
13.74899 1.694582 10.13688
14.54709 3.645986 9.66758
3.79556 13.6711 0.9381298
3.67977 13.6731 0.9408302
11.05239 7.177704 11.72989
11.05328 7.307902 11.62759
9.751277 8.555197 11.07434
9.650804 8.419403 11.13026
1.871022 4.350178 8.65324
1.91707 4.209332 8.55437
12.15785 8.262002 10.67657
12.05916 8.258701 10.71117
5.04964 12.3584 8.07879
5.05081 12.4959 8.03413
4.959119 12.3575 8.12235
5.05139 12.6424 7.985611
5.05104 12.7875 7.921755
5.05039 12.9354 7.844009
5.15015 13.0789 7.748776
11.79105 0.5027801 5.83467
11.83649 0.5524382 5.93284
14.55391 5.759456 8.41649
14.54221 5.899743 8.41646
4.93136 10.7014 7.141591
4.94626 10.8563 7.240881
6.74332 0.4712418 9.62002
14.45209 6.5967 8.1159
3.98585 0.9748414 8.87938
4.01615 0.8501932 8.99857
9.247371 1.43832 11.81509
9.24601 1.303047 11.87452
10.84974 6.10108 12.40495
14.20203 7.286899 8.11608
10.14194 9.2927 10.47542
11.53262 4.677072 12.38598
11.63312 4.679978 12.35416
11.54243 4.813031 12.3988
13.04284 0.8385107 6.8557
5.14816 1.387961 11.35224
5.14971 1.521207 11.24266
5.1503 1.64891 11.0915
5.15066 1.776099 10.95051
5.14945 1.90796 10.81424
5.14919 2.041183 10.7253
5.15288 2.175041 10.65675
7.30505 2.113149 11.18642
7.45503 2.222098 11.03383
7.39101 2.227888 10.95517
5.61006 11.8485 6.643418
5.69709 11.8351 6.693628
0.8464002 11.7482 9.21363
0.8399498 11.7489 9.11447
7.13594 12.4979 6.34222
7.23739 12.573 6.213388
7.30989 12.5694 6.28118
0.7906894 9.6941 10.1257
0.7955797 9.693802 10.22524
0.8066001 9.8302 10.12437
2.979 13.8534 4.50771
3.06625 13.8152 4.53916
7.22091 4.966721 3.36584
7.32175 4.972503 3.30566
7.31924 4.827992 3.33727
5.04957 4.3253 11.16255
7.22083 5.107239 3.3661
5.15061 4.47239 11.24157
5.14992 4.327722 11.15918
5.15012 4.623748 11.32182
5.15071 4.76741 11.37591
5.151269 4.908182 11.39275
5.15024 5.050511 11.39961
5.15018 5.191848 11.41136
5.15093 5.333946 11.45457
5.1501 5.48032 11.51307
5.15048 5.62244 11.54118
5.14961 5.762168 11.53743
5.15018 5.900838 11.50201
5.15049 6.03851 11.45307
5.152639 6.176539 11.40291
5.15128 6.318242 11.42201
5.1499 6.462671 11.46158
5.151169 6.60313 11.44485
5.15026 6.74063 11.40017
5.15039 6.879271 11.35149
5.15022 7.015802 11.28666
5.15021 7.150703 11.19588
5.149819 7.2883 11.09949
5.14979 7.425897 11.04773
5.15001 7.564903 11.00819
5.15049 7.703498 10.96855
5.14947 7.844404 10.91022
5.1499 7.9818 10.82143
5.14996 8.118697 10.70789
5.14971 8.257204 10.5725
5.15039 8.3915 10.46796
5.15089 8.527801 10.34198
5.1524 8.663104 10.20328
5.05201 8.662098 10.23892
3.56468 11.2586 6.135043
11.45806 6.531731 11.93246
4.08759 8.539998 10.71963
3.99092 8.537301 10.75616
0.9006627 11.8856 9.21303
0.8764698 11.886 9.11316
11.94959 8.257003 10.73879
12.14666 6.755136 11.65681
5.68977 11.9502 6.548607
5.78349 11.9301 6.587705
14.14143 7.4258 8.11621
10.14957 8.830697 10.88892
3.84953 13.7821 1.44323
3.84686 13.9388 1.44101
11.7703 6.136351 11.85583
13.86307 7.6935 7.116239
13.79602 7.829198 7.117706
10.99299 5.061493 12.48353
11.05108 7.043101 11.79236
14.42559 6.735318 7.916034
14.38044 6.874964 7.916312
10.04875 1.141198 11.65786
10.45193 5.000629 12.60543
9.450054 5.42482 12.69765
14.25401 6.866716 7.016798
5.15054 12.6406 7.957752
5.14996 12.7854 7.90451
5.15163 12.9357 7.832828
10.58372 0.8604005 6.02486
10.66998 0.832282 6.067701
5.15071 13.2245 7.645185
16.0278 2.813712 8.3168
0.9918802 12.0215 9.21142
0.9670493 12.0229 9.11233
3.8175 13.4563 1.23195
3.73981 14.4089 1.53962
3.76604 14.25091 1.63874
5.08707 1.303978 11.42413
5.24991 1.254678 11.39593
5.24879 1.385652 11.32608
5.15014 1.25777 11.42245
5.2501 1.518123 11.21654
5.250209 1.648821 11.0801
5.25031 1.779251 10.96528
5.24865 1.91287 10.85522
5.24907 2.046339 10.77677
5.25192 2.183087 10.7336
5.24656 2.323002 10.69443
5.25114 2.462 10.67747
5.18563 2.459221 10.60102
13.93898 7.790499 7.701069
3.19845 11.9781 3.15285
3.13793 11.9674 3.06501
3.68702 11.4906 5.98804
9.019042 13.6665 4.92265
9.035173 13.6616 5.02371
8.91387 13.611 4.90294
3.00344 13.7828 4.66001
10.4947 10.1338 8.86496
2.80324 10.8437 6.269408
10.64975 10.1366 8.77838
5.25008 4.184082 11.10603
5.24923 4.327022 11.16223
8.1057 13.4042 5.30841
8.12494 13.2746 5.42949
5.25023 4.472993 11.22594
5.25033 4.619867 11.28659
5.25023 4.764892 11.33419
5.24813 4.909449 11.36556
5.25073 5.048179 11.37565
5.25157 5.188719 11.39119
5.25016 5.33402 11.43799
5.24995 5.4795 11.4997
5.25035 5.620562 11.5143
5.24868 5.759962 11.50977
5.25034 5.8987 11.47599
5.249199 6.035477 11.42194
5.25206 6.174669 11.38194
5.25153 6.31518 11.38057
5.25251 6.457165 11.40635
5.25338 6.600328 11.39936
5.24967 6.737188 11.36212
5.25013 6.876879 11.31343
5.25033 7.013605 11.24923
5.25032 7.1477 11.17865
5.25014 7.288397 11.12273
5.25014 7.427499 11.08376
5.25028 7.5664 11.04447
5.25011 7.705898 10.99589
5.2501 7.845 10.92246
5.25 7.981398 10.83224
5.25024 8.115799 10.71638
5.25017 8.254 10.58059
5.24967 8.388401 10.46438
