0.030809 0.017256 -0.050702
0.030810 0.017254 -0.050704
0.030812 0.017252 -0.050705
0.030814 0.017250 -0.050706
0.030816 0.017247 -0.050707
0.030818 0.017245 -0.050709
0.030819 0.017243 -0.050710
0.030821 0.017241 -0.050711
0.030823 0.017239 -0.050712
0.030825 0.017237 -0.050713
0.030826 0.017235 -0.050715
0.030828 0.017233 -0.050716
0.030830 0.017231 -0.050717
0.030832 0.017229 -0.050718
0.030833 0.017227 -0.050719
0.030835 0.017225 -0.050720
0.030837 0.017223 -0.050722
0.030838 0.017221 -0.050723
0.030840 0.017219 -0.050724
0.030842 0.017217 -0.050725
0.030843 0.017215 -0.050726
0.030845 0.017213 -0.050727
0.030847 0.017211 -0.050729
0.030848 0.017209 -0.050730
0.030850 0.017207 -0.050731
0.030852 0.017206 -0.050732
0.030853 0.017204 -0.050733
0.030855 0.017202 -0.050734
0.030856 0.017200 -0.050735
0.030858 0.017198 -0.050737
0.030860 0.017196 -0.050738
0.030861 0.017194 -0.050739
0.030863 0.017193 -0.050740
0.030864 0.017191 -0.050741
0.030866 0.017189 -0.050742
0.030867 0.017187 -0.050743
0.030869 0.017186 -0.050744
0.030870 0.017184 -0.050745
0.030872 0.017182 -0.050747
0.030873 0.017180 -0.050748
0.030875 0.017179 -0.050749
0.030876 0.017177 -0.050750
0.030878 0.017175 -0.050751
0.030879 0.017174 -0.050752
0.030881 0.017172 -0.050753
0.030882 0.017170 -0.050754
0.030884 0.017169 -0.050755
0.030885 0.017167 -0.050756
0.030886 0.017165 -0.050757
0.030888 0.017164 -0.050758
0.030889 0.017162 -0.050760
0.030891 0.017161 -0.050761
0.030892 0.017159 -0.050762
0.030893 0.017158 -0.050763
0.030895 0.017156 -0.050764
0.030896 0.017154 -0.050765
0.030898 0.017153 -0.050766
0.030899 0.017151 -0.050767
0.030900 0.017150 -0.050768
0.030902 0.017148 -0.050769
0.030903 0.017147 -0.050770
0.030904 0.017145 -0.050771
0.030906 0.017144 -0.050772
0.030907 0.017143 -0.050773
0.030908 0.017141 -0.050774
0.030909 0.017140 -0.050775
0.030911 0.017138 -0.050776
0.030912 0.017137 -0.050777
0.030913 0.017135 -0.050778
0.030914 0.017134 -0.050779
0.030916 0.017133 -0.050780
0.030917 0.017131 -0.050781
0.030918 0.017130 -0.050782
0.030919 0.017129 -0.050783
0.030921 0.017127 -0.050784
0.030922 0.017126 -0.050785
0.030923 0.017125 -0.050786
0.030924 0.017123 -0.050787
0.030925 0.017122 -0.050788
0.030927 0.017121 -0.050789
0.030928 0.017119 -0.050790
0.030929 0.017118 -0.050791
0.030930 0.017117 -0.050792
0.030931 0.017116 -0.050793
0.030932 0.017115 -0.050794
0.030934 0.017113 -0.050795
0.030935 0.017112 -0.050796
0.030936 0.017111 -0.050797
0.030937 0.017110 -0.050797
0.030938 0.017109 -0.050798
0.030939 0.017107 -0.050799
0.030940 0.017106 -0.050800
0.030941 0.017105 -0.050801
0.030942 0.017104 -0.050802
0.030943 0.017103 -0.050803
0.030944 0.017102 -0.050804
0.030946 0.017101 -0.050805
0.030947 0.017099 -0.050806
0.030948 0.017098 -0.050807
0.030949 0.017097 -0.050808
0.030950 0.017096 -0.050808
0.030951 0.017095 -0.050809
0.030952 0.017094 -0.050810
0.030953 0.017093 -0.050811
0.030954 0.017092 -0.050812
0.030955 0.017091 -0.050813
0.030956 0.017090 -0.050814
0.030957 0.017089 -0.050815
0.030958 0.017088 -0.050815
0.030959 0.017087 -0.050816
0.030959 0.017086 -0.050817
0.030960 0.017085 -0.050818
0.030961 0.017084 -0.050819
0.030962 0.017083 -0.050820
0.030963 0.017082 -0.050821
0.030964 0.017081 -0.050821
0.030965 0.017080 -0.050822
0.030966 0.017080 -0.050823
0.030967 0.017079 -0.050824
0.030968 0.017078 -0.050825
0.030969 0.017077 -0.050826
0.030969 0.017076 -0.050826
0.030970 0.017075 -0.050827
0.030971 0.017074 -0.050828
0.030972 0.017074 -0.050829
0.030973 0.017073 -0.050830
0.030974 0.017072 -0.050830
0.030975 0.017071 -0.050831
0.030975 0.017070 -0.050832
0.030976 0.017069 -0.050833
0.030977 0.017069 -0.050834
0.030978 0.017068 -0.050834
0.030979 0.017067 -0.050835
0.030979 0.017066 -0.050836
0.030980 0.017066 -0.050837
0.030981 0.017065 -0.050837
0.030982 0.017064 -0.050838
0.030982 0.017063 -0.050839
0.030983 0.017063 -0.050840
0.030984 0.017062 -0.050840
0.030985 0.017061 -0.050841
0.030985 0.017061 -0.050842
0.030986 0.017060 -0.050843
0.030987 0.017059 -0.050843
0.030988 0.017059 -0.050844
0.030988 0.017058 -0.050845
0.030989 0.017057 -0.050846
0.030990 0.017057 -0.050846
0.030990 0.017056 -0.050847
0.030991 0.017056 -0.050848
0.030992 0.017055 -0.050848
0.030992 0.017054 -0.050849
0.030993 0.017054 -0.050850
0.030994 0.017053 -0.050851
0.030994 0.017053 -0.050851
0.030995 0.017052 -0.050852
0.030996 0.017052 -0.050853
0.030996 0.017051 -0.050853
0.030997 0.017051 -0.050854
0.030997 0.017050 -0.050855
0.030998 0.017049 -0.050855
0.030999 0.017049 -0.050856
0.030999 0.017049 -0.050857
0.031000 0.017048 -0.050857
0.031000 0.017048 -0.050858
0.031001 0.017047 -0.050859
0.031002 0.017047 -0.050859
0.031002 0.017046 -0.050860
0.031003 0.017046 -0.050861
0.031003 0.017045 -0.050861
0.031004 0.017045 -0.050862
0.031004 0.017044 -0.050863
0.031005 0.017044 -0.050863
0.031005 0.017044 -0.050864
0.031006 0.017043 -0.050864
0.031006 0.017043 -0.050865
0.031007 0.017042 -0.050866
0.031007 0.017042 -0.050866
0.031008 0.017042 -0.050867
0.031008 0.017041 -0.050867
0.031009 0.017041 -0.050868
0.031009 0.017041 -0.050869
0.031010 0.017040 -0.050869
0.031010 0.017040 -0.050870
0.031011 0.017040 -0.050870
0.031011 0.017039 -0.050871
0.031012 0.017039 -0.050872
0.031012 0.017039 -0.050872
0.031013 0.017039 -0.050873
0.031013 0.017038 -0.050873
0.031013 0.017038 -0.050874
0.031014 0.017038 -0.050874
0.031014 0.017038 -0.050875
0.031015 0.017037 -0.050875
0.031015 0.017037 -0.050876
0.031015 0.017037 -0.050876
0.031016 0.017037 -0.050877
0.031016 0.017036 -0.050878
0.031016 0.017036 -0.050878
0.031017 0.017036 -0.050879
0.031017 0.017036 -0.050879
0.031018 0.017036 -0.050880
0.031018 0.017035 -0.050880
0.031018 0.017035 -0.050881
0.031019 0.017035 -0.050881
0.031019 0.017035 -0.050882
0.031019 0.017035 -0.050882
0.031020 0.017035 -0.050883
0.031020 0.017035 -0.050883
0.031020 0.017035 -0.050884
0.031021 0.017034 -0.050884
0.031021 0.017034 -0.050885
0.031021 0.017034 -0.050885
0.031021 0.017034 -0.050885
0.031022 0.017034 -0.050886
0.031022 0.017034 -0.050886
0.031022 0.017034 -0.050887
0.031022 0.017034 -0.050887
0.031023 0.017034 -0.050888
0.031023 0.017034 -0.050888
0.031023 0.017034 -0.050889
0.031023 0.017034 -0.050889
0.031024 0.017034 -0.050889
0.031024 0.017034 -0.050890
0.031024 0.017034 -0.050890
0.031024 0.017034 -0.050891
0.031025 0.017034 -0.050891
0.031025 0.017034 -0.050892
0.031025 0.017034 -0.050892
0.031025 0.017034 -0.050892
0.031025 0.017034 -0.050893
0.031026 0.017034 -0.050893
0.031026 0.017034 -0.050894
0.031026 0.017034 -0.050894
0.031026 0.017034 -0.050894
0.031026 0.017034 -0.050895
0.031026 0.017034 -0.050895
0.031027 0.017034 -0.050895
0.031027 0.017034 -0.050896
0.031027 0.017034 -0.050896
0.031027 0.017035 -0.050896
0.031027 0.017035 -0.050897
0.031027 0.017035 -0.050897
0.031027 0.017035 -0.050897
0.031028 0.017035 -0.050898
0.031028 0.017035 -0.050898
0.031028 0.017035 -0.050898
0.031028 0.017035 -0.050899
0.031028 0.017036 -0.050899
0.031028 0.017036 -0.050899
0.031028 0.017036 -0.050900
0.031028 0.017036 -0.050900
0.031028 0.017036 -0.050900
0.031028 0.017036 -0.050901
0.031028 0.017037 -0.050901
0.031028 0.017037 -0.050901
0.031029 0.017037 -0.050902
0.031029 0.017037 -0.050902
0.031029 0.017038 -0.050902
0.031029 0.017038 -0.050902
0.031029 0.017038 -0.050903
0.031029 0.017038 -0.050903
0.031029 0.017038 -0.050903
0.031029 0.017039 -0.050903
0.031029 0.017039 -0.050904
0.031029 0.017039 -0.050904
0.031029 0.017040 -0.050904
0.031029 0.017040 -0.050904
0.031029 0.017040 -0.050905
0.031029 0.017040 -0.050905
0.031029 0.017041 -0.050905
0.031029 0.017041 -0.050905
0.031029 0.017041 -0.050906
0.031029 0.017042 -0.050906
0.031029 0.017042 -0.050906
0.031029 0.017042 -0.050906
0.031029 0.017043 -0.050906
0.031029 0.017043 -0.050907
0.031029 0.017043 -0.050907
0.031028 0.017044 -0.050907
0.031028 0.017044 -0.050907
0.031028 0.017044 -0.050907
0.031028 0.017045 -0.050907
0.031028 0.017045 -0.050908
0.031028 0.017046 -0.050908
0.031028 0.017046 -0.050908
0.031028 0.017046 -0.050908
0.031028 0.017047 -0.050908
0.031028 0.017047 -0.050908
0.031028 0.017048 -0.050909
0.031028 0.017048 -0.050909
0.031027 0.017048 -0.050909
0.031027 0.017049 -0.050909
0.031027 0.017049 -0.050909
0.031027 0.017050 -0.050909
0.031027 0.017050 -0.050909
0.031027 0.017051 -0.050909
0.031027 0.017051 -0.050909
0.031027 0.017052 -0.050910
0.031026 0.017052 -0.050910
0.031026 0.017052 -0.050910
0.031026 0.017053 -0.050910
0.031026 0.017053 -0.050910
0.031026 0.017054 -0.050910
0.031026 0.017054 -0.050910
0.031025 0.017055 -0.050910
0.031025 0.017055 -0.050910
0.031025 0.017056 -0.050910
0.031025 0.017056 -0.050910
0.031025 0.017057 -0.050910
0.031024 0.017057 -0.050910
0.031024 0.017058 -0.050911
0.031024 0.017059 -0.050911
0.031024 0.017059 -0.050911
0.031024 0.017060 -0.050911
0.031023 0.017060 -0.050911
0.031023 0.017061 -0.050911
0.031023 0.017061 -0.050911
0.031023 0.017062 -0.050911
0.031023 0.017062 -0.050911
0.031022 0.017063 -0.050911
0.031022 0.017064 -0.050911
0.031022 0.017064 -0.050911
0.031022 0.017065 -0.050911
0.031021 0.017065 -0.050911
0.031021 0.017066 -0.050911
0.031021 0.017067 -0.050911
0.031021 0.017067 -0.050911
0.031020 0.017068 -0.050911
0.031020 0.017068 -0.050911
0.031020 0.017069 -0.050910
0.031019 0.017070 -0.050910
0.031019 0.017070 -0.050910
0.031019 0.017071 -0.050910
0.031019 0.017072 -0.050910
0.031018 0.017072 -0.050910
0.031018 0.017073 -0.050910
0.031018 0.017074 -0.050910
0.031017 0.017074 -0.050910
0.031017 0.017075 -0.050910
0.031017 0.017076 -0.050910
0.031016 0.017076 -0.050910
0.031016 0.017077 -0.050910
0.031016 0.017078 -0.050909
0.031015 0.017078 -0.050909
0.031015 0.017079 -0.050909
0.031015 0.017080 -0.050909
0.031014 0.017080 -0.050909
0.031014 0.017081 -0.050909
0.031014 0.017082 -0.050909
0.031013 0.017083 -0.050909
0.031013 0.017083 -0.050908
0.031013 0.017084 -0.050908
0.031012 0.017085 -0.050908
0.031012 0.017085 -0.050908
0.031012 0.017086 -0.050908
0.031011 0.017087 -0.050908
0.031011 0.017088 -0.050908
0.031010 0.017088 -0.050907
0.031010 0.017089 -0.050907
0.031010 0.017090 -0.050907
0.031009 0.017091 -0.050907
0.031009 0.017092 -0.050907
0.031009 0.017092 -0.050906
0.031008 0.017093 -0.050906
0.031008 0.017094 -0.050906
0.031007 0.017095 -0.050906
0.031007 0.017095 -0.050906
0.031006 0.017096 -0.050905
0.031006 0.017097 -0.050905
0.031006 0.017098 -0.050905
0.031005 0.017099 -0.050905
0.031005 0.017099 -0.050904
0.031004 0.017100 -0.050904
0.031004 0.017101 -0.050904
0.031003 0.017102 -0.050904
0.031003 0.017103 -0.050903
0.031003 0.017104 -0.050903
0.031002 0.017104 -0.050903
0.031002 0.017105 -0.050903
0.031001 0.017106 -0.050902
0.031001 0.017107 -0.050902
0.031000 0.017108 -0.050902
0.031000 0.017109 -0.050901
0.030999 0.017109 -0.050901
0.030999 0.017110 -0.050901
0.030998 0.017111 -0.050901
0.030998 0.017112 -0.050900
0.030997 0.017113 -0.050900
0.030997 0.017114 -0.050900
0.030997 0.017115 -0.050899
0.030996 0.017115 -0.050899
0.030996 0.017116 -0.050899
0.030995 0.017117 -0.050898
0.030995 0.017118 -0.050898
0.030994 0.017119 -0.050898
0.030994 0.017120 -0.050897
0.030993 0.017121 -0.050897
0.030993 0.017122 -0.050896
0.030992 0.017123 -0.050896
0.030992 0.017124 -0.050896
0.030991 0.017124 -0.050895
0.030990 0.017125 -0.050895
0.030990 0.017126 -0.050895
0.030989 0.017127 -0.050894
0.030989 0.017128 -0.050894
0.030988 0.017129 -0.050893
0.030988 0.017130 -0.050893
0.030987 0.017131 -0.050893
0.030987 0.017132 -0.050892
0.030986 0.017133 -0.050892
0.030986 0.017134 -0.050891
0.030985 0.017135 -0.050891
0.030985 0.017136 -0.050890
0.030984 0.017137 -0.050890
0.030983 0.017138 -0.050889
0.030983 0.017138 -0.050889
0.030982 0.017139 -0.050889
0.030982 0.017140 -0.050888
0.030981 0.017141 -0.050888
0.030981 0.017142 -0.050887
0.030980 0.017143 -0.050887
0.030979 0.017144 -0.050886
0.030979 0.017145 -0.050886
0.030978 0.017146 -0.050885
0.030978 0.017147 -0.050885
0.030977 0.017148 -0.050884
0.030977 0.017149 -0.050884
0.030976 0.017150 -0.050883
0.030975 0.017151 -0.050883
0.030975 0.017152 -0.050882
0.030974 0.017153 -0.050882
0.030974 0.017154 -0.050881
0.030973 0.017155 -0.050880
0.030972 0.017156 -0.050880
0.030972 0.017157 -0.050879
0.030971 0.017158 -0.050879
0.030971 0.017159 -0.050878
0.030970 0.017160 -0.050878
0.030969 0.017161 -0.050877
0.030969 0.017162 -0.050876
0.030968 0.017163 -0.050876
0.030967 0.017164 -0.050875
0.030967 0.017165 -0.050875
0.030966 0.017166 -0.050874
0.030966 0.017167 -0.050873
0.030965 0.017168 -0.050873
0.030964 0.017169 -0.050872
0.030964 0.017170 -0.050872
0.030963 0.017171 -0.050871
0.030962 0.017172 -0.050870
0.030962 0.017174 -0.050870
0.030961 0.017175 -0.050869
0.030960 0.017176 -0.050868
0.030960 0.017177 -0.050868
0.030959 0.017178 -0.050867
0.030959 0.017179 -0.050866
0.030958 0.017180 -0.050866
0.030957 0.017181 -0.050865
0.030957 0.017182 -0.050864
0.030956 0.017183 -0.050864
0.030955 0.017184 -0.050863
0.030955 0.017185 -0.050862
0.030954 0.017186 -0.050862
0.030953 0.017187 -0.050861
0.030953 0.017188 -0.050860
0.030952 0.017189 -0.050860
0.030951 0.017190 -0.050859
0.030951 0.017192 -0.050858
0.030950 0.017193 -0.050857
0.030949 0.017194 -0.050857
0.030949 0.017195 -0.050856
0.030948 0.017196 -0.050855
0.030947 0.017197 -0.050854
0.030946 0.017198 -0.050854
0.030946 0.017199 -0.050853
0.030945 0.017200 -0.050852
0.030944 0.017201 -0.050851
0.030944 0.017202 -0.050851
0.030943 0.017203 -0.050850
0.030942 0.017205 -0.050849
0.030942 0.017206 -0.050848
0.030941 0.017207 -0.050847
0.030940 0.017208 -0.050847
0.030939 0.017209 -0.050846
0.030939 0.017210 -0.050845
0.030938 0.017211 -0.050844
0.030937 0.017212 -0.050843
0.030937 0.017213 -0.050843
0.030936 0.017214 -0.050842
0.030935 0.017216 -0.050841
0.030935 0.017217 -0.050840
0.030934 0.017218 -0.050839
0.030933 0.017219 -0.050838
0.030932 0.017220 -0.050837
0.030932 0.017221 -0.050837
0.030931 0.017222 -0.050836
0.030930 0.017223 -0.050835
0.030929 0.017224 -0.050834
0.030929 0.017226 -0.050833
0.030928 0.017227 -0.050832
0.030927 0.017228 -0.050831
0.030927 0.017229 -0.050830
0.030926 0.017230 -0.050829
0.030925 0.017231 -0.050828
0.030924 0.017232 -0.050828
0.030924 0.017233 -0.050827
0.030923 0.017234 -0.050826
0.030922 0.017236 -0.050825
0.030921 0.017237 -0.050824
0.030921 0.017238 -0.050823
0.030920 0.017239 -0.050822
0.030919 0.017240 -0.050821
0.030918 0.017241 -0.050820
0.030918 0.017242 -0.050819
0.030917 0.017243 -0.050818
0.030916 0.017245 -0.050817
0.030915 0.017246 -0.050816
0.030915 0.017247 -0.050815
0.030914 0.017248 -0.050814
0.030913 0.017249 -0.050813
0.030912 0.017250 -0.050812
0.030912 0.017251 -0.050811
0.030911 0.017253 -0.050810
0.030910 0.017254 -0.050809
0.030909 0.017255 -0.050808
0.030909 0.017256 -0.050807
0.030908 0.017257 -0.050806
0.030907 0.017258 -0.050805
0.030906 0.017259 -0.050804
0.030906 0.017260 -0.050803
0.030905 0.017262 -0.050802
0.030904 0.017263 -0.050801
0.030903 0.017264 -0.050799
0.030902 0.017265 -0.050798
0.030902 0.017266 -0.050797
0.030901 0.017267 -0.050796
0.030900 0.017268 -0.050795
0.030899 0.017270 -0.050794
0.030899 0.017271 -0.050793
0.030898 0.017272 -0.050792
0.030897 0.017273 -0.050791
0.030896 0.017274 -0.050789
0.030896 0.017275 -0.050788
0.030895 0.017276 -0.050787
0.030894 0.017277 -0.050786
0.030893 0.017279 -0.050785
0.030892 0.017280 -0.050784
0.030892 0.017281 -0.050783
0.030891 0.017282 -0.050781
0.030890 0.017283 -0.050780
0.030889 0.017284 -0.050779
0.030889 0.017285 -0.050778
0.030888 0.017287 -0.050777
0.030887 0.017288 -0.050775
0.030886 0.017289 -0.050774
0.030885 0.017290 -0.050773
0.030885 0.017291 -0.050772
0.030884 0.017292 -0.050771
0.030883 0.017293 -0.050769
0.030882 0.017295 -0.050768
0.030881 0.017296 -0.050767
0.030881 0.017297 -0.050766
0.030880 0.017298 -0.050764
0.030879 0.017299 -0.050763
0.030878 0.017300 -0.050762
0.030878 0.017301 -0.050761
0.030877 0.017302 -0.050759
0.030876 0.017304 -0.050758
0.030875 0.017305 -0.050757
0.030874 0.017306 -0.050756
0.030874 0.017307 -0.050754
0.030873 0.017308 -0.050753
0.030872 0.017309 -0.050752
0.030871 0.017310 -0.050750
0.030870 0.017311 -0.050749
0.030870 0.017313 -0.050748
0.030869 0.017314 -0.050746
0.030868 0.017315 -0.050745
0.030867 0.017316 -0.050744
0.030866 0.017317 -0.050742
0.030866 0.017318 -0.050741
0.030865 0.017319 -0.050740
0.030864 0.017320 -0.050738
0.030863 0.017322 -0.050737
0.030862 0.017323 -0.050736
0.030862 0.017324 -0.050734
0.030861 0.017325 -0.050733
0.030860 0.017326 -0.050731
0.030859 0.017327 -0.050730
0.030858 0.017328 -0.050729
0.030858 0.017329 -0.050727
0.030857 0.017330 -0.050726
0.030856 0.017332 -0.050724
0.030855 0.017333 -0.050723
0.030855 0.017334 -0.050721
0.030854 0.017335 -0.050720
0.030853 0.017336 -0.050719
0.030852 0.017337 -0.050717
0.030851 0.017338 -0.050716
0.030851 0.017339 -0.050714
0.030850 0.017340 -0.050713
0.030849 0.017341 -0.050711
0.030848 0.017343 -0.050710
0.030847 0.017344 -0.050708
0.030847 0.017345 -0.050707
0.030846 0.017346 -0.050705
0.030845 0.017347 -0.050704
0.030844 0.017348 -0.050702
0.030843 0.017349 -0.050701
0.030843 0.017350 -0.050699
0.030842 0.017351 -0.050698
0.030841 0.017352 -0.050696
0.030840 0.017353 -0.050695
0.030839 0.017355 -0.050693
0.030839 0.017356 -0.050692
0.030838 0.017357 -0.050690
0.030837 0.017358 -0.050688
0.030836 0.017359 -0.050687
0.030835 0.017360 -0.050685
0.030835 0.017361 -0.050684
0.030834 0.017362 -0.050682
0.030833 0.017363 -0.050681
0.030832 0.017364 -0.050679
0.030832 0.017365 -0.050677
0.030831 0.017366 -0.050676
0.030830 0.017367 -0.050674
0.030829 0.017368 -0.050672
0.030828 0.017369 -0.050671
0.030828 0.017371 -0.050669
0.030827 0.017372 -0.050668
0.030826 0.017373 -0.050666
0.030825 0.017374 -0.050664
0.030824 0.017375 -0.050663
0.030824 0.017376 -0.050661
0.030823 0.017377 -0.050659
0.030822 0.017378 -0.050658
0.030821 0.017379 -0.050656
0.030821 0.017380 -0.050654
0.030820 0.017381 -0.050653
0.030819 0.017382 -0.050651
0.030818 0.017383 -0.050649
0.030817 0.017384 -0.050647
0.030817 0.017385 -0.050646
0.030816 0.017386 -0.050644
0.030815 0.017387 -0.050642
0.030814 0.017388 -0.050640
0.030814 0.017389 -0.050639
0.030813 0.017390 -0.050637
0.030812 0.017391 -0.050635
0.030811 0.017392 -0.050633
0.030810 0.017393 -0.050632
0.030810 0.017394 -0.050630
0.030809 0.017395 -0.050628
0.030808 0.017396 -0.050626
0.030807 0.017397 -0.050625
0.030807 0.017398 -0.050623
0.030806 0.017399 -0.050621
0.030805 0.017400 -0.050619
0.030804 0.017401 -0.050617
0.030804 0.017402 -0.050615
0.030803 0.017403 -0.050614
0.030802 0.017404 -0.050612
0.030801 0.017405 -0.050610
0.030801 0.017406 -0.050608
0.030800 0.017407 -0.050606
0.030799 0.017408 -0.050604
0.030798 0.017409 -0.050603
0.030798 0.017410 -0.050601
0.030797 0.017411 -0.050599
0.030796 0.017412 -0.050597
0.030795 0.017413 -0.050595
0.030794 0.017414 -0.050593
0.030794 0.017415 -0.050591
0.030793 0.017416 -0.050589
0.030792 0.017417 -0.050587
0.030792 0.017417 -0.050585
0.030791 0.017418 -0.050583
0.030790 0.017419 -0.050582
0.030789 0.017420 -0.050580
0.030789 0.017421 -0.050578
0.030788 0.017422 -0.050576
0.030787 0.017423 -0.050574
0.030786 0.017424 -0.050572
0.030786 0.017425 -0.050570
0.030785 0.017426 -0.050568
0.030784 0.017427 -0.050566
0.030783 0.017428 -0.050564
0.030783 0.017428 -0.050562
0.030782 0.017429 -0.050560
0.030781 0.017430 -0.050558
0.030780 0.017431 -0.050556
0.030780 0.017432 -0.050554
0.030779 0.017433 -0.050552
0.030778 0.017434 -0.050550
0.030778 0.017435 -0.050548
0.030777 0.017436 -0.050546
0.030776 0.017436 -0.050544
0.030775 0.017437 -0.050541
0.030775 0.017438 -0.050539
0.030774 0.017439 -0.050537
0.030773 0.017440 -0.050535
0.030773 0.017441 -0.050533
0.030772 0.017442 -0.050531
0.030771 0.017442 -0.050529
0.030770 0.017443 -0.050527
0.030770 0.017444 -0.050525
0.030769 0.017445 -0.050523
0.030768 0.017446 -0.050520
0.030768 0.017447 -0.050518
0.030767 0.017447 -0.050516
0.030766 0.017448 -0.050514
0.030766 0.017449 -0.050512
0.030765 0.017450 -0.050510
0.030764 0.017451 -0.050508
0.030764 0.017451 -0.050505
0.030763 0.017452 -0.050503
0.030762 0.017453 -0.050501
0.030762 0.017454 -0.050499
0.030761 0.017455 -0.050497
0.030760 0.017455 -0.050494
0.030759 0.017456 -0.050492
0.030759 0.017457 -0.050490
0.030758 0.017458 -0.050488
0.030757 0.017459 -0.050486
0.030757 0.017459 -0.050483
0.030756 0.017460 -0.050481
0.030755 0.017461 -0.050479
0.030755 0.017462 -0.050477
0.030754 0.017462 -0.050474
0.030753 0.017463 -0.050472
0.030753 0.017464 -0.050470
0.030752 0.017465 -0.050467
0.030752 0.017465 -0.050465
0.030751 0.017466 -0.050463
0.030750 0.017467 -0.050461
0.030750 0.017467 -0.050458
0.030749 0.017468 -0.050456
0.030748 0.017469 -0.050454
0.030748 0.017470 -0.050451
0.030747 0.017470 -0.050449
0.030746 0.017471 -0.050447
0.030746 0.017472 -0.050444
0.030745 0.017472 -0.050442
0.030745 0.017473 -0.050440
0.030744 0.017474 -0.050437
0.030743 0.017474 -0.050435
0.030743 0.017475 -0.050432
0.030742 0.017476 -0.050430
0.030741 0.017476 -0.050428
0.030741 0.017477 -0.050425
0.030740 0.017478 -0.050423
0.030740 0.017478 -0.050420
0.030739 0.017479 -0.050418
0.030738 0.017480 -0.050416
0.030738 0.017480 -0.050413
0.030737 0.017481 -0.050411
0.030737 0.017481 -0.050408
0.030736 0.017482 -0.050406
0.030735 0.017483 -0.050403
0.030735 0.017483 -0.050401
0.030734 0.017484 -0.050398
0.030734 0.017485 -0.050396
0.030733 0.017485 -0.050393
0.030732 0.017486 -0.050391
0.030732 0.017486 -0.050388
0.030731 0.017487 -0.050386
0.030731 0.017487 -0.050383
0.030730 0.017488 -0.050381
0.030730 0.017489 -0.050378
0.030729 0.017489 -0.050376
0.030728 0.017490 -0.050373
0.030728 0.017490 -0.050371
0.030727 0.017491 -0.050368
0.030727 0.017491 -0.050366
0.030726 0.017492 -0.050363
0.030726 0.017492 -0.050360
0.030725 0.017493 -0.050358
0.030725 0.017493 -0.050355
0.030724 0.017494 -0.050353
0.030724 0.017494 -0.050350
0.030723 0.017495 -0.050348
0.030722 0.017495 -0.050345
0.030722 0.017496 -0.050342
0.030179 0.018058 -0.050353
0.030183 0.018052 -0.050354
0.030187 0.018047 -0.050356
0.030191 0.018042 -0.050358
0.030196 0.018036 -0.050360
0.030200 0.018031 -0.050362
0.030204 0.018025 -0.050364
0.030208 0.018020 -0.050366
0.030212 0.018015 -0.050367
0.030216 0.018010 -0.050369
0.030220 0.018004 -0.050371
0.030224 0.017999 -0.050373
0.030228 0.017994 -0.050375
0.030232 0.017989 -0.050377
0.030236 0.017983 -0.050378
0.030240 0.017978 -0.050380
0.030244 0.017973 -0.050382
0.030248 0.017968 -0.050384
0.030251 0.017963 -0.050386
0.030255 0.017958 -0.050388
0.030259 0.017952 -0.050389
0.030263 0.017947 -0.050391
0.030267 0.017942 -0.050393
0.030271 0.017937 -0.050395
0.030275 0.017932 -0.050397
0.030279 0.017927 -0.050398
0.030282 0.017922 -0.050400
0.030286 0.017917 -0.050402
0.030290 0.017912 -0.050404
0.030294 0.017907 -0.050406
0.030297 0.017902 -0.050408
0.030301 0.017897 -0.050409
0.030305 0.017893 -0.050411
0.030309 0.017888 -0.050413
0.030312 0.017883 -0.050415
0.030316 0.017878 -0.050416
0.030320 0.017873 -0.050418
0.030324 0.017868 -0.050420
0.030327 0.017864 -0.050422
0.030331 0.017859 -0.050424
0.030335 0.017854 -0.050425
0.030338 0.017849 -0.050427
0.030342 0.017844 -0.050429
0.030345 0.017840 -0.050431
0.030349 0.017835 -0.050432
0.030353 0.017830 -0.050434
0.030356 0.017826 -0.050436
0.030360 0.017821 -0.050438
0.030363 0.017816 -0.050440
0.030367 0.017812 -0.050441
0.030371 0.017807 -0.050443
0.030374 0.017803 -0.050445
0.030378 0.017798 -0.050447
0.030381 0.017793 -0.050448
0.030385 0.017789 -0.050450
0.030388 0.017784 -0.050452
0.030392 0.017780 -0.050453
0.030395 0.017775 -0.050455
0.030398 0.017771 -0.050457
0.030402 0.017766 -0.050459
0.030405 0.017762 -0.050460
0.030409 0.017758 -0.050462
0.030412 0.017753 -0.050464
0.030416 0.017749 -0.050466
0.030419 0.017744 -0.050467
0.030422 0.017740 -0.050469
0.030426 0.017736 -0.050471
0.030429 0.017731 -0.050472
0.030432 0.017727 -0.050474
0.030436 0.017723 -0.050476
0.030439 0.017718 -0.050478
0.030442 0.017714 -0.050479
0.030446 0.017710 -0.050481
0.030449 0.017706 -0.050483
0.030452 0.017701 -0.050484
0.030455 0.017697 -0.050486
0.030459 0.017693 -0.050488
0.030462 0.017689 -0.050489
0.030465 0.017685 -0.050491
0.030468 0.017681 -0.050493
0.030472 0.017676 -0.050494
0.030475 0.017672 -0.050496
0.030478 0.017668 -0.050498
0.030481 0.017664 -0.050499
0.030484 0.017660 -0.050501
0.030487 0.017656 -0.050503
0.030491 0.017652 -0.050504
0.030494 0.017648 -0.050506
0.030497 0.017644 -0.050508
0.030500 0.017640 -0.050509
0.030503 0.017636 -0.050511
0.030506 0.017632 -0.050513
0.030509 0.017628 -0.050514
0.030512 0.017624 -0.050516
0.030515 0.017620 -0.050518
0.030518 0.017616 -0.050519
0.030521 0.017613 -0.050521
0.030524 0.017609 -0.050523
0.030527 0.017605 -0.050524
0.030530 0.017601 -0.050526
0.030533 0.017597 -0.050527
0.030536 0.017593 -0.050529
0.030539 0.017590 -0.050531
0.030542 0.017586 -0.050532
0.030545 0.017582 -0.050534
0.030548 0.017578 -0.050536
0.030551 0.017575 -0.050537
0.030554 0.017571 -0.050539
0.030557 0.017567 -0.050540
0.030560 0.017563 -0.050542
0.030563 0.017560 -0.050544
0.030566 0.017556 -0.050545
0.030568 0.017552 -0.050547
0.030571 0.017549 -0.050548
0.030574 0.017545 -0.050550
0.030577 0.017542 -0.050552
0.030580 0.017538 -0.050553
0.030583 0.017534 -0.050555
0.030585 0.017531 -0.050556
0.030588 0.017527 -0.050558
0.030591 0.017524 -0.050559
0.030594 0.017520 -0.050561
0.030596 0.017517 -0.050563
0.030599 0.017513 -0.050564
0.030602 0.017510 -0.050566
0.030605 0.017506 -0.050567
0.030607 0.017503 -0.050569
0.030610 0.017500 -0.050570
0.030613 0.017496 -0.050572
0.030615 0.017493 -0.050573
0.030618 0.017489 -0.050575
0.030621 0.017486 -0.050577
0.030623 0.017483 -0.050578
0.030626 0.017479 -0.050580
0.030629 0.017476 -0.050581
0.030631 0.017473 -0.050583
0.030634 0.017469 -0.050584
0.030637 0.017466 -0.050586
0.030639 0.017463 -0.050587
0.030642 0.017460 -0.050589
0.030644 0.017456 -0.050590
0.030647 0.017453 -0.050592
0.030649 0.017450 -0.050593
0.030652 0.017447 -0.050595
0.030655 0.017444 -0.050596
0.030657 0.017440 -0.050598
0.030660 0.017437 -0.050599
0.030662 0.017434 -0.050601
0.030665 0.017431 -0.050602
0.030667 0.017428 -0.050604
0.030670 0.017425 -0.050605
0.030672 0.017422 -0.050607
0.030674 0.017419 -0.050608
0.030677 0.017416 -0.050610
0.030679 0.017413 -0.050611
0.030682 0.017410 -0.050613
0.030684 0.017407 -0.050614
0.030687 0.017404 -0.050616
0.030689 0.017401 -0.050617
0.030691 0.017398 -0.050619
0.030694 0.017395 -0.050620
0.030696 0.017392 -0.050621
0.030698 0.017389 -0.050623
0.030701 0.017386 -0.050624
0.030703 0.017383 -0.050626
0.030705 0.017380 -0.050627
0.030708 0.017377 -0.050629
0.030710 0.017374 -0.050630
0.030712 0.017371 -0.050632
0.030715 0.017369 -0.050633
0.030717 0.017366 -0.050634
0.030719 0.017363 -0.050636
0.030721 0.017360 -0.050637
0.030724 0.017357 -0.050639
0.030726 0.017355 -0.050640
0.030728 0.017352 -0.050641
0.030730 0.017349 -0.050643
0.030733 0.017346 -0.050644
0.030735 0.017344 -0.050646
0.030737 0.017341 -0.050647
0.030739 0.017338 -0.050648
0.030741 0.017336 -0.050650
0.030744 0.017333 -0.050651
0.030746 0.017330 -0.050653
0.030748 0.017328 -0.050654
0.030750 0.017325 -0.050655
0.030752 0.017323 -0.050657
0.030754 0.017320 -0.050658
0.030756 0.017317 -0.050660
0.030758 0.017315 -0.050661
0.030761 0.017312 -0.050662
0.030763 0.017310 -0.050664
0.030765 0.017307 -0.050665
0.030767 0.017305 -0.050666
0.030769 0.017302 -0.050668
0.030771 0.017300 -0.050669
0.030773 0.017297 -0.050670
0.030775 0.017295 -0.050672
0.030777 0.017292 -0.050673
0.030779 0.017290 -0.050674
0.030781 0.017287 -0.050676
0.030783 0.017285 -0.050677
0.030785 0.017283 -0.050678
0.030787 0.017280 -0.050680
0.030789 0.017278 -0.050681
0.030791 0.017275 -0.050682
0.030793 0.017273 -0.050684
0.030795 0.017271 -0.050685
0.030797 0.017268 -0.050686
0.030798 0.017266 -0.050688
0.030800 0.017264 -0.050689
0.030802 0.017262 -0.050690
0.030804 0.017259 -0.050692
0.030806 0.017257 -0.050693
0.030808 0.017255 -0.050694
0.030810 0.017253 -0.050695
0.030812 0.017250 -0.050697
0.030813 0.017248 -0.050698
0.030815 0.017246 -0.050699
0.030817 0.017244 -0.050701
0.030819 0.017242 -0.050702
0.030821 0.017239 -0.050703
0.030823 0.017237 -0.050704
0.030824 0.017235 -0.050706
0.030826 0.017233 -0.050707
0.030828 0.017231 -0.050708
0.030830 0.017229 -0.050709
0.030831 0.017227 -0.050711
0.030833 0.017225 -0.050712
0.030835 0.017222 -0.050713
0.030837 0.017220 -0.050714
0.030838 0.017218 -0.050716
0.030840 0.017216 -0.050717
0.030842 0.017214 -0.050718
0.030843 0.017212 -0.050719
0.030845 0.017210 -0.050720
0.030847 0.017208 -0.050722
0.030848 0.017206 -0.050723
0.030850 0.017204 -0.050724
0.030852 0.017203 -0.050725
0.030853 0.017201 -0.050727
0.030855 0.017199 -0.050728
0.030857 0.017197 -0.050729
0.030858 0.017195 -0.050730
0.030860 0.017193 -0.050731
0.030862 0.017191 -0.050733
0.030863 0.017189 -0.050734
0.030865 0.017187 -0.050735
0.030866 0.017186 -0.050736
0.030868 0.017184 -0.050737
0.030869 0.017182 -0.050738
0.030871 0.017180 -0.050740
0.030872 0.017178 -0.050741
0.030874 0.017177 -0.050742
0.030876 0.017175 -0.050743
0.030877 0.017173 -0.050744
0.030879 0.017171 -0.050745
0.030880 0.017170 -0.050747
0.030882 0.017168 -0.050748
0.030883 0.017166 -0.050749
0.030885 0.017164 -0.050750
0.030886 0.017163 -0.050751
0.030887 0.017161 -0.050752
0.030889 0.017159 -0.050753
0.030890 0.017158 -0.050754
0.030892 0.017156 -0.050756
0.030893 0.017154 -0.050757
0.030895 0.017153 -0.050758
0.030896 0.017151 -0.050759
0.030897 0.017150 -0.050760
0.030899 0.017148 -0.050761
0.030900 0.017146 -0.050762
0.030902 0.017145 -0.050763
0.030903 0.017143 -0.050764
0.030904 0.017142 -0.050765
0.030906 0.017140 -0.050767
0.030907 0.017139 -0.050768
0.030908 0.017137 -0.050769
0.030910 0.017136 -0.050770
0.030911 0.017134 -0.050771
0.030912 0.017133 -0.050772
0.030914 0.017131 -0.050773
0.030915 0.017130 -0.050774
0.030916 0.017128 -0.050775
0.030917 0.017127 -0.050776
0.030919 0.017126 -0.050777
0.030920 0.017124 -0.050778
0.030921 0.017123 -0.050779
0.030922 0.017121 -0.050780
0.030924 0.017120 -0.050781
0.030925 0.017119 -0.050782
0.030926 0.017117 -0.050783
0.030927 0.017116 -0.050785
0.030929 0.017115 -0.050786
0.030930 0.017113 -0.050787
0.030931 0.017112 -0.050788
0.030932 0.017111 -0.050789
0.030933 0.017109 -0.050790
0.030935 0.017108 -0.050791
0.030936 0.017107 -0.050792
0.030937 0.017106 -0.050793
0.030938 0.017104 -0.050794
0.030939 0.017103 -0.050795
0.030940 0.017102 -0.050796
0.030941 0.017101 -0.050797
0.030943 0.017099 -0.050798
0.030944 0.017098 -0.050798
0.030945 0.017097 -0.050799
0.030946 0.017096 -0.050800
0.030947 0.017095 -0.050801
0.030948 0.017094 -0.050802
0.030949 0.017092 -0.050803
0.030950 0.017091 -0.050804
0.030951 0.017090 -0.050805
0.030952 0.017089 -0.050806
0.030953 0.017088 -0.050807
0.030954 0.017087 -0.050808
0.030955 0.017086 -0.050809
0.030956 0.017085 -0.050810
0.030957 0.017084 -0.050811
0.030958 0.017083 -0.050812
0.030959 0.017082 -0.050813
0.030960 0.017081 -0.050814
0.030961 0.017079 -0.050814
0.030962 0.017078 -0.050815
0.030963 0.017077 -0.050816
0.030964 0.017076 -0.050817
0.030965 0.017076 -0.050818
0.030966 0.017075 -0.050819
0.030967 0.017074 -0.050820
0.030968 0.017073 -0.050821
0.030969 0.017072 -0.050822
0.030970 0.017071 -0.050823
0.030971 0.017070 -0.050823
0.030972 0.017069 -0.050824
0.030973 0.017068 -0.050825
0.030973 0.017067 -0.050826
0.030974 0.017066 -0.050827
0.030975 0.017065 -0.050828
0.030976 0.017064 -0.050829
0.030977 0.017064 -0.050829
0.030978 0.017063 -0.050830
0.030979 0.017062 -0.050831
0.030979 0.017061 -0.050832
0.030980 0.017060 -0.050833
0.030981 0.017059 -0.050834
0.030982 0.017059 -0.050834
0.030983 0.017058 -0.050835
0.030984 0.017057 -0.050836
0.030984 0.017056 -0.050837
0.030985 0.017056 -0.050838
0.030986 0.017055 -0.050839
0.030987 0.017054 -0.050839
0.030987 0.017053 -0.050840
0.030988 0.017053 -0.050841
0.030989 0.017052 -0.050842
0.030990 0.017051 -0.050842
0.030990 0.017051 -0.050843
0.030991 0.017050 -0.050844
0.030992 0.017049 -0.050845
0.030993 0.017048 -0.050846
0.030993 0.017048 -0.050846
0.030994 0.017047 -0.050847
0.030995 0.017047 -0.050848
0.030995 0.017046 -0.050849
0.030996 0.017045 -0.050849
0.030997 0.017045 -0.050850
0.030998 0.017044 -0.050851
0.030998 0.017043 -0.050852
0.030999 0.017043 -0.050852
0.030999 0.017042 -0.050853
0.031000 0.017042 -0.050854
0.031001 0.017041 -0.050855
0.031001 0.017041 -0.050855
0.031002 0.017040 -0.050856
0.031003 0.017040 -0.050857
0.031003 0.017039 -0.050857
0.031004 0.017039 -0.050858
0.031004 0.017038 -0.050859
0.031005 0.017038 -0.050859
0.031006 0.017037 -0.050860
0.031006 0.017037 -0.050861
0.031007 0.017036 -0.050862
0.031007 0.017036 -0.050862
0.031008 0.017035 -0.050863
0.031009 0.017035 -0.050864
0.031009 0.017034 -0.050864
0.031010 0.017034 -0.050865
0.031010 0.017033 -0.050866
0.031011 0.017033 -0.050866
0.031011 0.017033 -0.050867
0.031012 0.017032 -0.050868
0.031012 0.017032 -0.050868
0.031013 0.017031 -0.050869
0.031013 0.017031 -0.050869
0.031014 0.017031 -0.050870
0.031014 0.017030 -0.050871
0.031015 0.017030 -0.050871
0.031015 0.017030 -0.050872
0.031016 0.017029 -0.050873
0.031016 0.017029 -0.050873
0.031017 0.017029 -0.050874
0.031017 0.017028 -0.050874
0.031017 0.017028 -0.050875
0.031018 0.017028 -0.050876
0.031018 0.017028 -0.050876
0.031019 0.017027 -0.050877
0.031019 0.017027 -0.050877
0.031020 0.017027 -0.050878
0.031020 0.017027 -0.050878
0.031020 0.017026 -0.050879
0.031021 0.017026 -0.050880
0.031021 0.017026 -0.050880
0.031022 0.017026 -0.050881
0.031022 0.017025 -0.050881
0.031022 0.017025 -0.050882
0.031023 0.017025 -0.050882
0.031023 0.017025 -0.050883
0.031023 0.017025 -0.050883
0.031024 0.017025 -0.050884
0.031024 0.017024 -0.050885
0.031024 0.017024 -0.050885
0.031025 0.017024 -0.050886
0.031025 0.017024 -0.050886
0.031025 0.017024 -0.050887
0.031026 0.017024 -0.050887
0.031026 0.017024 -0.050888
0.031026 0.017023 -0.050888
0.031027 0.017023 -0.050889
0.031027 0.017023 -0.050889
0.031027 0.017023 -0.050890
0.031027 0.017023 -0.050890
0.031028 0.017023 -0.050891
0.031028 0.017023 -0.050891
0.031028 0.017023 -0.050891
0.031029 0.017023 -0.050892
0.031029 0.017023 -0.050892
0.031029 0.017023 -0.050893
0.031029 0.017023 -0.050893
0.031029 0.017023 -0.050894
0.031030 0.017023 -0.050894
0.031030 0.017023 -0.050895
0.031030 0.017023 -0.050895
0.031030 0.017023 -0.050895
0.031031 0.017023 -0.050896
0.031031 0.017023 -0.050896
0.031031 0.017023 -0.050897
0.031031 0.017023 -0.050897
0.031031 0.017023 -0.050898
0.031031 0.017023 -0.050898
0.031032 0.017023 -0.050898
0.031032 0.017023 -0.050899
0.031032 0.017023 -0.050899
0.031032 0.017023 -0.050900
0.031032 0.017023 -0.050900
0.031032 0.017024 -0.050900
0.031033 0.017024 -0.050901
0.031033 0.017024 -0.050901
0.031033 0.017024 -0.050901
0.031033 0.017024 -0.050902
0.031033 0.017024 -0.050902
0.031033 0.017024 -0.050902
0.031033 0.017024 -0.050903
0.031033 0.017025 -0.050903
0.031034 0.017025 -0.050904
0.031034 0.017025 -0.050904
0.031034 0.017025 -0.050904
0.031034 0.017025 -0.050905
0.031034 0.017025 -0.050905
0.031034 0.017026 -0.050905
0.031034 0.017026 -0.050905
0.031034 0.017026 -0.050906
0.031034 0.017026 -0.050906
0.031034 0.017027 -0.050906
0.031034 0.017027 -0.050907
0.031034 0.017027 -0.050907
0.031034 0.017027 -0.050907
0.031034 0.017027 -0.050908
0.031034 0.017028 -0.050908
0.031034 0.017028 -0.050908
0.031034 0.017028 -0.050908
0.031034 0.017029 -0.050909
0.031034 0.017029 -0.050909
0.031034 0.017029 -0.050909
0.031034 0.017029 -0.050909
0.031034 0.017030 -0.050910
0.031034 0.017030 -0.050910
0.031034 0.017030 -0.050910
0.031034 0.017031 -0.050910
0.031034 0.017031 -0.050911
0.031034 0.017031 -0.050911
0.031034 0.017032 -0.050911
0.031034 0.017032 -0.050911
0.031034 0.017032 -0.050911
0.031034 0.017033 -0.050912
0.031034 0.017033 -0.050912
0.031034 0.017033 -0.050912
0.031034 0.017034 -0.050912
0.031034 0.017034 -0.050912
0.031034 0.017035 -0.050913
0.031034 0.017035 -0.050913
0.031034 0.017035 -0.050913
0.031033 0.017036 -0.050913
0.031033 0.017036 -0.050913
0.031033 0.017037 -0.050913
0.031033 0.017037 -0.050914
0.031033 0.017037 -0.050914
0.031033 0.017038 -0.050914
0.031033 0.017038 -0.050914
0.031033 0.017039 -0.050914
0.031033 0.017039 -0.050914
0.031032 0.017040 -0.050914
0.031032 0.017040 -0.050915
0.031032 0.017041 -0.050915
0.031032 0.017041 -0.050915
0.031032 0.017042 -0.050915
0.031032 0.017042 -0.050915
0.031032 0.017043 -0.050915
0.031031 0.017043 -0.050915
0.031031 0.017044 -0.050915
0.031031 0.017044 -0.050915
0.031031 0.017045 -0.050915
0.031031 0.017045 -0.050915
0.031031 0.017046 -0.050916
0.031030 0.017046 -0.050916
0.031030 0.017047 -0.050916
0.031030 0.017047 -0.050916
0.031030 0.017048 -0.050916
0.031030 0.017048 -0.050916
0.031029 0.017049 -0.050916
0.031029 0.017049 -0.050916
0.031029 0.017050 -0.050916
0.031029 0.017051 -0.050916
0.031028 0.017051 -0.050916
0.031028 0.017052 -0.050916
0.031028 0.017052 -0.050916
0.031028 0.017053 -0.050916
0.031028 0.017053 -0.050916
0.031027 0.017054 -0.050916
0.031027 0.017055 -0.050916
0.031027 0.017055 -0.050916
0.031027 0.017056 -0.050916
0.031026 0.017057 -0.050916
0.031026 0.017057 -0.050916
0.031026 0.017058 -0.050916
0.031025 0.017058 -0.050916
0.031025 0.017059 -0.050916
0.031025 0.017060 -0.050916
0.031025 0.017060 -0.050916
0.031024 0.017061 -0.050916
0.031024 0.017062 -0.050916
0.031024 0.017062 -0.050916
0.031023 0.017063 -0.050916
0.031023 0.017064 -0.050915
0.031023 0.017064 -0.050915
0.031022 0.017065 -0.050915
0.031022 0.017066 -0.050915
0.031022 0.017066 -0.050915
0.031021 0.017067 -0.050915
0.031021 0.017068 -0.050915
0.031021 0.017069 -0.050915
0.031020 0.017069 -0.050915
0.031020 0.017070 -0.050915
0.031020 0.017071 -0.050914
0.031019 0.017071 -0.050914
0.031019 0.017072 -0.050914
0.031019 0.017073 -0.050914
0.031018 0.017074 -0.050914
0.031018 0.017074 -0.050914
0.031018 0.017075 -0.050914
0.031017 0.017076 -0.050914
0.031017 0.017077 -0.050913
0.031017 0.017077 -0.050913
0.031016 0.017078 -0.050913
0.031016 0.017079 -0.050913
0.031015 0.017080 -0.050913
0.031015 0.017081 -0.050912
0.031015 0.017081 -0.050912
0.031014 0.017082 -0.050912
0.031014 0.017083 -0.050912
0.031013 0.017084 -0.050912
0.031013 0.017085 -0.050911
0.031013 0.017085 -0.050911
0.031012 0.017086 -0.050911
0.031012 0.017087 -0.050911
0.031011 0.017088 -0.050911
0.031011 0.017089 -0.050910
0.031010 0.017089 -0.050910
0.031010 0.017090 -0.050910
0.031010 0.017091 -0.050910
0.031009 0.017092 -0.050909
0.031009 0.017093 -0.050909
0.031008 0.017094 -0.050909
0.031008 0.017094 -0.050909
0.031007 0.017095 -0.050908
0.031007 0.017096 -0.050908
0.031006 0.017097 -0.050908
0.031006 0.017098 -0.050907
0.031005 0.017099 -0.050907
0.031005 0.017100 -0.050907
0.031005 0.017101 -0.050907
0.031004 0.017101 -0.050906
0.031004 0.017102 -0.050906
0.031003 0.017103 -0.050906
0.031003 0.017104 -0.050905
0.031002 0.017105 -0.050905
0.031002 0.017106 -0.050905
0.031001 0.017107 -0.050904
0.031001 0.017108 -0.050904
0.031000 0.017109 -0.050904
0.031000 0.017110 -0.050903
0.030999 0.017110 -0.050903
0.030999 0.017111 -0.050903
0.030998 0.017112 -0.050902
0.030998 0.017113 -0.050902
0.030997 0.017114 -0.050901
0.030996 0.017115 -0.050901
0.030996 0.017116 -0.050901
0.030995 0.017117 -0.050900
0.030995 0.017118 -0.050900
0.030994 0.017119 -0.050899
0.030994 0.017120 -0.050899
0.030993 0.017121 -0.050899
0.030993 0.017122 -0.050898
0.030992 0.017123 -0.050898
0.030992 0.017124 -0.050897
0.030991 0.017125 -0.050897
0.030991 0.017126 -0.050896
0.030990 0.017127 -0.050896
0.030989 0.017127 -0.050896
0.030989 0.017128 -0.050895
0.030988 0.017129 -0.050895
0.030988 0.017130 -0.050894
0.030987 0.017131 -0.050894
0.030987 0.017132 -0.050893
0.030986 0.017133 -0.050893
0.030985 0.017134 -0.050892
0.030985 0.017135 -0.050892
0.030984 0.017136 -0.050891
0.030984 0.017137 -0.050891
0.030983 0.017138 -0.050890
0.030983 0.017139 -0.050890
0.030982 0.017140 -0.050889
0.030981 0.017141 -0.050889
0.030981 0.017142 -0.050888
0.030980 0.017143 -0.050888
0.030980 0.017144 -0.050887
0.030979 0.017146 -0.050887
0.030978 0.017147 -0.050886
0.030978 0.017148 -0.050885
0.030977 0.017149 -0.050885
0.030976 0.017150 -0.050884
0.030976 0.017151 -0.050884
0.030975 0.017152 -0.050883
0.030975 0.017153 -0.050883
0.030974 0.017154 -0.050882
0.030973 0.017155 -0.050881
0.030973 0.017156 -0.050881
0.030972 0.017157 -0.050880
0.030971 0.017158 -0.050880
0.030971 0.017159 -0.050879
0.030970 0.017160 -0.050878
0.030970 0.017161 -0.050878
0.030969 0.017162 -0.050877
0.030968 0.017163 -0.050876
0.030968 0.017164 -0.050876
0.030967 0.017165 -0.050875
0.030966 0.017167 -0.050874
0.030966 0.017168 -0.050874
0.030965 0.017169 -0.050873
0.030964 0.017170 -0.050872
0.030964 0.017171 -0.050872
0.030963 0.017172 -0.050871
0.030962 0.017173 -0.050870
0.030962 0.017174 -0.050870
0.030961 0.017175 -0.050869
0.030960 0.017176 -0.050868
0.030960 0.017177 -0.050868
0.030959 0.017178 -0.050867
0.030958 0.017180 -0.050866
0.030958 0.017181 -0.050865
0.030957 0.017182 -0.050865
0.030956 0.017183 -0.050864
0.030956 0.017184 -0.050863
0.030955 0.017185 -0.050863
0.030954 0.017186 -0.050862
0.030953 0.017187 -0.050861
0.030953 0.017188 -0.050860
0.030952 0.017190 -0.050860
0.030951 0.017191 -0.050859
0.030951 0.017192 -0.050858
0.030950 0.017193 -0.050857
0.030949 0.017194 -0.050856
0.030949 0.017195 -0.050856
0.030948 0.017196 -0.050855
0.030947 0.017197 -0.050854
0.030946 0.017199 -0.050853
0.030946 0.017200 -0.050852
0.030945 0.017201 -0.050852
0.030944 0.017202 -0.050851
0.030944 0.017203 -0.050850
0.030943 0.017204 -0.050849
0.030942 0.017205 -0.050848
0.030941 0.017206 -0.050847
0.030941 0.017208 -0.050846
0.030940 0.017209 -0.050846
0.030939 0.017210 -0.050845
0.030938 0.017211 -0.050844
0.030938 0.017212 -0.050843
0.030937 0.017213 -0.050842
0.030936 0.017214 -0.050841
0.030936 0.017216 -0.050840
0.030935 0.017217 -0.050839
0.030934 0.017218 -0.050839
0.030933 0.017219 -0.050838
0.030933 0.017220 -0.050837
0.030932 0.017221 -0.050836
0.030931 0.017222 -0.050835
0.030930 0.017224 -0.050834
0.030930 0.017225 -0.050833
0.030929 0.017226 -0.050832
0.030928 0.017227 -0.050831
0.030927 0.017228 -0.050830
0.030927 0.017229 -0.050829
0.030926 0.017231 -0.050828
0.030925 0.017232 -0.050827
0.030924 0.017233 -0.050826
0.030924 0.017234 -0.050825
0.030923 0.017235 -0.050824
0.030922 0.017236 -0.050823
0.030921 0.017238 -0.050822
0.030921 0.017239 -0.050821
0.030920 0.017240 -0.050820
0.030919 0.017241 -0.050819
0.030918 0.017242 -0.050818
0.030917 0.017243 -0.050817
0.030917 0.017245 -0.050816
0.030916 0.017246 -0.050815
0.030915 0.017247 -0.050814
0.030914 0.017248 -0.050813
0.030914 0.017249 -0.050812
0.030913 0.017250 -0.050811
0.030912 0.017252 -0.050810
0.030911 0.017253 -0.050809
0.030911 0.017254 -0.050808
0.030910 0.017255 -0.050807
0.030909 0.017256 -0.050806
0.030908 0.017257 -0.050804
0.030907 0.017259 -0.050803
0.030907 0.017260 -0.050802
0.030906 0.017261 -0.050801
0.030905 0.017262 -0.050800
0.030904 0.017263 -0.050799
0.030904 0.017265 -0.050798
0.030903 0.017266 -0.050797
0.030902 0.017267 -0.050795
0.030901 0.017268 -0.050794
0.030900 0.017269 -0.050793
0.030900 0.017270 -0.050792
0.030899 0.017272 -0.050791
0.030898 0.017273 -0.050790
0.030897 0.017274 -0.050788
0.030896 0.017275 -0.050787
0.030896 0.017276 -0.050786
0.030895 0.017277 -0.050785
0.030894 0.017279 -0.050784
0.030893 0.017280 -0.050782
0.030892 0.017281 -0.050781
0.030892 0.017282 -0.050780
0.030891 0.017283 -0.050779
0.030890 0.017285 -0.050778
0.030889 0.017286 -0.050776
0.030888 0.017287 -0.050775
0.030888 0.017288 -0.050774
0.030887 0.017289 -0.050773
0.030886 0.017290 -0.050771
0.030885 0.017292 -0.050770
0.030884 0.017293 -0.050769
0.030884 0.017294 -0.050768
0.030883 0.017295 -0.050766
0.030882 0.017296 -0.050765
0.030881 0.017297 -0.050764
0.030880 0.017299 -0.050762
0.030880 0.017300 -0.050761
0.030879 0.017301 -0.050760
0.030878 0.017302 -0.050758
0.030877 0.017303 -0.050757
0.030876 0.017304 -0.050756
0.030876 0.017306 -0.050754
0.030875 0.017307 -0.050753
0.030874 0.017308 -0.050752
0.030873 0.017309 -0.050750
0.030872 0.017310 -0.050749
0.030871 0.017311 -0.050748
0.030871 0.017313 -0.050746
0.030870 0.017314 -0.050745
0.030869 0.017315 -0.050743
0.030868 0.017316 -0.050742
0.030867 0.017317 -0.050741
0.030867 0.017318 -0.050739
0.030866 0.017320 -0.050738
0.030865 0.017321 -0.050736
0.030864 0.017322 -0.050735
0.030863 0.017323 -0.050734
0.030863 0.017324 -0.050732
0.030862 0.017325 -0.050731
0.030861 0.017327 -0.050729
0.030860 0.017328 -0.050728
0.030859 0.017329 -0.050726
0.030859 0.017330 -0.050725
0.030858 0.017331 -0.050723
0.030857 0.017332 -0.050722
0.030856 0.017334 -0.050720
0.030855 0.017335 -0.050719
0.030854 0.017336 -0.050718
0.030854 0.017337 -0.050716
0.030853 0.017338 -0.050715
0.030852 0.017339 -0.050713
0.030851 0.017340 -0.050711
0.030850 0.017342 -0.050710
0.030850 0.017343 -0.050708
0.030849 0.017344 -0.050707
0.030848 0.017345 -0.050705
0.030847 0.017346 -0.050704
0.030846 0.017347 -0.050702
0.030846 0.017348 -0.050701
0.030845 0.017349 -0.050699
0.030844 0.017351 -0.050698
0.030843 0.017352 -0.050696
0.030842 0.017353 -0.050694
0.030841 0.017354 -0.050693
0.030841 0.017355 -0.050691
0.030840 0.017356 -0.050690
0.030839 0.017357 -0.050688
0.030838 0.017358 -0.050686
0.030837 0.017360 -0.050685
0.030837 0.017361 -0.050683
0.030836 0.017362 -0.050681
0.030835 0.017363 -0.050680
0.030834 0.017364 -0.050678
0.030833 0.017365 -0.050677
0.030833 0.017366 -0.050675
0.030832 0.017367 -0.050673
0.030831 0.017368 -0.050672
0.030830 0.017370 -0.050670
0.030829 0.017371 -0.050668
0.030829 0.017372 -0.050666
0.030828 0.017373 -0.050665
0.030827 0.017374 -0.050663
0.030826 0.017375 -0.050661
0.030825 0.017376 -0.050660
0.030825 0.017377 -0.050658
0.030824 0.017378 -0.050656
0.030823 0.017379 -0.050654
0.030822 0.017380 -0.050653
0.030821 0.017382 -0.050651
0.030821 0.017383 -0.050649
0.030820 0.017384 -0.050647
0.030819 0.017385 -0.050646
0.030818 0.017386 -0.050644
0.030817 0.017387 -0.050642
0.030817 0.017388 -0.050640
0.030816 0.017389 -0.050639
0.030815 0.017390 -0.050637
0.030814 0.017391 -0.050635
0.030813 0.017392 -0.050633
0.030813 0.017393 -0.050631
0.030812 0.017394 -0.050630
0.030811 0.017395 -0.050628
0.030810 0.017396 -0.050626
0.030809 0.017397 -0.050624
0.030809 0.017399 -0.050622
0.030808 0.017400 -0.050620
0.030807 0.017401 -0.050618
0.030806 0.017402 -0.050617
0.030806 0.017403 -0.050615
0.030805 0.017404 -0.050613
0.030804 0.017405 -0.050611
0.030803 0.017406 -0.050609
0.030802 0.017407 -0.050607
0.030802 0.017408 -0.050605
0.030801 0.017409 -0.050603
0.030800 0.017410 -0.050601
0.030799 0.017411 -0.050600
0.030798 0.017412 -0.050598
0.030798 0.017413 -0.050596
0.030797 0.017414 -0.050594
0.030796 0.017415 -0.050592
0.030795 0.017416 -0.050590
0.030795 0.017417 -0.050588
0.030794 0.017418 -0.050586
0.030793 0.017419 -0.050584
0.030792 0.017420 -0.050582
0.030792 0.017421 -0.050580
0.030791 0.017422 -0.050578
0.030790 0.017423 -0.050576
0.030789 0.017424 -0.050574
0.030789 0.017425 -0.050572
0.030788 0.017426 -0.050570
0.030787 0.017427 -0.050568
0.030786 0.017428 -0.050566
0.030786 0.017429 -0.050564
0.030785 0.017430 -0.050562
0.030784 0.017430 -0.050560
0.030783 0.017431 -0.050558
0.030782 0.017432 -0.050556
0.030782 0.017433 -0.050553
0.030781 0.017434 -0.050551
0.030780 0.017435 -0.050549
0.030780 0.017436 -0.050547
0.030779 0.017437 -0.050545
0.030778 0.017438 -0.050543
0.030777 0.017439 -0.050541
0.030777 0.017440 -0.050539
0.030776 0.017441 -0.050537
0.030775 0.017442 -0.050535
0.030774 0.017443 -0.050532
0.030774 0.017443 -0.050530
0.030773 0.017444 -0.050528
0.030772 0.017445 -0.050526
0.030771 0.017446 -0.050524
0.030771 0.017447 -0.050522
0.030770 0.017448 -0.050519
0.030769 0.017449 -0.050517
0.030769 0.017450 -0.050515
0.030768 0.017451 -0.050513
0.030767 0.017451 -0.050511
0.030766 0.017452 -0.050508
0.030766 0.017453 -0.050506
0.030765 0.017454 -0.050504
