# .PCD v0.7 - Point Cloud Data file format
VERSION 0.7
FIELDS x y z
SIZE 4 4 4
TYPE F F F
COUNT 1 1 1
WIDTH 1465
HEIGHT 1
VIEWPOINT 0 0 0 1 0 0 0
POINTS 1465
DATA ascii
-142.82962 -57.137054 -102.00091
-142.80109 -61.098026 -93.954346
-142.23935 -58.312004 -99.273643
-141.83797 -56.139675 -103.96834
-141.82986 -60.056641 -95.55674
-140.98241 -57.512142 -100.7824
-140.84422 -59.084602 -97.493553
-140.3391 -56.590687 -102.70061
-140.24138 -55.34314 -105.49723
-139.89856 -58.186718 -99.036484
-139.77411 -59.803574 -95.732819
-138.88126 -57.100243 -101.04009
-138.81302 -58.843231 -97.30201
-138.73291 -55.762741 -104.2423
-137.85185 -59.924644 -95.003876
-137.81746 -57.863274 -99.249588
-137.6257 -56.346935 -102.53201
-136.82449 -58.808144 -97.010818
-136.5417 -57.024906 -100.77896
-136.38226 -60.454063 -93.708099
-136.36763 -55.600266 -104.02494
-135.82188 -57.81731 -98.964012
-135.35349 -59.34576 -95.707962
-135.29729 -56.342552 -102.23682
-134.54266 -56.983334 -100.49136
-134.3499 -58.363487 -97.654015
-134.02783 -55.56744 -103.74386
-133.47925 -59.698772 -94.866852
-133.30376 -56.343941 -101.92863
-133.07677 -57.567215 -99.160614
-132.47438 -58.728928 -96.805412
-132.05121 -55.660255 -103.39123
-131.49796 -56.924271 -100.60684
-131.4304 -59.539124 -94.997604
-131.207 -57.972351 -98.291649
-130.229 -55.334393 -104.33533
-130.18353 -58.874565 -96.435844
-130.01965 -60.323654 -93.577461
-129.92511 -56.328308 -102.03444
-129.65878 -57.474846 -99.666328
-128.77364 -59.6703 -95.007622
-128.63885 -58.392056 -97.799606
-128.36909 -55.824669 -103.42094
-128.16269 -57.096149 -100.62049
-126.31621 -57.620731 -99.69194
-126.31194 -55.845642 -103.83877
-126.29581 -58.468327 -97.82888
-126.28257 -59.343887 -95.956985
-126.27073 -60.222309 -94.08844
-125.99936 -56.774323 -101.56884
-124.46091 -55.446484 -104.8211
-124.451 -58.98262 -96.906944
-124.43961 -58.015965 -98.826096
-124.43098 -59.816151 -95.056671
-124.42545 -56.228073 -102.97663
-124.13966 -57.254097 -100.66079
-122.64323 -60.547745 -94.03273
-122.6049 -56.880783 -101.98323
-122.57742 -59.494839 -96.351624
-122.57726 -58.588367 -98.241028
-122.57489 -55.963684 -104.26082
-121.95916 -57.925518 -100.03687
-120.80518 -60.297146 -95.292198
-120.76739 -56.67762 -103.23624
-120.74113 -59.265701 -97.605682
-120.45253 -55.878605 -105.10155
-120.4175 -57.537189 -101.36607
-120.07127 -58.405071 -99.496178
-118.96649 -59.944317 -96.238533
-118.84309 -57.033825 -102.75465
-118.6525 -59.163982 -98.07795
-118.59799 -55.517399 -106.06924
-118.50451 -57.927563 -100.86819
-118.26099 -60.706959 -94.439865
-117.53988 -56.268459 -104.26475
-117.02254 -58.439308 -99.567009
-116.99764 -60.081375 -95.863213
-116.83931 -57.07473 -102.42655
-116.66175 -59.227257 -97.738388
-116.218 -55.444527 -105.80772
-115.50734 -56.212414 -103.98413
-115.50393 -60.520168 -94.602798
-115.43046 -57.766186 -100.6675
-115.08506 -58.610622 -98.807976
-114.81378 -59.620007 -96.50708
-114.17784 -55.377003 -105.53297
-114.09596 -56.902 -102.2221
-113.47693 -57.888012 -99.931351
-113.34122 -60.147621 -95.202301
-113.23131 -58.991333 -97.580666
-113.10548 -56.061302 -103.7597
-112.14835 -57.063786 -101.46571
-111.78641 -55.287212 -105.27895
-111.60455 -58.208958 -98.730934
-111.45717 -59.556915 -95.898399
-111.15105 -56.210976 -103.00813
-110.29327 -57.465397 -100.22415
-110.11515 -58.687572 -97.445427
-109.99303 -60.117119 -94.577431
-109.79675 -55.316696 -104.5853
-109.27869 -56.559246 -101.79036
-108.65045 -59.2551 -96.118217
-108.51575 -58.038689 -98.532005
-107.99722 -60.18401 -94.234375
-107.93575 -55.722847 -103.33711
-107.77663 -57.0093 -100.51382
-107.01765 -58.48613 -97.260315
-106.44695 -56.232925 -102.02885
-106.35104 -59.363529 -95.397583
-106.29975 -57.548878 -99.194901
-105.71728 -55.258606 -103.99516
-105.01358 -58.556187 -96.915749
-104.95429 -56.722267 -100.73172
-104.36385 -59.487961 -95.026627
-104.25825 -57.494431 -98.910576
-104.22664 -55.766815 -102.68604
-103.01163 -58.642242 -96.563232
-102.94313 -56.7981 -100.38454
-102.29504 -57.740334 -98.480988
-102.25288 -55.997246 -102.2639
-102.04476 -59.658386 -94.642738
-100.9961 -57.117596 -99.919327
-100.99249 -58.791878 -96.548241
-100.2977 -56.300289 -101.80643
-100.13531 -60.081749 -94.128586
-99.700935 -58.200966 -97.967323
-99.591354 -55.45974 -103.71015
-99.050751 -59.11248 -96.082878
-98.95697 -57.224998 -99.92643
-98.247856 -56.383213 -101.82648
-97.749748 -58.49889 -97.512543
-97.676247 -60.000145 -94.60022
-97.509079 -55.440018 -103.78143
-97.028114 -57.619019 -99.425011
-96.295662 -56.706642 -101.35892
-96.058716 -59.492664 -95.985664
-95.891655 -60.7589 -93.55793
-95.660263 -58.546085 -97.917152
-95.607269 -55.958931 -103.2182
-94.934235 -57.666027 -99.831825
-94.268387 -60.239857 -94.947205
-94.262482 -55.354969 -105.03338
-94.249596 -56.939739 -101.67728
-93.897392 -59.403534 -96.823654
-93.519417 -58.543716 -98.71637
-93.246201 -56.320766 -103.48591
-92.483887 -57.810738 -100.57288
-92.25132 -55.741692 -105.28011
-92.217369 -60.423161 -95.284508
-91.834366 -59.556999 -97.176964
-91.449059 -57.090096 -102.42883
-91.09832 -58.668842 -99.095177
-90.399765 -56.329834 -104.30962
-90.352295 -55.425724 -106.23452
-90.232742 -60.726875 -95.195808
-90.052582 -57.918274 -100.96238
-89.834625 -59.820618 -97.108215
-89.081314 -58.887375 -99.048958
-88.958458 -57.009739 -102.91206
-88.469452 -55.913433 -105.31218
-88.407272 -61.34446 -94.219238
-88.004044 -60.433723 -96.132133
-87.983894 -57.971691 -100.99713
-87.243546 -59.488613 -98.07679
-87.133659 -55.27599 -106.77847
-87.025352 -56.5872 -103.9155
-86.61544 -60.422695 -96.175911
-86.589493 -57.961014 -101.04293
-85.239861 -57.278244 -102.52227
-85.220558 -61.215828 -94.73484
-85.175858 -58.715832 -99.612503
-84.66597 -59.930241 -97.201485
-84.617096 -55.875164 -105.44761
-83.821495 -58.024242 -101.0935
-83.353104 -61.694061 -93.824471
-83.300476 -59.197803 -98.696663
-83.279724 -56.789028 -103.55868
-83.257309 -60.680157 -95.778725
-83.255775 -55.178474 -106.945
-81.93203 -57.65591 -101.69595
-81.893631 -56.013653 -105.09073
-81.866829 -59.870895 -97.308205
-81.660858 -58.610058 -99.764061
-81.375702 -61.120903 -94.885094
-80.537323 -56.857403 -103.23534
-79.995544 -60.358078 -96.390808
-79.927422 -57.84536 -101.29254
-79.901192 -59.364605 -98.343994
-79.784271 -55.994026 -105.16413
-79.504219 -61.593792 -93.976204
-78.557701 -57.144344 -102.7843
-78.487663 -58.510574 -99.90284
-78.077614 -60.689213 -95.548546
-78.013603 -59.807774 -97.446602
-77.755501 -56.130928 -104.78625
-77.516861 -61.80357 -93.562912
-77.117493 -57.814655 -101.38938
-76.584991 -58.916733 -99.021896
-76.370148 -55.402065 -106.30071
-76.297188 -56.751511 -103.41237
-76.190102 -60.338909 -96.135994
-75.627716 -61.44165 -94.153366
-75.187218 -58.142258 -100.5454
-74.890556 -55.960964 -104.95448
-74.794632 -59.56765 -97.651047
-74.368385 -57.098034 -102.55775
-74.18708 -60.523197 -95.734558
-73.724243 -58.726887 -99.193924
-73.588081 -61.497623 -93.813202
-72.990326 -56.412476 -104.04723
-72.914207 -55.50539 -105.98222
-72.898407 -57.670456 -101.20911
-72.771133 -59.69949 -97.274696
-72.14624 -60.590946 -95.388771
-71.688591 -58.832802 -98.830078
-71.516014 -56.978168 -102.69946
-71.059784 -55.992294 -104.68091
-70.861702 -57.787785 -100.83976
-70.738983 -61.329521 -93.96962
-70.708809 -59.712791 -96.9552
-69.62841 -58.867039 -98.50058
-69.594971 -56.592564 -103.31462
-69.387619 -55.404404 -105.76344
-69.301834 -60.459831 -95.529015
-68.956131 -57.448147 -101.43018
-68.217117 -59.608185 -97.07444
-67.942429 -56.072491 -104.36189
-67.637383 -58.37495 -99.535545
-67.395256 -60.850315 -94.656342
-67.284386 -56.86528 -102.50469
-66.313721 -59.274731 -97.657341
-65.993736 -55.629169 -105.00814
-65.946312 -57.733879 -100.63511
-65.714859 -60.228119 -95.737259
-65.358292 -56.490143 -103.11535
-64.604347 -58.579544 -98.779778
-64.455162 -61.305244 -93.781471
-64.054474 -59.683559 -96.783546
-64.027367 -57.381241 -101.2324
-64.005272 -55.198666 -106.02647
-63.373917 -56.069122 -104.12576
-62.784859 -60.731415 -94.838493
-62.617207 -58.870693 -98.325592
-62.149017 -57.903496 -100.2908
-62.044685 -56.966404 -102.23673
-61.962025 -55.355991 -105.6372
-61.713112 -59.961292 -96.345772
-60.714195 -60.869743 -94.830193
-60.651054 -56.315201 -103.7142
-60.640182 -59.19595 -97.854698
-60.197868 -58.320709 -99.775284
-60.062866 -57.300278 -101.76128
-59.297855 -60.140003 -96.328789
-58.904015 -61.567402 -93.809105
-58.655846 -55.894341 -104.7271
-58.456409 -59.136089 -98.318047
-58.177067 -57.80793 -100.82563
-58.069038 -56.879402 -102.77075
-57.461014 -60.766754 -95.340042
-57.23814 -55.196228 -106.2346
-56.65786 -56.201015 -104.26437
-56.615387 -59.76228 -97.32766
-56.454391 -58.686066 -99.335815
-56.183498 -57.396282 -101.82951
-55.187382 -55.355522 -105.84387
-54.77787 -58.161411 -100.38185
-54.731689 -56.605423 -103.37655
-166.69322 -65.151237 -80.067505
-166.64658 -62.213402 -78.586662
-165.98262 -66.366692 -84.112686
-165.89365 -66.656296 -81.157265
-165.64958 -65.318832 -86.732147
-165.19336 -63.588017 -79.404251
-165.11926 -63.470131 -90.454323
-165.08328 -64.520973 -88.539093
-164.62314 -61.691486 -78.513611
-164.5096 -62.572495 -92.676689
-164.45349 -65.412201 -80.350983
-164.2384 -66.937378 -82.477257
-164.21399 -65.946968 -85.411995
-163.34941 -65.302002 -87.152237
-163.33223 -64.112404 -89.486626
-163.21794 -63.322254 -79.215355
-163.08054 -63.277981 -91.310837
-162.78835 -66.614632 -84.074738
-162.6703 -66.730186 -81.197617
-162.49774 -62.42474 -93.157669
-162.11433 -64.816811 -79.970131
-161.92975 -66.01136 -85.792587
-161.60725 -64.946526 -88.072708
-161.35632 -67.238869 -82.759232
-161.34879 -64.093994 -89.902611
-161.24156 -63.069851 -79.019852
-161.08765 -63.228264 -91.74369
-160.71307 -66.435341 -80.672165
-160.18253 -66.696449 -84.453842
-159.89145 -65.811592 -86.645844
-159.80846 -64.539787 -79.794762
-159.63332 -64.97657 -88.464523
-159.57561 -62.550484 -93.176483
-159.4852 -67.390411 -82.026855
-159.36125 -64.072433 -90.320824
-158.95174 -62.89748 -78.794037
-158.71904 -66.088455 -80.523682
-158.20351 -66.681084 -84.863579
-158.16724 -63.35701 -91.760185
-157.8802 -65.653305 -87.125374
-157.6158 -64.80394 -88.953041
-157.52019 -64.374336 -79.567398
-157.5201 -67.433388 -82.406845
-156.52422 -66.621437 -80.682503
-156.34636 -63.844994 -90.863525
-156.34016 -66.898514 -84.099007
-156.07571 -66.182503 -86.21286
-156.04024 -63.022144 -78.800056
-155.79793 -65.28273 -88.062859
-155.71846 -62.833286 -92.788147
-155.3132 -64.870605 -79.743462
-155.26221 -67.417221 -82.113953
-154.58755 -64.515518 -89.522919
-154.31985 -66.707451 -84.591553
-154.30162 -63.587391 -91.396111
-154.04057 -62.71199 -78.629829
-154.00681 -65.769997 -86.812447
-153.922 -66.643509 -80.732056
-153.66222 -62.541611 -93.339584
-153.32675 -64.616737 -79.549507
-153.23567 -67.192642 -82.619751
-152.74683 -64.895638 -88.678391
-152.45508 -63.955978 -90.555756
-152.32037 -66.518738 -84.727928
-151.94188 -66.419884 -80.526093
-151.81786 -63.166721 -78.825569
-151.77768 -62.745102 -92.576538
-151.74342 -65.790062 -86.503815
-151.24254 -67.032738 -82.741058
-150.75053 -64.812531 -79.517136
-150.74669 -64.747925 -88.798744
-150.44864 -63.796394 -90.683167
-150.30212 -66.258476 -84.898087
-150.06104 -67.041542 -80.992149
-149.68015 -65.452148 -87.069244
-149.48639 -62.70483 -92.29776
-149.245 -66.86776 -82.864769
-149.23547 -63.358845 -78.794098
-148.8905 -65.549965 -79.930664
-148.73111 -64.54438 -88.945808
-148.29726 -66.081367 -85.029411
-148.02954 -63.261234 -90.998055
-147.96211 -61.978603 -93.399666
-147.7424 -66.909866 -81.106392
-147.69321 -65.260658 -86.851685
-147.39243 -64.194206 -79.163834
-147.17935 -66.521019 -83.429695
-146.67996 -64.192986 -89.162994
-146.3175 -65.783676 -79.881569
-146.27812 -65.855835 -85.18354
-146.17162 -62.531025 -92.108521
-145.75278 -66.923309 -81.501335
-145.67624 -65.062675 -86.994408
-145.16116 -66.299049 -83.580734
-145.12271 -63.327446 -90.325569
-145.08379 -64.034126 -78.932159
-144.43405 -64.249649 -88.477943
-144.2459 -65.588356 -85.357574
-144.15479 -62.269043 -91.925697
-144.1226 -66.499939 -80.313217
-143.31921 -66.543579 -82.444176
-143.23448 -64.846405 -79.313301
-142.88538 -63.446762 -89.609947
-142.69354 -64.876099 -86.798492
-142.39206 -65.794029 -84.237328
-142.16385 -62.141411 -91.67836
-142.14464 -66.592186 -80.671333
-141.73956 -63.561432 -78.508881
-141.291 -66.30262 -82.603226
-141.07426 -63.884945 -88.375526
-141.01112 -65.337334 -79.494118
-140.86691 -65.221397 -85.610893
-140.86143 -61.108646 -93.2799
-140.42516 -62.807106 -89.972908
-139.81819 -66.494629 -80.769569
-139.77362 -65.769089 -83.955231
-139.61073 -64.390717 -87.101448
-139.48232 -61.910297 -91.497215
-139.01283 -65.128799 -79.278091
-138.80287 -60.833996 -93.464371
-138.65022 -63.417038 -88.65551
-138.52962 -64.999603 -85.413597
-138.31859 -66.167084 -82.379509
-137.68961 -62.456402 -90.207596
-137.52994 -66.3479 -80.177521
-137.50191 -63.80999 -78.48774
-137.33109 -61.341988 -92.181282
-137.29071 -64.269196 -86.857529
-136.78151 -65.574905 -83.759857
-136.2525 -63.096127 -88.866226
-136.09618 -66.328819 -81.644119
-135.75955 -65.351395 -79.248817
-135.5446 -61.92524 -90.872253
-135.47879 -64.696823 -85.628754
-134.84264 -63.84515 -87.474831
-134.75241 -65.392448 -83.892769
-134.55418 -63.947781 -78.489021
-134.49622 -60.735901 -92.902397
-134.2312 -66.374313 -80.240532
-134.12535 -62.64782 -89.489685
-133.69527 -66.081833 -82.170662
-133.43208 -64.461166 -85.78817
-133.146 -61.651428 -91.062897
-132.7827 -63.570194 -87.654434
-132.75038 -65.105133 -79.071541
-132.70851 -65.16275 -84.047882
-132.45758 -60.598045 -93.021271
-132.22717 -66.4189 -80.622467
-131.74013 -62.431862 -89.651733
-131.37912 -64.216751 -85.951973
-131.32013 -65.852081 -82.332184
-131.04436 -61.359596 -91.615654
-130.77122 -63.520493 -87.727974
-130.68016 -65.017776 -84.163643
-130.56291 -65.916733 -79.463242
-129.73685 -62.439533 -89.699379
-129.45872 -66.171852 -81.513878
-129.30586 -64.022614 -86.452286
-129.06013 -64.702629 -78.622459
-129.0356 -61.363792 -91.666275
-128.82787 -65.390709 -83.319336
-128.34528 -63.265896 -88.267624
-128.3187 -66.372437 -79.662369
-128.13269 -60.742939 -93.068008
-127.84839 -64.552132 -85.164871
-127.52597 -62.873379 -89.192551
-126.755 -66.111465 -81.962265
-126.28954 -63.979267 -86.547066
-126.28104 -61.189457 -92.182434
-126.25924 -65.866592 -79.225624
-126.11 -65.292526 -83.787926
-125.6356 -62.217419 -90.269958
-125.61759 -63.056252 -88.43428
-124.94947 -66.552216 -80.728745
-124.82709 -64.489044 -85.267609
-124.4559 -60.833492 -93.123276
-124.44269 -64.887573 -78.639641
-124.25234 -65.65274 -82.948814
-124.195 -63.740902 -87.069832
-123.81607 -62.780888 -89.330566
-123.80499 -61.832279 -91.221428
-123.04243 -66.693512 -79.992523
-122.80272 -64.540222 -85.653091
-122.48802 -66.390289 -81.934082
-122.17351 -65.589058 -83.745476
-122.15853 -63.759537 -87.472588
-122.02197 -62.55397 -90.205978
-121.70631 -61.748119 -92.040779
-121.55973 -65.500046 -78.782204
-121.06042 -66.89402 -80.303848
-120.75471 -64.509918 -86.077553
-120.60074 -63.249886 -88.832512
-120.44993 -66.37616 -82.34713
-120.12182 -65.534546 -84.179283
-120.11914 -61.142517 -93.456917
-119.93474 -62.400276 -90.694038
-119.35631 -66.284637 -79.189423
-119.1514 -63.824638 -87.517693
-118.67755 -66.958549 -81.045502
-118.66692 -61.732212 -92.128616
-118.51411 -64.82872 -85.624725
-118.47908 -62.959984 -89.383675
-118.27834 -65.965591 -83.305878
-117.33587 -66.115662 -78.953651
-117.15113 -63.899086 -87.533356
-116.91559 -62.466709 -90.741631
-116.88017 -66.708946 -81.91938
-116.843 -61.437832 -93.042152
-116.72388 -65.483398 -84.645103
-115.81782 -67.207268 -79.922424
-115.5796 -63.377335 -88.901169
-115.37062 -64.60701 -86.526611
-115.33072 -66.251472 -83.244591
-115.00535 -61.838974 -91.811951
-114.30607 -67.017853 -81.478973
-114.03951 -65.506477 -84.699806
-113.98138 -62.649757 -90.006729
-113.81788 -67.015678 -79.338806
-113.78202 -63.909359 -87.613342
-113.67854 -60.983746 -93.340462
-112.71548 -66.4198 -82.869797
-112.68571 -61.919888 -91.471619
-112.37721 -64.647835 -86.220863
-112.25005 -65.672981 -78.551125
-112.15047 -63.183067 -89.079422
-112.11432 -67.394798 -80.639114
-111.60503 -60.843136 -93.462143
-111.38036 -65.64698 -84.699646
-110.76334 -62.114273 -90.703674
-110.7048 -63.772694 -87.754425
-110.55431 -66.928841 -81.967461
-110.48657 -67.122147 -79.365639
-109.756 -64.8386 -85.835869
-109.68803 -61.076221 -92.674644
-109.50534 -65.977745 -83.871056
-109.35181 -62.844872 -89.308861
-108.77226 -67.476875 -80.679085
-108.71561 -63.814915 -87.422546
-108.67334 -66.271774 -78.717041
-108.35408 -61.992588 -90.823357
-107.91372 -65.306961 -84.941566
-107.81029 -66.867455 -82.42057
-107.37176 -62.939411 -88.952301
-107.30552 -60.958313 -92.428452
-106.86362 -64.261536 -86.536896
-106.85557 -67.515297 -79.627739
-106.34109 -61.978115 -90.518364
-106.19385 -66.111771 -83.528389
-105.96664 -67.309387 -81.540916
-105.70731 -60.317455 -93.502174
-105.48952 -63.287125 -88.111908
-105.47095 -65.034752 -85.127243
-105.08128 -66.833542 -78.900925
-104.41922 -61.403126 -91.566399
-104.37553 -66.660057 -82.597771
-104.15397 -62.473831 -89.615387
-104.11212 -64.126175 -86.668106
-104.08257 -67.600792 -80.731369
-103.36738 -60.392258 -93.163925
-103.33051 -65.660011 -84.16713
-102.81747 -67.326508 -79.086723
-102.74917 -63.218647 -88.213051
-102.50136 -61.645588 -90.773476
-102.34572 -66.66703 -82.642929
-102.27022 -64.61544 -85.761932
-101.45193 -60.778862 -92.667633
-101.4224 -67.767509 -80.716881
-101.29731 -65.671783 -84.211029
-100.95926 -63.911751 -87.209335
-100.84686 -62.733261 -89.215195
-100.75591 -67.093391 -78.879745
-100.43561 -61.709839 -91.16217
-100.0442 -66.930222 -82.576706
-99.977371 -64.93779 -85.669228
-99.410332 -67.841324 -80.730019
-99.022629 -63.310646 -88.264641
-98.979248 -65.894104 -84.164658
-98.751404 -67.197685 -78.87738
-98.746948 -60.909584 -92.678192
-98.608681 -62.290462 -90.208382
-98.055222 -64.388313 -86.697563
-98.013107 -66.953773 -82.614403
-97.397186 -67.921143 -80.740417
-97.087906 -65.454521 -85.138672
-97.004135 -61.805401 -91.572899
-96.980125 -63.458553 -88.611923
-96.430305 -67.393005 -78.840721
-96.149635 -66.611855 -83.540131
-95.990311 -64.450394 -87.083977
-95.645638 -62.719597 -90.084877
-95.581459 -67.742844 -81.586838
-94.993561 -65.405983 -85.575684
-94.653877 -63.706657 -88.555832
-94.535248 -61.689629 -92.05822
-94.520653 -68.205597 -79.594902
-94.279144 -67.106812 -82.99514
-93.681557 -64.75174 -87.002121
-93.591118 -62.851936 -90.441757
-93.288559 -66.86908 -78.428452
-93.213722 -66.236313 -84.87252
-93.003029 -68.131363 -81.10804
-92.97007 -61.379669 -93.344749
-92.620003 -63.906288 -88.879631
-92.283188 -67.282547 -82.962273
-91.859367 -65.444237 -86.362762
-91.837822 -68.224571 -79.287056
-91.70697 -62.508202 -91.383423
-90.992058 -61.691612 -93.251427
-90.981941 -68.213203 -81.118126
-90.978607 -66.665634 -84.366081
-90.76384 -64.493538 -88.289017
-90.270103 -67.041054 -78.417664
-89.986427 -63.465328 -90.249352
-89.773064 -65.458725 -86.77243
-89.589912 -67.418251 -82.964745
-89.490341 -68.476448 -79.586929
-89.200401 -62.4142 -92.22673
-88.855553 -66.544876 -84.837296
-88.631927 -64.368599 -88.766884
-88.202057 -68.165131 -81.567772
-87.993004 -67.54892 -78.598969
-87.808838 -63.198997 -90.796799
-87.732346 -65.521896 -86.794594
-87.446228 -67.227058 -83.467384
-87.030174 -62.190353 -92.756691
-86.775818 -68.653488 -79.930199
-86.67968 -64.631821 -88.32933
-86.600273 -66.108101 -85.822792
-86.582436 -68.353264 -81.157738
-86.428116 -63.19482 -90.835091
-85.243172 -65.359772 -87.297386
-85.126396 -68.739227 -79.567566
-84.786873 -66.708641 -84.862038
-84.720894 -68.085571 -82.049538
-84.719658 -62.442513 -92.333099
-84.622612 -63.856304 -89.840858
-83.387566 -65.829247 -86.396797
-83.382721 -67.40535 -83.484047
-83.270195 -68.612373 -80.754799
-83.26516 -64.738144 -88.367447
-82.899246 -63.065426 -91.35556
-82.666924 -68.174164 -78.796288
-82.006157 -66.61013 -84.976387
-81.635704 -68.09626 -82.118469
-81.626816 -64.117538 -89.430817
-81.503189 -62.228455 -92.887436
-81.434471 -65.301598 -87.421211
-81.016571 -68.864517 -79.967537
-80.56501 -63.244888 -90.966232
-80.293869 -67.425941 -83.549774
-80.061478 -66.113937 -85.98362
-79.764069 -64.584137 -88.529106
-79.678177 -68.324089 -81.697502
-78.908997 -62.594494 -92.049622
-78.697495 -63.707985 -90.064766
-78.686714 -68.989929 -79.601913
-78.43364 -65.541687 -87.020477
-78.347206 -66.928818 -84.55513
-77.751343 -67.888672 -82.670746
-77.336098 -64.571159 -88.597649
-77.104843 -68.674934 -80.871429
-76.967422 -62.945297 -91.569145
-76.884918 -68.246925 -78.532074
-76.60302 -66.103287 -86.075256
-76.392876 -67.192177 -84.117126
-75.681221 -63.938618 -89.66877
-75.491493 -65.099579 -87.666428
-75.463135 -68.179283 -82.228394
-75.239212 -68.970085 -79.690941
-75.068817 -62.546513 -92.174614
-74.745911 -66.576027 -85.17215
-73.836349 -64.476273 -88.732048
-73.654823 -63.246651 -90.780022
-73.651138 -65.639038 -86.73037
-73.607231 -68.63443 -81.336159
-73.50309 -67.668365 -83.239174
-72.501282 -68.919785 -79.414291
-72.433395 -66.817879 -84.752472
-72.186508 -62.247028 -92.392044
-71.967865 -64.935226 -87.832726
-71.790634 -63.732788 -89.866188
-71.656158 -68.161766 -82.327972
-70.742783 -66.09227 -85.861427
-70.686272 -68.999306 -80.510582
-70.333527 -62.782192 -91.453247
-70.246933 -67.345612 -83.832207
-70.101692 -68.623894 -78.51429
-70.055168 -64.506203 -88.448242
-69.33316 -68.363503 -81.926636
-68.947639 -63.566608 -90.017891
-68.837769 -61.723969 -93.096382
-68.835602 -65.679062 -86.466965
-68.689331 -69.130547 -80.133682
-68.173599 -67.375961 -83.868912
-67.961014 -64.500145 -88.504913
-67.479683 -62.604546 -91.612038
-67.246078 -68.34433 -81.985413
-67.027222 -66.322174 -85.481598
-66.684746 -69.243568 -79.764992
-66.389908 -61.743103 -93.153397
-66.249596 -65.340294 -87.05619
-66.238785 -63.721554 -89.647949
-66.07357 -67.333015 -83.940254
-65.278633 -68.587326 -81.556175
-65.123802 -62.787048 -91.21981
-64.913963 -66.253845 -85.565865
-64.833397 -64.433022 -88.24852
-64.091988 -67.547043 -83.524406
-63.951469 -69.376198 -79.768044
-63.747169 -63.596241 -89.771187
-63.221321 -62.44878 -91.798019
-63.218662 -68.668686 -81.568031
-63.21048 -65.545357 -86.670609
-62.444843 -67.00972 -84.544823
-62.12571 -64.720619 -88.184372
-61.924561 -69.436523 -79.423347
-61.544086 -61.854446 -92.861343
-61.518211 -63.335209 -90.320206
-61.477295 -67.962265 -83.030998
-61.263103 -65.890549 -86.192368
-60.910843 -68.946007 -81.130722
-60.377705 -67.098663 -84.554909
-60.183537 -65.093742 -87.692604
-59.759968 -62.620117 -91.809929
-59.632072 -63.894302 -89.73967
-59.514961 -68.243874 -82.58313
-59.507198 -69.495415 -79.452606
-59.282604 -66.257782 -86.072258
-58.325249 -67.240044 -84.540466
-58.142731 -65.290253 -87.653496
-57.967434 -63.353733 -90.774567
-57.101959 -62.28476 -92.779312
-57.039383 -64.442917 -89.182373
-166.70279 -57.460655 -76.136993
-166.45685 -55.530876 -75.235283
-166.3856 -60.094589 -77.432838
-164.87219 -58.481903 -76.776054
-164.65764 -56.738747 -75.792366
-163.75792 -59.958839 -77.548157
-163.47122 -55.160149 -75.102768
-162.89206 -58.233543 -76.573166
-162.33823 -61.528286 -78.282387
-161.68428 -56.440536 -75.628853
-161.47543 -59.832619 -77.298004
-160.57222 -57.937126 -76.39817
-160.02556 -61.244011 -78.106026
-159.48906 -59.569366 -77.103073
-159.09348 -56.582283 -75.615425
-157.99428 -58.138134 -76.358955
-157.77681 -61.426823 -78.070511
-156.89252 -59.666119 -77.11232
-156.81203 -56.650131 -75.629189
-155.79201 -61.188587 -77.865669
-155.41051 -58.326866 -76.325516
-155.31947 -55.268734 -74.852745
-154.30608 -59.834812 -77.089058
-154.2252 -56.848621 -75.590355
-153.1286 -58.403618 -76.336418
-152.54329 -61.316422 -77.87587
-151.90424 -56.636906 -75.374275
-151.3381 -59.645378 -76.879799
-150.33434 -61.858498 -78.031784
-150.12572 -55.640396 -74.785027
-150.11247 -57.889404 -75.915749
-149.09645 -60.052162 -77.097588
-148.31444 -56.810135 -75.366051
-148.01862 -61.661346 -77.814644
-147.60915 -58.762856 -76.285072
-146.52072 -60.327053 -77.026375
-146.28523 -56.34412 -74.900391
-146.17207 -62.498199 -78.185257
-145.58647 -58.439713 -76.114418
-144.65854 -61.10611 -77.424805
-144.07352 -57.068951 -75.332268
-143.73978 -59.308239 -76.47361
-143.57312 -62.662407 -78.166229
-142.64899 -60.849937 -77.226143
-142.55862 -55.708328 -74.540863
-142.22519 -57.945221 -75.689507
-141.13663 -59.503063 -76.438499
-140.80948 -61.739475 -77.57489
-140.6942 -56.5266 -74.925728
-139.731 -63.314014 -78.308701
-139.61916 -58.15099 -75.64859
-139.28468 -60.350731 -76.807793
-138.40451 -56.685078 -74.898849
-138.18715 -61.846149 -77.581749
-137.75217 -58.946434 -76.04287
-136.66197 -60.480858 -76.802841
-136.54233 -57.516747 -75.278069
-135.96071 -62.374027 -77.746353
-135.62033 -55.780163 -74.281998
-135.45679 -59.078686 -76.02932
-134.52928 -57.325901 -75.044792
-134.42535 -60.983387 -76.979408
-133.58562 -55.510017 -74.082184
-133.20802 -59.546425 -76.221771
-133.01422 -62.546215 -77.73085
-132.52908 -57.324638 -75.084114
-131.76199 -60.848259 -76.737915
-131.55843 -55.290382 -73.859215
-131.21634 -63.741817 -78.298141
-131.13481 -58.984959 -75.800026
-130.51562 -57.158768 -74.838844
-129.959 -62.03875 -77.310417
-129.34773 -60.258125 -76.337608
-128.71692 -58.398605 -75.39447
-128.41475 -56.514629 -74.449364
-128.16844 -63.273117 -77.861946
-128.14278 -61.045361 -76.723557
-126.34298 -62.251507 -77.290131
-126.33948 -58.125999 -75.204659
-126.32167 -55.925053 -74.033646
-126.31768 -60.034096 -76.141777
-126.3046 -64.076836 -78.252388
-124.52988 -61.300632 -76.682968
-124.51367 -57.139996 -74.603943
-124.48071 -63.07412 -77.673164
-124.47448 -58.968094 -75.581688
-122.70515 -60.32032 -76.086266
-122.6636 -56.072582 -74.036705
-122.66248 -58.050968 -74.951027
-122.64897 -62.058422 -77.096771
-122.63168 -63.949429 -78.031975
-120.86051 -59.278439 -75.514374
-120.81414 -63.003414 -77.425049
-120.80754 -56.975937 -74.388672
-120.49348 -61.109486 -76.493736
-119.72817 -64.499832 -78.203209
-119.02148 -58.278263 -74.920395
-118.9547 -55.930271 -73.809914
-118.74757 -62.660114 -77.26545
-118.66862 -60.163185 -75.879585
-117.67891 -64.224541 -78.014275
-117.15984 -57.207447 -74.355263
-116.91136 -61.675957 -76.671471
-116.80592 -59.082821 -75.32312
-115.84217 -63.240074 -77.423607
-115.50405 -65.145523 -78.360565
-115.30753 -56.192894 -73.761475
-115.06729 -60.678562 -76.080353
-114.96357 -58.103596 -74.717758
-113.99251 -62.223511 -76.844475
-113.65701 -64.134964 -77.783104
-113.44657 -55.163338 -73.171356
-113.23796 -59.757633 -75.451508
-113.10847 -57.092052 -74.12384
-112.14675 -61.241604 -76.246437
-111.79665 -63.091686 -77.217392
-111.5256 -55.721077 -73.320396
-111.36224 -58.674294 -74.893181
-110.41289 -64.723633 -77.945465
-110.29116 -60.238476 -75.654999
-110.10204 -57.250328 -74.110664
-109.96758 -62.186722 -76.585373
-109.44097 -55.409695 -73.135849
-109.03415 -58.832867 -74.867943
-108.55918 -63.729645 -77.357384
-108.34473 -60.676334 -75.858047
-108.04844 -57.058872 -73.874092
-107.28168 -62.255196 -76.610474
-107.09292 -59.304512 -75.055923
-106.83364 -65.337349 -78.104431
-106.76696 -55.581161 -73.109207
-106.10613 -57.541199 -74.057404
-105.70595 -60.94516 -75.790916
-105.55874 -63.884171 -77.351501
-105.01205 -59.017029 -74.86454
-104.82555 -56.081032 -73.285057
-104.28043 -62.429016 -76.594658
-103.83268 -65.489258 -78.101318
-103.75555 -57.653461 -74.052483
-103.61913 -60.635052 -75.611694
-102.84375 -63.743011 -77.113136
-102.34752 -59.22303 -74.825005
-102.13515 -56.214924 -73.275688
-101.81922 -61.873528 -76.174545
-101.77343 -65.267761 -77.88681
-101.09607 -57.895542 -73.995644
-100.73361 -63.351654 -76.974152
-100.54743 -60.471832 -75.385658
-99.766335 -65.367836 -77.8853
-99.513466 -56.7369 -73.455116
-99.468857 -61.981697 -76.174431
-99.254471 -59.004734 -74.621742
-98.475334 -63.908176 -77.131523
-98.192162 -60.579288 -75.384964
-97.657387 -57.684284 -73.793442
-97.489037 -65.845673 -78.078926
-97.208649 -62.546329 -76.328369
-96.617607 -55.797001 -72.838531
-96.561783 -59.143677 -74.612465
-96.201729 -64.414795 -77.312134
-95.903236 -61.055412 -75.579315
-95.523659 -57.27161 -73.655128
-95.168884 -66.059853 -78.032784
-94.880203 -62.753693 -76.283485
-94.636269 -59.713448 -74.757935
-94.249687 -55.910976 -72.831718
-93.861969 -64.57534 -77.289825
-93.60672 -57.886932 -73.780579
-93.577316 -61.2887 -75.521919
-92.566719 -63.1432 -76.517944
-92.51442 -59.352921 -74.59848
-92.310875 -56.460983 -72.986923
-91.997833 -65.454208 -77.654884
-91.555954 -61.398937 -75.513573
-91.2164 -57.925613 -73.809067
-90.704826 -64.041451 -76.87561
-90.245613 -59.932785 -74.746735
-89.936378 -56.571144 -72.982307
-89.656639 -62.180836 -75.925674
-88.970039 -65.614723 -77.648209
-88.950729 -58.53149 -73.945915
-88.615273 -63.796036 -76.668808
-88.360794 -60.777363 -75.131828
-87.641785 -57.091034 -73.158028
-87.305763 -62.351074 -75.89772
-87.064125 -59.38155 -74.329857
-86.963081 -65.772118 -77.62072
-86.612816 -60.553707 -74.904198
-86.602928 -63.946178 -76.64373
-86.592262 -55.244637 -72.175903
-86.573517 -67.252838 -78.404053
-85.545204 -62.082726 -75.691895
-85.543892 -65.48661 -77.419006
-85.519531 -56.784779 -72.969849
-84.701035 -59.540993 -74.305061
-84.502541 -67.077171 -78.168465
-84.490913 -63.647823 -76.46051
-83.640663 -57.680157 -73.335686
-83.623466 -61.039612 -75.109802
-83.457848 -65.274139 -77.198158
-82.583641 -55.83754 -72.351128
-82.57869 -62.638847 -75.866096
-82.578278 -59.238632 -74.117851
-81.648277 -66.471352 -77.782501
-81.595024 -64.551765 -76.839531
-81.524773 -57.41589 -73.128929
-81.523895 -60.813622 -74.889717
-80.568237 -62.827648 -75.822929
-80.471718 -59.003456 -73.899689
-80.468674 -55.590694 -72.134148
-79.835983 -67.654663 -78.372498
-79.797089 -65.794838 -77.404564
-79.492188 -60.945679 -74.871437
-79.406128 -57.155052 -72.919945
-78.742592 -63.991264 -76.427032
-78.44397 -59.162815 -73.868065
-78.074661 -55.704239 -72.127594
-77.914276 -66.634666 -77.79084
-77.677048 -62.157757 -75.456329
-77.026024 -57.310776 -72.895576
-76.870056 -64.878029 -76.793365
-76.610161 -60.326359 -74.477676
-75.812737 -66.406639 -77.577621
-75.804092 -63.056633 -75.818832
-75.284859 -58.911411 -73.67662
-75.1586 -56.639099 -72.497879
-74.769928 -64.668327 -76.569527
-74.710663 -61.151955 -74.87513
-74.089203 -68.00251 -78.343674
-73.813133 -55.170334 -71.70961
-73.69986 -66.154419 -77.374977
-73.68663 -57.869461 -73.075539
-73.685066 -62.799789 -75.614204
-73.405937 -59.814938 -74.040131
-72.642601 -64.382545 -76.379814
-72.347176 -61.360634 -74.829353
-72.082336 -56.819569 -72.474983
-71.895729 -67.376091 -77.951065
-71.792595 -58.733536 -73.45797
-71.288048 -62.895992 -75.620491
-70.813637 -65.537697 -76.98938
-70.72831 -55.34341 -71.68885
-70.421158 -60.395313 -74.204803
-70.177628 -57.659969 -72.869293
-69.499809 -64.191002 -76.168503
-69.429558 -62.267605 -75.211571
-69.379349 -66.840141 -77.522797
-68.830887 -56.218361 -72.069054
-68.791618 -59.280186 -73.638069
-67.970139 -68.33297 -78.331451
-67.823242 -61.228352 -74.614532
-67.692574 -65.420319 -76.745705
-67.634895 -63.548378 -75.767807
-67.44191 -57.837132 -72.842278
-66.632271 -66.925957 -77.544479
-66.481476 -59.81509 -73.810249
-66.084229 -56.378208 -72.048714
-66.017471 -62.482471 -75.184982
-65.828758 -64.786636 -76.342438
-65.265358 -68.549202 -78.294266
-65.100563 -58.288445 -73.052269
-64.645561 -60.985497 -74.421196
-64.559303 -66.842758 -77.263626
-64.214546 -63.739643 -75.753265
-63.758568 -56.892891 -72.230461
-63.296066 -59.567406 -73.616722
-63.156128 -65.255783 -76.552734
-63.150963 -68.337074 -78.074394
-62.853462 -62.286701 -74.972023
-62.07756 -55.544632 -71.389267
-61.942253 -58.145908 -72.809135
-61.85191 -63.983753 -75.692947
-61.797131 -66.910179 -77.293785
-61.48558 -60.822018 -74.191223
-60.757763 -68.466896 -78.069275
-60.447392 -62.412025 -74.964851
-60.438477 -65.478188 -76.510796
-60.310604 -57.079823 -72.211555
-60.05027 -59.040024 -73.181351
-59.38662 -67.002182 -77.305244
-59.092869 -61.00349 -74.157814
-59.052559 -63.971886 -75.756767
-58.944569 -55.639698 -71.40358
-58.405838 -57.944092 -72.598389
-164.60095 -53.199669 -109.44537
-163.69345 -52.389351 -111.33054
-161.87804 -53.089977 -110.3142
-161.87608 -51.943649 -112.7051
-160.72662 -50.274509 -116.13496
-160.38512 -51.487415 -114.07778
-160.14906 -54.105827 -108.77728
-160.06831 -52.69532 -111.66178
-158.77812 -49.34063 -118.13639
-158.62511 -53.475304 -110.22824
-158.60909 -51.18605 -115.0191
-158.56839 -52.205315 -113.0497
-157.07874 -52.755379 -111.72766
-157.03133 -50.332428 -116.59711
-156.75293 -51.711521 -114.08569
-156.71478 -49.209797 -118.64014
-156.371 -53.753052 -109.7978
-155.1987 -50.994499 -115.59384
-155.05527 -52.781654 -112.14616
-154.90436 -50.003761 -117.56862
-154.38585 -48.134701 -120.73468
-154.32623 -53.662216 -110.27244
-154.11385 -51.909779 -114.07415
-153.30101 -49.082462 -119.18885
-153.1257 -50.821033 -116.1166
-152.80489 -53.11459 -111.68816
-152.37372 -48.194195 -120.77419
-152.11198 -54.156849 -109.73452
-152.10489 -51.925186 -114.13213
-151.89613 -50.096546 -117.62367
-150.89183 -51.283806 -115.59328
-150.74007 -52.967487 -112.1935
-150.65617 -49.339394 -119.15115
-150.03957 -53.962692 -110.26101
-149.64426 -50.492558 -117.13349
-149.49182 -52.162018 -113.73272
-148.81732 -53.282333 -111.73354
-148.56963 -54.584587 -108.90472
-148.55699 -51.385456 -115.62045
-148.38438 -49.66082 -118.69824
-147.57788 -52.536713 -113.24264
-147.30777 -50.609814 -117.15376
-147.00943 -53.902641 -110.38621
-146.6221 -51.678452 -115.17077
-146.52933 -49.117565 -119.77287
-145.7691 -53.167423 -111.88759
-145.42978 -49.958344 -118.28023
-145.19601 -54.488228 -109.0571
-145.13 -52.227867 -113.84251
-144.79395 -51.255501 -116.17892
-144.20554 -49.343109 -119.74046
-143.96324 -53.801247 -110.5322
-143.68376 -52.983219 -112.41298
-143.50023 -50.312298 -117.79928
-143.3116 -51.856884 -114.82262
-142.32037 -48.708431 -120.86461
-142.02458 -53.933537 -109.79389
-141.83389 -52.470875 -113.46165
-141.75024 -51.254021 -116.28105
-141.64937 -49.831093 -118.84251
-141.05949 -53.081623 -111.71238
-140.38573 -49.071323 -120.3786
-140.28532 -51.935356 -114.88382
-140.11116 -54.065086 -108.6875
-139.88675 -50.721851 -117.34758
-139.39668 -48.148949 -122.36321
-139.18463 -52.478832 -112.80548
-139.16394 -53.31192 -110.55527
-138.60725 -49.900749 -118.91156
-138.46237 -51.592155 -115.85342
-138.02802 -53.797653 -108.88233
-137.90425 -48.745995 -120.99862
-137.5078 -50.713024 -117.43201
-137.35396 -52.10173 -113.78889
-137.27411 -52.656307 -111.67281
-136.48676 -49.670483 -119.47025
-136.15723 -53.231113 -109.95265
-136.12053 -51.6236 -115.54523
-136.03342 -48.249008 -122.05756
-135.45392 -50.654968 -117.52998
-135.42642 -52.215435 -112.68641
-134.63116 -53.604488 -108.71371
-134.61591 -49.177078 -120.52499
-134.29008 -52.705925 -111.00531
-134.20943 -51.824947 -114.39775
-133.92876 -48.134312 -122.56211
-133.59474 -50.210541 -118.55672
-133.56918 -51.111771 -116.62469
-133.03621 -52.158211 -112.79158
-132.7794 -53.155952 -109.72665
-132.57484 -49.216831 -120.57572
-132.13631 -51.807095 -114.84522
-131.89059 -48.207561 -122.59711
-131.71567 -50.703018 -117.6323
-131.22153 -52.65155 -111.12926
-130.97057 -52.172577 -113.22152
-130.69626 -49.730541 -119.63899
-130.32059 -51.565895 -115.76638
-130.12294 -53.293869 -109.37372
-130.02916 -48.81258 -121.61246
-129.74783 -48.085068 -123.4827
-129.6739 -50.736256 -117.6849
-129.17679 -52.636753 -111.20146
-128.96481 -52.33707 -113.20605
-128.66531 -49.829933 -119.65942
-128.39355 -51.961399 -115.26417
-128.14223 -48.321175 -122.67223
-128.13809 -51.235775 -116.74551
-128.12459 -53.471844 -109.34961
-128.12354 -49.221592 -120.72743
-126.65163 -52.654305 -113.12576
-126.32565 -48.152008 -123.57068
-126.32265 -53.293789 -110.23199
-126.26338 -50.785015 -117.77624
-126.25991 -49.80785 -119.7531
-126.25249 -51.698254 -115.83653
-125.92497 -48.879864 -121.72229
-124.80856 -52.452526 -114.39822
-124.80305 -53.007881 -111.52998
-124.49502 -53.841995 -108.91376
-124.38337 -51.28244 -116.8486
-124.37504 -50.299389 -118.82701
-124.33714 -48.356949 -123.16346
-124.02746 -49.333214 -120.8139
-123.29803 -52.919605 -113.10483
-122.96253 -53.510384 -110.23259
-122.94217 -52.051922 -115.40066
-122.4945 -50.805645 -117.89378
-122.4176 -48.732224 -122.29357
-122.15887 -49.9044 -119.84646
-121.46623 -52.666885 -114.03145
-121.4406 -53.239075 -111.5248
-121.0527 -51.57729 -116.44241
-120.77649 -54.114281 -109.26761
-120.59792 -48.587555 -123.18077
-120.33138 -50.516281 -118.48398
-120.24751 -49.371483 -120.92627
-119.59524 -53.061012 -112.78465
-119.57389 -52.186634 -115.07391
-119.49377 -53.433788 -110.75041
-118.91068 -51.374504 -116.9874
-118.79395 -54.274876 -108.88173
-118.66031 -48.897377 -122.34337
-118.44044 -50.076191 -119.5149
-117.75671 -52.80817 -113.71204
-117.66871 -53.228409 -111.65101
-117.4325 -51.989662 -115.61469
-117.17314 -49.506603 -120.966
-117.02409 -50.954926 -118.00585
-116.59962 -53.8368 -109.53365
-116.53766 -48.829685 -122.82781
-115.82796 -53.098114 -112.88899
-115.69502 -50.144558 -119.57552
-115.54305 -51.562988 -116.63456
-115.18727 -52.404057 -114.73983
-115.01987 -49.318497 -121.51014
-114.97453 -53.197342 -111.00951
-114.24291 -50.876289 -118.13932
-113.86404 -53.756279 -109.28792
-113.74313 -53.017506 -112.99633
-113.56885 -51.821545 -116.19976
-113.52804 -49.903854 -120.14481
-113.43877 -48.912804 -122.896
-112.8485 -52.953297 -111.19627
-112.22663 -50.98502 -117.77982
-112.13992 -52.500374 -114.42033
-111.88496 -49.261005 -121.64854
-111.5377 -50.130951 -119.72568
-111.02943 -52.821831 -112.06306
-110.84355 -51.850822 -115.90294
-110.56184 -53.076649 -110.09337
-110.15911 -51.023594 -117.83099
-110.09185 -52.471516 -114.12891
-110.06071 -49.16518 -122.51316
-109.46169 -50.15258 -119.78663
-108.95828 -52.578556 -111.50322
-108.80912 -51.890255 -115.57758
-108.15228 -51.18425 -117.44501
-108.14533 -49.461349 -121.30354
-108.07949 -52.467319 -113.45045
-107.85535 -53.040234 -109.45226
-107.44773 -50.301159 -119.40671
-106.87862 -52.436554 -111.26608
-106.74602 -51.828629 -115.30241
-106.25434 -49.133049 -122.28677
-106.04684 -51.098404 -117.55874
-106.03835 -52.483158 -113.13592
-105.80281 -52.997936 -109.16479
-105.51941 -49.826115 -120.46111
-104.82497 -52.404774 -110.97392
-104.70157 -51.848953 -114.98611
-104.21576 -49.21751 -121.93941
-104.11774 -50.623291 -118.61008
-103.98006 -52.443184 -112.84882
-103.35565 -51.195885 -116.85129
-102.97693 -52.786613 -109.35542
-102.81359 -50.017738 -120.08334
-102.65504 -51.869774 -114.66911
-102.36241 -52.395756 -111.42991
-102.13789 -49.28495 -121.97898
-101.75305 -50.779457 -118.23779
-101.14327 -52.347595 -113.36174
-101.09538 -51.610981 -115.9725
-100.82006 -52.628139 -109.87271
-100.71658 -50.010735 -120.15952
-100.06814 -49.393284 -121.99796
-99.95649 -52.614388 -111.77398
-99.773643 -51.079369 -117.78117
-99.577103 -52.070435 -114.67236
-98.786728 -52.817905 -109.84446
-98.724876 -50.280109 -119.7181
-98.257179 -51.553787 -116.47111
-98.105782 -52.574905 -112.97537
-98.026604 -49.491768 -121.64304
-97.236282 -50.866364 -118.34908
-96.937141 -52.662045 -110.72581
-96.821266 -52.194107 -114.70287
-96.536209 -50.080914 -120.26981
-96.191933 -53.260098 -108.96488
-96.106911 -52.788483 -112.56143
-95.865051 -51.748062 -116.456
-95.146126 -50.903427 -118.40228
-94.950623 -53.039867 -110.60516
-94.87381 -52.605682 -114.19036
-94.604004 -49.681702 -121.29082
-93.905228 -52.126106 -115.95997
-93.801819 -53.283203 -112.39478
-93.553223 -53.79258 -108.78946
-93.215355 -50.510235 -119.41725
-92.560814 -51.443104 -117.47046
-92.52903 -52.970428 -114.08897
-92.487206 -49.653294 -121.37907
-92.305061 -53.561237 -110.43592
-91.415916 -53.49614 -112.36818
-91.210785 -50.754707 -118.98792
-91.11982 -52.185547 -116.02415
-90.49118 -49.942005 -120.9273
-90.459618 -53.078201 -114.10449
-90.340515 -53.781723 -109.64299
-89.74884 -51.430275 -117.57243
-89.440819 -53.687897 -111.5892
-89.122917 -52.443497 -115.58813
-88.979904 -50.453339 -119.59171
-88.80471 -49.21246 -122.10643
-88.426796 -53.20195 -113.73548
-88.2528 -53.81929 -109.69064
-87.735222 -51.644283 -117.15829
-87.362602 -53.768826 -111.61673
-87.339806 -49.893581 -120.68279
-87.111259 -52.653912 -115.17572
-86.614082 -50.68375 -119.18134
-86.581726 -53.974197 -109.29388
-86.542931 -52.146454 -116.1973
-85.166588 -51.408356 -117.73928
-84.746758 -53.58506 -112.9176
-84.727165 -53.868038 -110.15323
-84.662056 -52.697235 -115.23621
-84.622337 -50.144852 -120.27402
-83.888344 -49.20425 -121.90421
-83.265808 -51.062641 -118.35274
-83.196831 -53.927212 -111.67426
-83.00351 -52.088535 -116.34501
-82.818443 -54.177181 -108.93927
-82.814934 -53.236774 -113.90355
-82.468735 -50.037914 -120.40195
-81.946915 -48.749283 -122.57891
-81.361313 -51.551483 -117.42043
-81.30114 -53.708172 -112.59422
-81.227913 -53.917549 -110.24049
-81.109451 -52.601318 -115.40214
-80.553749 -50.505898 -119.47848
-79.986526 -48.246475 -123.27914
-79.786423 -49.479603 -121.15182
-79.653648 -53.274784 -113.98948
-79.435875 -51.96838 -116.52449
-79.392487 -54.031502 -111.37067
-78.63517 -50.959648 -118.56237
-78.146034 -53.966419 -109.56355
-78.012405 -48.540585 -122.44105
-77.78553 -53.74292 -112.69209
-77.764442 -49.723404 -120.72169
-77.668472 -52.787983 -115.04817
-77.179329 -51.648907 -117.13626
-76.725357 -50.628864 -119.17055
-76.620384 -54.074074 -111.06315
-76.080338 -48.283543 -123.39964
-75.827423 -53.354115 -113.70007
-75.745499 -52.403103 -115.67908
-75.722946 -48.971367 -121.54609
-75.269226 -51.319897 -117.7419
-74.98877 -54.028053 -109.63348
-74.795563 -50.247269 -119.80559
-74.770279 -54.043587 -111.89058
-73.973816 -48.151554 -122.77692
-73.836868 -52.876595 -114.75477
-73.352119 -50.982643 -118.35296
-73.15123 -54.043854 -110.43648
-72.927437 -49.036388 -121.23087
-72.823013 -53.707584 -112.8717
-72.724968 -51.929672 -116.39149
-71.815308 -48.105003 -122.87634
-71.64418 -50.303013 -119.50696
-71.414513 -52.955376 -114.41871
-71.276627 -54.073357 -111.61247
-71.164703 -54.001888 -109.01444
-71.064827 -51.403286 -117.46475
-70.356735 -48.80862 -121.43353
-69.745567 -52.402416 -115.50202
-69.641792 -53.744881 -112.95776
-69.638596 -48.134502 -123.32088
-69.595734 -50.479496 -119.11011
-69.294914 -53.932999 -109.85988
-68.643112 -51.516331 -117.11193
-68.326088 -49.06176 -120.99769
-68.115479 -54.177933 -111.66397
-67.941017 -53.096573 -114.08655
-67.550461 -50.671429 -118.70533
-67.289772 -53.964199 -108.77773
-67.239616 -48.244289 -122.58669
-66.847122 -52.248569 -115.67468
-66.323814 -49.408688 -120.51427
-66.148834 -53.822876 -112.65633
-66.094414 -54.165733 -110.60301
-65.740143 -51.368187 -117.28321
-65.136215 -48.282413 -122.25941
-65.044312 -52.950893 -114.25365
-64.642899 -50.5284 -118.87582
-64.443214 -53.95681 -108.87053
-64.238693 -54.170162 -111.41563
-64.073906 -49.098808 -120.74574
-63.949383 -52.119164 -115.83533
-63.129581 -53.41766 -113.33129
-62.862202 -51.320385 -117.40454
-62.61322 -49.906311 -119.63387
-62.577335 -53.935322 -109.69434
-62.351116 -48.448158 -121.89262
-62.035824 -52.600819 -114.9041
-61.67598 -54.084263 -111.91855
-60.905888 -51.680607 -116.53295
-60.725594 -50.494797 -118.64566
-60.605927 -53.348 -113.44835
-60.531624 -49.141285 -120.46565
-60.089516 -54.332932 -110.71437
-59.48167 -52.453236 -115.06153
-59.458183 -48.414051 -122.01106
-58.977776 -51.388737 -117.12209
-58.673233 -53.763851 -112.55103
-58.658314 -49.784096 -119.44874
-57.99934 -54.376995 -110.38184
-57.569405 -52.943058 -114.12579
-57.418316 -48.553528 -121.2471
-57.063198 -51.884258 -116.1819
-56.819096 -50.526859 -118.38209
-56.604652 -53.887108 -112.17953
-55.665264 -49.449718 -119.7168
-55.621124 -52.598331 -114.73899
-55.540997 -54.397594 -110.07206
-55.199505 -48.397888 -121.40152
-55.114197 -51.548954 -116.79323
-54.454029 -53.890507 -112.24786
-53.808983 -50.146172 -118.67245
-53.666847 -52.249382 -115.35538
-53.411324 -54.339142 -109.78959
-53.270832 -48.160717 -121.97013
-52.848621 -51.237511 -117.02271
-52.724648 -53.255646 -113.37318
-52.296864 -49.100922 -120.00502
-51.135914 -48.159225 -121.66154
-164.88486 -54.22924 -107.4782
-162.76657 -53.782906 -108.48874
-162.08095 -54.919308 -106.50111
-157.92883 -54.533787 -108.2729
-155.38231 -54.997257 -107.76126
-153.34891 -54.950806 -108.21183
-151.01939 -54.987247 -108.26641
-143.26598 -54.643452 -108.30827
-141.36183 -54.801247 -107.19062
-138.98343 -54.5802 -107.00384
-137.46953 -54.985882 -105.7534
-136.2225 -54.299828 -107.2241
-135.12831 -54.95343 -105.47297
-133.51694 -54.173702 -107.00032
-132.78476 -54.924984 -105.1901
-131.68668 -53.820217 -107.96361
-130.93462 -54.481335 -106.19469
-129.38928 -54.033653 -107.56253
-128.66934 -54.82235 -105.7309
-128.13275 -54.346619 -107.08115
-126.34826 -55.055489 -105.68854
-126.05834 -54.32016 -107.52617
-124.11582 -54.616409 -107.07375
-122.58386 -54.282242 -108.3902
-122.20162 -55.032055 -106.56247
-120.39231 -54.849548 -107.44437
-117.3025 -54.794502 -107.5664
-115.172 -54.493732 -107.77792
-113.18993 -54.551167 -107.07095
-111.89331 -53.874516 -108.55022
-110.79172 -54.455143 -106.8205
-109.44876 -53.618023 -108.3792
-108.72504 -54.324505 -106.57613
-107.20959 -54.750072 -105.30537
-106.8619 -53.911453 -107.20336
-104.99557 -54.320312 -105.94968
-104.27689 -53.401428 -107.90068
-103.5004 -54.822899 -104.64064
-102.79723 -53.972725 -106.55518
-101.52824 -55.075207 -104.2077
-101.50167 -53.381504 -107.99588
-100.83171 -54.262737 -106.10354
-99.45784 -53.519207 -107.99243
-98.89904 -54.677261 -105.59106
-97.560783 -53.956196 -107.09497
-96.155434 -54.790485 -105.61949
-95.130608 -54.088276 -107.47836
-93.247643 -54.700928 -106.86789
-91.684479 -54.463753 -108.14952
-89.024368 -54.805309 -107.69382
-85.153671 -54.723106 -107.85371
-81.13131 -55.110348 -107.0433
-80.089951 -54.336357 -108.573
-78.640862 -55.00724 -107.17005
-76.634651 -54.434921 -108.25825
-74.719025 -54.851269 -107.36644
-73.061722 -54.294891 -108.43741
-71.220062 -54.837532 -107.10598
-68.953545 -54.501129 -107.71394
-67.490051 -55.120583 -106.33329
-65.824371 -54.582523 -107.39555
-62.599636 -54.505672 -107.53233
-60.620731 -54.137825 -108.52553
-60.016155 -55.086655 -106.57884
-58.557125 -54.257202 -108.15488
-56.411018 -54.253658 -108.2234
-54.332985 -54.343651 -107.86678
-167.50148 -50.880985 -73.025192
-167.31364 -46.59338 -70.644989
-167.28113 -48.945351 -71.749771
-167.13928 -53.198292 -74.134659
-166.98042 -41.233685 -67.98381
-166.97446 -43.75116 -69.036896
-165.82794 -45.168934 -69.864349
-165.66475 -51.810146 -73.356888
-165.49329 -39.82642 -67.180397
-165.48276 -42.431515 -68.559319
-165.47583 -47.680882 -71.266769
-165.44652 -50.025539 -72.371941
-165.29094 -54.044247 -74.50193
-164.04015 -44.037895 -69.312874
-164.00305 -41.0774 -67.73558
-163.99176 -46.282196 -70.477097
-163.81125 -52.646469 -73.729782
-163.66449 -48.90369 -71.828201
-163.57498 -50.783615 -72.780975
-162.86945 -42.579163 -68.533401
-162.22151 -45.259789 -69.880135
-162.21361 -39.981579 -67.158264
-162.18721 -47.556801 -71.018196
-162.01146 -53.883293 -74.27887
-161.82562 -49.850407 -72.154877
-161.774 -52.032421 -73.327324
-161.10413 -41.615993 -67.901878
-161.01273 -43.493698 -68.879547
-160.40633 -46.49041 -70.442757
-160.321 -48.376236 -71.40255
-160.19786 -55.038616 -74.863686
-160.00832 -51.024845 -72.736282
-159.96577 -53.233711 -73.894035
-159.92442 -40.144756 -67.119385
-159.5309 -44.756313 -69.426102
-159.21829 -42.391617 -68.30957
-158.54166 -47.333305 -70.818054
-158.50784 -49.589775 -71.969322
-158.21815 -54.856651 -74.626541
-158.20972 -52.288177 -73.277466
-158.04495 -40.970627 -67.506676
-157.64203 -45.493099 -69.849258
-157.39261 -43.598492 -68.887589
-156.72037 -48.517117 -71.400032
-156.69868 -50.813999 -72.530418
-156.43559 -53.784962 -74.069351
