# .PCD v0.7 - Point Cloud Data file format
VERSION 0.7
FIELDS x y z
SIZE 4 4 4
TYPE F F F
COUNT 1 1 1
WIDTH 1506
HEIGHT 1
VIEWPOINT 0 0 0 1 0 0 0
POINTS 1506
DATA ascii
-60.198559 -40.304459 -32.93454
-59.745865 -39.656651 -25.609814
-59.227993 -40.221073 -28.636129
-58.505596 -39.566963 -23.843554
-58.453781 -40.722591 -30.608294
-58.261826 -40.848961 -32.72686
-58.057228 -40.350716 -26.785042
-57.275932 -40.831215 -28.763559
-56.831387 -40.306149 -25.000986
-56.465569 -41.22496 -30.777761
-56.307495 -41.460705 -32.854721
-56.088696 -40.907932 -26.932253
-55.547031 -40.079704 -23.285698
-55.307121 -41.391834 -28.910152
-54.822998 -40.740482 -25.194263
-54.483055 -41.747704 -30.939522
-54.184135 -39.612625 -21.659889
-54.057987 -41.276684 -27.151325
-53.497116 -40.38858 -23.525457
-53.270851 -41.748096 -29.135105
-52.700058 -40.829582 -25.51827
-52.411392 -42.002205 -31.205141
-52.170406 -39.794811 -21.226931
-51.852871 -41.121235 -27.570436
-51.396812 -40.309437 -23.191286
-50.761307 -40.054893 -25.087963
-50.433098 -39.664391 -27.040657
-50.216846 -39.922886 -20.094894
-49.438828 -40.427383 -22.062901
-48.788528 -39.55423 -25.635668
-48.194221 -40.086658 -19.667982
-48.147621 -40.213543 -23.58156
-47.44519 -40.682026 -21.602852
-46.76516 -39.735592 -25.203367
-46.189777 -40.189053 -18.903969
-45.829548 -40.564739 -23.084604
-45.45393 -40.827065 -20.823471
-45.059086 -39.931755 -25.127102
-44.815441 -40.54892 -19.485359
-43.656368 -40.543583 -23.44931
-43.090439 -41.042698 -20.376419
-42.601376 -40.009659 -25.094452
-41.865265 -41.170162 -22.12789
-41.519493 -39.573345 -30.336466
-41.430641 -40.766853 -18.67321
-41.031189 -40.059078 -26.522455
-40.864834 -40.924114 -24.023909
-40.378128 -39.796627 -28.435326
-40.354698 -41.454777 -20.575462
-39.749405 -39.973225 -31.274948
-39.48867 -41.724884 -22.636658
-39.385899 -40.768127 -17.945229
-39.2826 -40.94112 -25.46228
-38.624184 -40.242168 -29.354717
-38.331547 -41.522022 -19.823706
-38.235756 -40.576477 -27.411879
-37.849876 -40.793823 -31.324766
-37.784706 -41.391968 -24.204544
-37.526783 -41.97411 -21.81708
-36.82851 -41.236816 -28.974634
-36.766663 -41.116272 -26.118176
-36.627033 -41.247414 -18.478363
-36.220028 -42.264519 -30.760048
-35.929291 -42.009014 -20.356649
-35.89254 -41.850777 -23.30549
-35.375977 -41.823513 -27.661764
-35.194721 -43.120613 -32.611977
-34.877213 -41.59034 -25.212175
-34.835648 -43.042793 -29.372559
-34.406471 -42.208477 -21.722502
-34.228176 -41.749744 -19.005127
-33.840115 -43.980724 -31.190941
-33.481129 -42.646065 -27.71064
-33.388691 -41.946075 -23.627359
-32.777161 -41.950176 -25.798967
-32.728325 -44.470657 -32.82037
-32.602901 -43.915989 -29.401775
-32.485302 -42.219479 -19.907749
-31.925045 -42.368671 -22.018614
-31.509533 -43.251068 -27.842596
-31.257668 -44.754883 -30.895611
-31.245605 -42.185162 -24.258516
-31.132378 -41.823582 -18.245659
-30.365948 -42.398945 -20.196257
-30.170015 -42.780136 -25.844849
-29.901876 -44.358456 -29.23403
-29.872299 -42.740509 -22.236795
-29.181841 -45.070244 -31.14036
-28.821995 -43.736595 -27.657543
-28.704653 -43.077618 -23.918322
-28.69352 -42.232883 -18.807831
-28.29994 -42.855396 -20.743397
-27.873959 -44.809971 -29.425488
-27.475676 -43.249897 -25.664879
-27.131346 -43.192902 -22.423647
-27.114477 -45.415096 -31.374022
-26.773338 -44.134178 -27.869122
-26.594412 -42.722378 -19.703749
-25.821066 -43.144855 -24.252022
-25.77343 -45.066441 -29.692427
-25.299665 -43.541981 -26.642252
-25.139265 -43.261406 -21.307829
-24.870287 -42.541733 -18.680864
-24.69902 -45.795116 -31.595129
-24.033754 -44.85194 -28.685808
-23.875994 -43.349331 -23.084215
-23.574793 -43.250233 -25.299171
-23.428602 -43.12204 -20.269808
-22.995045 -45.681187 -30.550262
-22.860283 -43.98587 -27.199799
-22.801542 -45.879822 -32.658916
-22.071001 -42.728989 -18.602318
-21.9624 -43.267693 -23.838148
-21.954046 -43.49678 -21.575178
-21.621992 -45.251324 -28.898043
-21.068911 -43.640434 -26.2402
-20.88508 -45.927727 -30.822424
-20.302727 -43.163975 -19.521463
-20.023153 -43.494843 -22.660532
-19.785954 -44.787598 -27.985476
-19.657118 -46.132935 -32.567841
-19.350302 -43.376144 -24.884655
-19.163288 -45.774067 -29.791607
-18.490871 -43.48711 -20.48345
-18.278271 -44.124863 -26.782963
-17.926489 -43.663303 -22.593756
-17.678284 -46.139828 -31.110394
-17.503164 -43.009399 -18.483553
-17.380384 -45.461075 -28.821205
-17.28371 -43.632313 -24.785902
-16.411369 -43.581635 -20.080269
-16.220053 -44.648357 -27.311735
-16.136843 -46.361301 -32.487297
-15.928595 -43.979778 -22.108105
-15.634861 -46.098423 -30.035727
-15.353197 -44.134064 -24.230295
-15.020103 -43.112034 -18.43751
-14.539643 -45.462627 -28.458557
-14.466784 -44.423691 -26.304413
-14.280725 -43.78809 -20.360785
-14.152227 -46.481174 -31.349678
-13.808493 -44.218021 -22.378345
-13.269629 -44.474232 -24.463627
-12.918976 -43.159138 -18.050404
-12.786462 -45.241631 -27.450359
-12.776934 -46.062241 -29.688789
-12.170832 -43.815125 -19.982319
-11.706715 -44.270061 -21.991627
-11.658857 -46.581413 -31.315748
-11.480717 -44.886379 -25.398766
-11.02216 -45.841957 -28.680561
-10.427266 -43.619717 -18.960621
-10.232364 -44.681328 -23.290014
-10.012512 -44.205868 -20.921431
-9.9856138 -45.246758 -26.719601
-9.9231224 -46.414253 -30.287378
-9.3661947 -46.635189 -32.396774
-8.8659735 -45.888386 -28.664753
-8.6465073 -44.808445 -24.69783
-8.4806566 -44.471844 -22.274233
-8.2710819 -43.539116 -18.620808
-7.7898798 -46.523819 -30.248421
-7.7711148 -45.14539 -26.758633
-7.1575141 -44.074272 -20.236679
-6.8808389 -44.569057 -23.692997
-6.7322459 -46.000275 -28.623713
-6.5791731 -46.816208 -31.966831
-6.11694 -43.592583 -18.594366
-6.00913 -44.523258 -21.88656
-5.9415159 -44.625122 -25.49576
-5.261909 -46.560944 -30.238058
-5.2251019 -45.377914 -27.401155
-4.7207661 -44.617577 -23.672367
-4.6816058 -44.23859 -20.169405
-4.6604352 -46.80098 -32.71006
-3.8436687 -44.960529 -25.732864
-3.6375189 -43.751019 -18.527918
-3.513098 -44.642143 -21.83758
-3.4764609 -46.162251 -28.930359
-3.4208 -46.746571 -30.901712
-2.384763 -45.558372 -27.333202
-2.2221048 -44.86002 -23.943209
-2.15555 -44.40551 -20.465401
-1.69146 -46.616333 -29.856049
-1.507268 -46.877354 -31.954519
-1.2898051 -44.94878 -25.73662
-0.93356299 -44.680946 -22.183561
-0.61182702 -46.046513 -28.245356
-0.356581 -44.096592 -19.482826
0.013921 -44.734188 -23.988827
0.157287 -46.915615 -30.842937
0.555516 -45.258202 -26.716681
0.79096198 -44.564041 -21.129322
1.12712 -46.92104 -32.678032
1.4365228 -43.807171 -18.491642
1.5098532 -46.580208 -29.141388
1.9711078 -44.644863 -24.752804
2.3804741 -44.722256 -22.528236
2.529444 -44.415565 -20.086065
2.6664381 -45.823814 -27.600199
2.692045 -46.971207 -30.826202
3.7276521 -46.518719 -29.16782
3.8245139 -45.066425 -26.057102
4.0194306 -44.764694 -23.973593
4.0200448 -47.004368 -32.652939
4.0918832 -44.646297 -21.457403
4.3625798 -44.035484 -19.127949
4.8502374 -45.851444 -27.590839
4.8951449 -46.951916 -30.837749
5.7006769 -44.769505 -22.871651
5.8453612 -44.469772 -20.423477
5.9351592 -44.916363 -25.013805
6.2300529 -46.977283 -32.669189
6.2337341 -46.658813 -29.116882
7.0248189 -45.789047 -27.248871
7.3970919 -44.738892 -21.782595
7.4172401 -47.059399 -30.800972
7.5789609 -44.224102 -19.048723
7.6237969 -44.90815 -23.916094
8.4197416 -46.694305 -29.105919
8.4359903 -46.969009 -32.678082
8.5024443 -45.279408 -25.975477
9.099721 -44.573895 -20.377172
9.2956457 -44.821041 -22.481066
9.5881395 -45.924778 -27.565462
9.6217699 -47.055103 -30.806791
10.139506 -43.996159 -18.395014
10.270537 -44.840176 -24.306379
10.633957 -46.668839 -29.118456
10.659052 -46.927582 -32.69989
11.04576 -44.545826 -21.115929
11.118369 -45.293705 -26.337255
11.828417 -47.054558 -30.811226
11.989591 -44.766033 -23.231691
12.010489 -44.274139 -19.384026
12.122008 -46.1432 -27.850971
12.824967 -47.033604 -32.664219
12.915163 -45.035088 -25.332794
13.219042 -44.62468 -21.082144
13.570323 -46.808861 -29.436327
13.81819 -43.985607 -18.387833
13.962704 -44.567429 -23.671839
13.998635 -45.69434 -26.920218
14.484708 -46.990021 -31.209955
14.97682 -44.460407 -20.039883
15.255505 -44.725147 -25.449747
15.413996 -46.444092 -28.474312
15.681149 -44.382042 -22.270033
16.57588 -46.919945 -30.134865
16.655834 -45.514881 -26.989613
16.732088 -44.239834 -24.160814
17.167267 -44.268871 -19.372541
17.528839 -47.018051 -31.943693
17.640987 -46.415478 -28.48745
17.805782 -44.353737 -21.542242
18.233622 -44.792126 -25.791693
18.835634 -46.819763 -30.177332
18.848305 -44.238876 -23.42296
18.986166 -43.847012 -18.056854
19.183306 -45.779465 -27.257944
19.464424 -44.316387 -20.083214
20.412184 -44.527069 -24.785898
20.461941 -44.312897 -21.920685
20.632904 -46.460102 -28.842272
20.790302 -46.818905 -30.919785
21.078581 -45.432541 -26.653658
21.214808 -43.821411 -18.059364
21.476713 -46.684349 -32.822708
21.703136 -44.270519 -20.09514
22.01396 -44.631996 -23.270823
22.534168 -46.590485 -29.533051
22.844946 -45.151112 -25.28528
22.850355 -45.989315 -27.548515
23.170263 -46.699959 -31.710379
23.276903 -44.540066 -21.46233
23.474138 -43.853668 -18.407742
24.196924 -44.852345 -23.553789
24.767229 -46.333572 -28.895653
24.787216 -45.435734 -26.653124
25.034605 -44.159298 -19.760838
25.255882 -44.372478 -21.890232
25.360279 -46.549324 -31.033073
25.963081 -44.442703 -24.445255
26.673323 -45.859268 -27.970387
26.992449 -44.046158 -20.166651
27.06706 -43.862125 -22.817297
27.138346 -46.375118 -29.992798
27.203854 -44.762474 -26.170923
27.857323 -46.183983 -31.921032
27.951954 -43.677967 -18.091518
28.431581 -43.776791 -24.325905
28.607338 -45.936501 -28.682568
28.754772 -43.777168 -21.369884
29.409859 -45.074551 -26.792048
29.578379 -46.027702 -30.501511
29.585392 -43.829514 -19.504061
30.191881 -43.530087 -22.938034
30.659494 -45.871319 -32.42012
30.679983 -43.997265 -24.98073
30.907654 -45.549427 -28.09235
30.960789 -43.72522 -21.015831
31.416061 -43.4179 -18.177326
31.832706 -45.752769 -29.869246
32.116894 -44.738014 -26.550524
32.150501 -43.563816 -23.662794
32.593796 -45.480526 -31.832769
32.666885 -43.725422 -19.904108
33.299007 -45.209953 -28.224421
33.37738 -43.566444 -21.809872
33.774513 -43.882092 -25.393379
34.268948 -45.318024 -30.0403
34.431549 -43.351284 -18.192604
34.44503 -44.924782 -32.796829
34.809013 -43.351337 -23.369434
34.906021 -44.47364 -27.022676
34.965885 -43.717686 -20.270937
35.79237 -43.431789 -25.192205
35.871956 -44.595299 -28.833683
36.23484 -44.509338 -31.099455
36.418686 -43.20813 -18.609108
36.564915 -43.00724 -21.643692
37.041637 -42.541611 -23.67207
37.165863 -43.361526 -26.704132
38.065639 -42.171539 -24.553467
38.117607 -43.122646 -19.745737
38.257248 -42.575306 -21.802502
38.331158 -42.308624 -26.732975
39.322598 -41.675148 -31.82589
39.655689 -41.393112 -28.199808
39.749348 -42.123913 -23.083059
39.93483 -42.766502 -18.39259
39.984619 -41.487858 -25.554672
40.244328 -42.806561 -20.599367
40.461834 -41.046013 -30.200239
41.530888 -40.928181 -26.884542
41.580585 -41.642193 -24.005701
41.839005 -42.953281 -19.058138
41.886448 -40.888042 -31.759239
42.071808 -42.453682 -21.840879
42.266197 -40.744724 -28.821709
43.076889 -41.198883 -25.289057
43.559921 -42.840885 -20.207758
43.576611 -41.990475 -23.127563
43.699574 -40.573112 -30.384844
43.741623 -42.540092 -18.094202
44.015179 -40.569172 -27.393879
44.434597 -40.398842 -32.326611
45.100357 -40.780701 -25.072414
45.150143 -42.071255 -21.234707
45.220673 -40.069115 -29.081081
45.44128 -42.481522 -19.223524
45.810223 -41.105621 -23.084553
46.074986 -39.956753 -26.878378
46.259884 -40.065147 -30.957161
47.085716 -40.332291 -24.492966
47.138248 -41.73061 -20.985764
47.343418 -42.203762 -18.578606
47.467133 -39.889061 -28.401245
48.05698 -40.658997 -31.856581
48.069241 -41.00909 -22.744177
48.230598 -39.97551 -26.121912
48.897781 -40.576206 -29.638397
49.09927 -42.037846 -19.750147
49.244503 -40.587265 -24.394142
49.702885 -40.569538 -27.392902
49.793285 -41.724915 -31.07308
50.049381 -41.404949 -21.846264
50.551037 -41.684032 -18.389679
50.552464 -41.939373 -29.117352
50.70792 -41.199039 -25.656744
50.779732 -43.376423 -31.937231
51.057884 -41.47485 -23.683788
51.526081 -41.824535 -20.195469
51.622902 -43.404919 -30.053989
51.844933 -42.76458 -27.305283
52.367001 -42.541977 -25.146854
52.471767 -42.032837 -21.979029
-45.512524 -39.553947 -16.978676
-42.833649 -40.123417 -17.117191
-40.837818 -39.538883 -14.446098
-40.778522 -40.088993 -16.40169
-38.785286 -39.879223 -14.670752
-37.712124 -40.578926 -16.567972
-37.070026 -39.690842 -13.651569
-35.668446 -40.351631 -15.202136
-34.949753 -41.054039 -17.101915
-34.681271 -39.85677 -13.218294
-33.616737 -40.709839 -15.421237
-32.870731 -41.337402 -17.349583
-32.609264 -39.797886 -12.508186
-31.905506 -40.546509 -14.39205
-30.905367 -39.656979 -11.469303
-30.816008 -41.093384 -15.988564
-30.184277 -40.358345 -13.370868
-29.077126 -41.58292 -16.883265
-28.824184 -39.94521 -11.712138
-28.781988 -41.032665 -14.919581
-27.421072 -40.619953 -13.260524
-27.002445 -41.414845 -15.853616
-26.972485 -42.055073 -17.784113
-26.7274 -39.955803 -11.33515
-25.668274 -41.079666 -14.165688
-25.256001 -41.894085 -16.753183
-24.99135 -40.463287 -12.222185
-23.88835 -41.470093 -15.097076
-23.608324 -39.99667 -10.579727
-23.227531 -40.899502 -13.13596
-23.158592 -42.157738 -17.009064
-21.842615 -40.43111 -11.493582
-21.801092 -41.524036 -14.706203
-21.499578 -39.750614 -9.5725574
-21.033497 -42.112293 -16.655878
-20.416235 -41.059135 -13.062536
-19.73246 -40.308228 -10.803076
-19.677578 -41.727707 -14.983016
-19.378813 -39.599564 -8.890563
-19.272657 -42.569675 -17.565847
-18.323463 -40.988209 -12.35407
-17.90453 -42.155811 -15.903193
-17.63208 -40.098316 -9.7819948
-17.231535 -41.55677 -13.948714
-16.552338 -40.700695 -11.363759
-16.127668 -42.579247 -16.826298
-15.494447 -40.036659 -9.4284163
-15.460975 -41.998688 -14.864006
-15.143146 -41.387856 -12.91409
-14.100307 -40.766182 -10.963408
-14.013753 -42.587845 -16.452419
-13.35255 -41.782173 -13.846777
-13.017761 -40.161564 -9.3664589
-12.312055 -41.169521 -11.891915
-12.258098 -42.354874 -15.443376
-11.265447 -40.663139 -10.259148
-11.231366 -41.78059 -13.474341
-11.182384 -42.979671 -17.022234
-10.558055 -39.97913 -8.3297548
-10.186622 -41.280506 -11.839217
-10.135927 -42.35524 -15.071212
-9.12642 -40.741859 -10.216941
-9.08883 -41.851059 -13.437561
-9.0362186 -42.921108 -16.672712
-8.4016924 -40.014961 -8.301281
-8.0358343 -41.332787 -11.807762
-7.9956341 -42.435993 -15.031913
-7.0036082 -40.870174 -10.156863
-6.9541268 -41.949776 -13.390525
-6.881671 -42.969791 -16.646479
-6.2499952 -39.950569 -7.9465585
-5.8825421 -41.386806 -11.775585
-5.5019188 -42.548431 -14.979402
-4.8539538 -40.695202 -9.4808893
-4.7488618 -43.203075 -16.915756
-4.45123 -42.042191 -13.343816
-4.1065302 -39.915012 -7.581018
-3.747 -41.252834 -11.085884
-3.3929951 -41.880531 -12.670977
-3.390264 -39.578007 -6.6087379
-3.3474109 -42.609264 -14.947385
-3.3144259 -43.250065 -16.893042
-2.3210509 -40.356148 -8.4974794
-1.6274391 -41.529091 -11.336061
-1.5965821 -42.416912 -13.919109
-1.530555 -42.974155 -15.896406
-1.477432 -43.56459 -17.862095
-0.53359997 -40.797695 -9.4149323
-0.52105403 -40.041363 -7.5089149
0.203316 -41.983963 -12.613759
0.241955 -42.731964 -14.886132
0.31190899 -43.28083 -16.868191
1.263672 -39.769707 -6.5036678
1.276328 -41.188362 -10.35181
1.282491 -40.447548 -8.4390211
2.0232849 -42.351757 -13.561272
2.0875871 -43.036617 -15.858583
2.747896 -41.63855 -11.634077
3.0666151 -40.182796 -7.4313011
3.0830109 -40.867138 -9.3655863
3.199506 -43.598129 -17.469439
3.8902669 -42.608318 -14.550797
4.545836 -42.070065 -12.558901
4.897737 -41.256729 -10.304159
4.9066091 -40.508961 -8.3911238
4.9097362 -39.775681 -6.47264
4.99334 -43.195869 -16.152679
6.0322018 -42.613934 -14.174273
6.1166439 -43.735435 -17.773678
6.3777881 -41.696262 -11.592093
6.7187519 -40.911327 -9.3252411
6.729969 -40.157879 -7.412694
7.144413 -43.182968 -15.783998
7.8438315 -42.296059 -13.187842
8.179698 -39.708847 -6.1068668
8.5196753 -41.588509 -10.889846
8.543335 -40.562447 -8.3460855
8.6459045 -43.577366 -17.093143
8.9757109 -42.820351 -14.814589
10.006171 -42.022251 -12.18202
10.017526 -40.05825 -7.0594912
10.37169 -41.178322 -9.9333429
10.447248 -43.293098 -16.09523
11.139754 -42.668022 -14.130177
11.817611 -40.626724 -8.2997246
11.819956 -39.773586 -6.054543
11.843062 -41.654152 -11.210793
11.960839 -43.668026 -17.413548
12.621786 -43.120911 -15.418798
12.920808 -42.318348 -12.788342
13.282276 -41.122543 -9.5697746
13.663169 -40.242336 -7.3304038
14.392 -41.711819 -11.174726
14.458866 -42.640434 -14.124589
14.496905 -43.396786 -16.406967
15.452401 -41.21122 -9.5235043
15.489202 -39.911457 -6.3406229
15.86305 -42.199097 -12.450727
16.005722 -43.795395 -17.718912
16.305786 -42.990124 -15.085395
16.577896 -40.556007 -7.9261351
16.994471 -41.531029 -10.859303
17.363661 -39.590622 -5.7102442
17.755272 -42.32309 -13.126989
17.838453 -43.336758 -16.416409
18.10684 -40.910255 -9.2490749
18.806356 -40.274715 -7.28019
18.913189 -42.807934 -14.774623
19.199278 -41.550976 -10.838686
19.975424 -42.189453 -12.798156
20.061825 -43.318275 -16.41477
20.267454 -40.918182 -8.8660221
20.327707 -39.683708 -6.0181899
21.120903 -42.830109 -14.75664
21.402245 -41.583862 -10.813443
21.805592 -40.170448 -7.2949581
22.215584 -42.137783 -12.805226
22.29188 -43.292774 -16.415749
22.541229 -40.90831 -9.2199345
23.383417 -42.6101 -14.46032
23.657017 -41.502773 -10.829178
23.663696 -39.788773 -6.3197289
24.3962 -40.536285 -8.2426529
24.477896 -42.043686 -12.8276
24.532547 -43.129757 -16.099987
25.551828 -41.041496 -9.884737
25.629692 -42.559277 -14.468618
25.711729 -43.582378 -17.766191
25.885759 -40.035503 -6.9463248
26.305368 -41.743111 -11.826455
26.7589 -43.130333 -16.091026
27.005024 -40.628922 -8.5573425
27.481945 -42.204937 -13.487576
27.79966 -41.236763 -10.53345
28.14665 -39.958092 -6.9567361
28.677418 -42.626751 -15.165366
28.941994 -41.781464 -12.164921
29.28199 -40.51902 -8.5809155
29.831629 -43.147285 -16.808975
30.072517 -41.141106 -10.554019
30.168049 -42.135876 -13.867243
30.437817 -39.82053 -6.988389
31.235146 -41.644291 -12.202198
31.328932 -42.644489 -15.515545
31.544838 -40.451309 -8.5894394
32.334167 -41.080303 -10.562039
32.419617 -42.100582 -13.869271
32.684101 -39.795589 -6.980165
32.86755 -43.024136 -16.843405
33.521111 -41.533222 -12.230025
33.833183 -40.335171 -8.6152372
33.993694 -42.401726 -15.225119
34.63361 -40.942287 -10.597749
35.050201 -41.939812 -13.546809
35.334518 -39.831329 -7.3146758
35.557144 -42.733231 -16.572079
36.161503 -40.381084 -9.3184586
36.176918 -41.319675 -11.924609
36.656948 -42.175621 -14.92771
37.298054 -39.740273 -7.7004938
37.680958 -40.816254 -10.624492
37.764126 -41.602997 -13.287427
37.837559 -42.655342 -16.592176
38.189198 -42.21999 -15.273831
39.63253 -40.762585 -11.000656
39.685215 -41.740757 -13.965688
39.999676 -39.92775 -8.7186232
40.158863 -42.373489 -16.317669
41.208775 -41.081619 -12.351913
41.525623 -40.359749 -10.027866
41.694408 -41.567471 -14.388972
42.131134 -42.285973 -16.712351
43.075081 -39.768353 -8.7544575
43.12764 -40.626842 -11.398066
43.606354 -41.252861 -13.755244
44.062653 -41.808247 -15.770119
44.639248 -40.124725 -10.092615
45.106716 -40.655502 -12.11554
45.574291 -41.309444 -14.465219
45.661098 -42.095051 -17.140291
46.605244 -39.698967 -9.4940529
47.044418 -40.294914 -11.49528
47.170746 -41.604942 -15.831926
47.526505 -40.797703 -13.531596
48.590137 -39.605782 -9.8843374
48.841328 -41.744812 -17.25819
49.049805 -40.159641 -11.903001
49.189049 -40.955181 -14.949111
50.693989 -40.484154 -13.629914
50.810024 -41.209949 -16.333672
51.8806 -39.762524 -12.030837
52.38612 -40.466927 -14.741895
52.523438 -41.148998 -17.465109
53.975178 -39.82233 -13.483048
-58.438065 -38.878674 -52.455284
-58.154732 -39.358139 -49.694332
-57.977955 -38.293526 -55.273712
-56.677742 -38.180294 -57.176048
-56.665974 -39.256882 -53.417858
-56.363514 -37.194462 -60.916065
-56.06963 -38.009796 -59.099506
-56.022526 -38.974125 -55.379841
-55.094772 -38.303928 -62.317863
-54.701591 -38.805218 -57.306026
-54.227829 -38.201202 -60.149216
-53.574207 -39.491055 -62.948307
-52.905823 -39.136253 -58.29493
-52.404789 -38.459389 -61.172562
-50.403187 -39.026741 -61.32859
-38.981964 -39.298237 -48.756348
-59.234051 -38.93726 -45.10165
-58.423008 -39.344772 -47.135563
-46.681892 -39.211704 -34.10598
-45.447464 -39.320515 -35.887051
-44.890045 -39.173012 -34.124367
-44.8353 -39.410973 -38.40704
-43.104061 -39.485714 -41.309456
-43.084087 -39.464596 -35.107754
-42.845444 -39.48988 -37.287182
-42.479416 -39.429321 -43.533596
-41.55698 -39.432472 -45.373077
-40.612499 -39.376431 -47.240131
-40.351685 -39.488842 -43.521179
-62.882744 -36.698536 -18.10437
-62.187916 -37.441952 -19.978252
-61.723679 -39.134937 -25.449789
-61.172485 -38.281178 -21.816315
-60.890144 -37.168198 -18.281384
-60.469509 -39.001358 -23.700434
-59.863331 -37.973045 -20.132097
-59.192451 -38.79464 -21.978399
-57.896194 -38.287628 -19.649759
-57.218987 -39.332306 -22.131733
-55.890938 -38.969559 -20.46707
-54.88504 -38.155098 -17.892607
-53.855907 -38.961018 -19.745224
-51.844463 -39.030121 -18.99395
-49.739487 -39.240425 -29.010557
-49.555969 -39.333553 -18.154558
-49.49015 -39.21328 -31.195429
-47.987442 -38.814529 -27.723898
-47.652821 -38.536396 -30.00494
-47.542107 -38.931496 -32.031651
-46.092369 -38.69455 -28.493559
-45.818794 -38.727077 -31.021925
-45.115807 -39.409775 -26.409822
-45.055397 -38.935944 -32.032604
-43.969818 -39.291351 -26.815842
-43.53138 -39.085636 -30.159145
-43.027882 -39.378338 -32.228176
-42.3615 -39.227032 -28.289806
-63.485138 -31.545279 -5.66008
-63.086033 -30.660849 -3.825845
-62.902428 -33.375641 -9.2906675
-62.590614 -34.828934 -12.698364
-62.199856 -32.643242 -7.402494
-61.909409 -36.22036 -16.125654
-61.574043 -34.212997 -10.767789
-61.451324 -31.764477 -5.5638518
-61.260624 -35.660774 -14.17781
-61.072437 -30.94754 -3.7051871
-60.873913 -33.490288 -8.8764353
-60.256115 -35.085026 -12.232979
-60.151676 -32.697918 -7.0081172
-59.924816 -36.475502 -15.664019
-59.566753 -34.3978 -10.329315
-59.427982 -31.901844 -5.1393142
-59.041023 -31.061844 -3.287555
-58.926231 -35.920208 -13.71189
-58.920197 -37.471687 -17.802687
-58.842087 -33.599983 -8.4635448
-58.243942 -35.256821 -11.799819
-58.134804 -32.858116 -6.5763369
-57.943882 -36.987415 -15.825078
-57.537868 -34.519924 -9.9129066
-57.428406 -32.120052 -4.6863608
-57.113297 -31.508039 -2.755141
-56.903492 -36.062298 -13.290101
-56.898014 -37.736286 -17.696615
-56.847855 -33.833939 -8.0065069
-56.224438 -35.411221 -11.372568
-56.189774 -33.248585 -6.0637388
-55.889004 -37.031944 -15.439821
-55.554123 -34.788128 -9.4442654
-55.535069 -32.673874 -4.1166482
-54.914814 -34.261803 -7.4809408
-54.90773 -36.535126 -13.464876
-54.26878 -33.714859 -5.524518
-54.266022 -35.760052 -10.875627
-53.88932 -37.373604 -15.304614
-53.621822 -35.21899 -8.9177465
-53.608097 -33.122551 -3.5834701
-52.980366 -34.686317 -6.9565129
-52.951653 -36.892151 -12.96537
-52.859444 -38.178661 -17.157396
-52.302876 -36.216736 -10.69776
-52.286602 -33.993328 -5.0508952
-51.918003 -37.685753 -14.821656
-51.666725 -35.701153 -8.7304363
-51.580845 -33.264004 -3.1565621
-50.992954 -35.070839 -6.8032031
-50.961861 -37.027718 -12.187256
-50.894733 -38.513126 -16.666704
-50.319794 -36.494678 -10.225831
-50.296768 -34.372662 -4.8987861
-49.954746 -37.9048 -14.013928
-49.646008 -35.865925 -8.2980404
-49.595364 -33.659126 -2.9984348
-48.977188 -37.303349 -11.716626
-48.976444 -35.249866 -6.36483
-48.908562 -38.664536 -15.883876
-48.335052 -36.770969 -9.7543201
-48.273796 -34.5345 -4.465436
-47.945038 -38.106907 -13.570374
-47.636772 -36.069775 -7.8514581
-47.55632 -39.447025 -17.386063
-46.975254 -37.530582 -11.263126
-46.950386 -35.405083 -5.9344749
-46.915211 -38.918701 -15.422065
-46.318981 -36.956539 -9.3149443
-46.249519 -34.697311 -4.0314322
-45.95372 -38.368435 -13.105119
-45.638855 -36.312267 -7.391048
-44.948357 -37.325909 -9.889163
-44.935791 -38.012043 -11.793137
-44.933922 -35.835361 -6.1224208
-44.918304 -38.683624 -13.702359
-44.88657 -34.969765 -4.2803712
-44.880913 -39.296406 -15.633034
-43.166428 -34.752499 -3.266726
-42.923641 -37.494678 -9.4555836
-42.909393 -38.89946 -13.25351
-42.907024 -38.169018 -11.364631
-42.905422 -36.71722 -7.5828691
-42.889709 -35.946716 -5.70717
-42.865891 -39.494644 -15.191284
-41.166584 -35.725433 -4.6955252
-41.110435 -34.835941 -2.8592899
-40.882507 -37.378895 -8.4062166
-40.878986 -38.212711 -10.617867
-40.852673 -36.56789 -6.544138
-40.852428 -38.858261 -12.538253
-39.160675 -37.889236 -9.2867632
-39.133114 -36.362179 -5.5271602
-39.083893 -35.494453 -3.6828239
-38.821106 -39.259895 -12.739767
-38.80603 -37.166 -7.3900628
-37.802307 -38.669792 -10.791553
-37.116806 -37.896935 -8.5511303
-37.080048 -36.585045 -5.4301882
-36.058689 -39.125317 -11.69376
-35.724751 -37.378601 -6.9307241
-35.660458 -35.987411 -3.8353601
-35.390732 -38.404972 -9.4335966
-34.317818 -36.820839 -5.322485
-34.034954 -39.199394 -10.93513
-33.686123 -38.134476 -8.0811138
-33.582352 -36.02927 -3.4422491
-32.610676 -37.510902 -6.499104
-32.298698 -38.963036 -9.9301739
-31.897198 -36.784714 -4.5958161
-31.491186 -35.92009 -2.7427211
-31.239672 -38.388824 -8.3310032
-30.527836 -37.669121 -6.4255848
-29.78896 -36.874069 -4.5452008
-29.524284 -39.182911 -9.8319368
-29.155222 -38.425743 -7.9424129
-28.441118 -37.702293 -6.037004
-27.703176 -36.912998 -4.1531401
-27.447567 -39.247257 -9.4345016
-27.054832 -38.42535 -7.5666642
-26.346876 -37.721634 -5.6527958
-25.615753 -36.954365 -3.7597809
-25.359304 -39.28566 -9.045929
-24.976381 -38.49284 -7.166369
-24.25753 -37.761448 -5.2609081
-23.494987 -36.910526 -3.395654
-23.248747 -39.26955 -8.6762648
-22.866161 -38.479439 -6.79424
-22.118315 -37.671333 -4.9141598
-21.135344 -39.012066 -7.6715622
-21.064116 -37.128719 -3.295908
-20.396746 -38.231838 -5.7812409
-19.30821 -37.598812 -4.194366
-18.682867 -38.937508 -6.9580488
-17.573698 -38.252151 -5.3896298
-16.913708 -39.377552 -7.869535
-16.857653 -37.53754 -3.472708
-15.842178 -38.797176 -6.2637458
-15.100994 -38.017429 -4.3691139
-14.437172 -39.496922 -7.808239
-13.692431 -38.709858 -5.9161272
-12.942857 -37.911564 -4.0262208
-12.306461 -39.465343 -7.4420462
-11.574498 -38.715656 -5.5352311
-10.453106 -38.013554 -3.9676671
-9.8038912 -39.173279 -6.4422002
-8.6973104 -38.513714 -4.859365
-7.9447713 -37.714859 -2.965585
-7.321022 -39.305317 -6.3752179
-6.553864 -38.470207 -4.4943552
-5.431427 -37.77655 -2.920105
-5.1748791 -39.258709 -6.0124302
-4.0552669 -38.57523 -4.4352212
-3.298701 -37.893486 -2.858804
-1.557346 -39.175976 -5.649838
-1.52549 -38.36932 -3.761029
0.261195 -38.815937 -4.67451
0.304959 -37.979492 -2.7943671
2.0898719 -38.436275 -3.704514
3.1372719 -39.280067 -5.5738869
4.6088281 -38.76844 -4.2904449
6.397428 -39.228268 -5.2017498
6.4271722 -38.428398 -3.304671
8.219986 -38.883694 -4.2178011
10.063087 -39.219933 -5.1738262
10.078229 -38.456367 -3.2611642
11.874997 -38.912479 -4.1753149
13.688834 -39.332634 -5.1032619
13.72843 -38.509697 -3.2087481
15.541886 -38.936111 -4.134583
17.416748 -38.614998 -3.5021937
19.229155 -39.055275 -4.4248071
21.081367 -38.679043 -3.4462948
22.171118 -39.332066 -5.031929
23.35467 -38.55209 -3.4703858
24.838709 -39.032749 -4.7497826
25.952188 -38.423782 -3.1262679
26.996983 -39.433838 -5.321198
28.167412 -38.695717 -3.7420371
29.31358 -39.231308 -5.3739181
30.461075 -38.55159 -3.772367
31.570486 -39.177151 -5.3744321
33.117599 -38.562321 -4.1116338
34.220154 -39.209312 -5.7081718
35.382984 -38.5042 -4.1121602
36.534393 -39.044575 -5.7478261
37.671474 -38.403133 -4.1276908
38.062359 -38.852985 -5.435637
39.614029 -38.246101 -4.1660709
39.966438 -39.027626 -6.0939622
41.503925 -37.970833 -3.5104179
41.504086 -39.432793 -7.4109268
41.871128 -38.72047 -5.4510779
43.464783 -37.66531 -3.2319241
43.470177 -38.994282 -6.8151312
44.617184 -38.221973 -4.8677011
45.0256 -39.37077 -8.1450043
46.172985 -38.600647 -6.1961241
46.58226 -37.796959 -4.2633481
47.771599 -38.890251 -7.5579672
48.14011 -38.177246 -5.5919871
48.932392 -37.363121 -3.6572001
49.73867 -38.962215 -8.2573881
50.132343 -38.073093 -5.9822731
50.620213 -39.42239 -10.307649
50.925446 -37.137478 -3.7187078
51.700092 -38.687614 -7.9712858
52.165318 -37.52116 -5.421504
52.630344 -38.923859 -9.7328176
52.931534 -36.769096 -3.460402
53.402462 -37.914932 -7.1231532
53.923767 -39.199024 -11.480719
54.174305 -37.152294 -5.1649222
54.985367 -36.183197 -2.907068
-63.994808 -25.66704 4.4259171
-63.98098 -28.70273 -0.237178
-63.20282 -24.643574 6.228971
-63.16013 -27.586042 1.52729
-62.671051 -29.725567 -2.0072651
-62.388481 -26.630558 3.3493149
-61.929394 -28.867657 -0.156308
-61.612957 -25.664743 5.1705022
-61.137085 -27.849333 1.642534
-60.924091 -24.979492 7.0868678
-60.658134 -30.017693 -1.8839132
-60.402477 -27.017595 3.5069561
-59.930622 -24.445539 9.0594406
-59.903542 -29.122393 -0.044822
-59.746601 -26.438705 5.4573669
-59.198734 -28.387497 1.850769
-59.077301 -25.817392 7.394351
-58.673328 -30.282866 -1.413419
-58.56596 -27.882553 3.824755
-58.070747 -25.242407 9.3528271
-58.009712 -29.679247 0.525648
-57.897789 -27.265387 5.7617378
-57.657009 -24.316946 11.187281
-57.346699 -29.078739 2.4664371
-57.17218 -26.466684 7.6396418
-56.773602 -30.81879 -0.85009402
-56.6605 -28.404964 4.3834548
-56.110626 -25.840717 9.2262373
-56.103222 -30.19566 1.082251
-55.935192 -27.609241 6.261168
-55.689491 -24.895418 11.054309
-55.193623 -31.980057 -2.213779
-55.092697 -29.608816 3.032198
-54.870071 -26.974209 7.843421
-54.841839 -31.254076 -0.32117999
-54.682369 -28.699404 4.8659649
-54.114155 -26.085396 9.694253
-53.792355 -30.547611 1.58742
-53.609558 -28.042639 6.4398956
-53.223904 -32.297493 -1.725518
-53.068645 -29.76116 3.4663839
-52.99522 -25.286835 11.22713
-52.854435 -27.158741 8.2910728
-52.507 -31.533249 0.158528
-52.006401 -29.139421 5.0511322
-51.794697 -30.783569 2.049197
-51.771591 -26.474968 9.8600845
-51.576283 -28.173714 6.869102
-51.240704 -32.57634 -1.250403
-50.946991 -25.380154 11.647212
-50.724812 -30.140697 3.6258962
-50.493469 -31.721935 0.60368001
-50.482418 -27.458496 8.4266281
-49.96806 -29.257736 5.4752979
-49.695652 -26.48349 10.251454
-49.432087 -31.107172 2.1890831
-49.197857 -32.797913 -1.1513439
-48.907845 -25.507803 12.078719
-48.869766 -28.532366 7.028348
-48.682858 -30.249596 4.0460749
-48.445797 -27.589876 8.8573895
-48.140976 -32.199734 0.438714
-47.66663 -26.643396 10.692646
-47.60659 -29.594292 5.621345
-47.539997 -33.725639 -2.5970571
-47.401127 -31.372673 2.3049457
-46.822468 -28.63398 7.4484439
-46.543789 -25.850288 12.230434
-46.488747 -33.02618 -0.68538803
-46.38744 -27.661493 9.2687969
-46.318016 -30.699028 3.8728831
-45.745949 -32.193386 1.1785769
-45.554146 -29.803066 5.7199831
-45.264954 -26.872858 10.806679
-45.168468 -33.910645 -2.150605
-45.059956 -28.170612 8.7455521
-44.976734 -31.04071 3.6496291
-44.817123 -25.984516 12.303043
-44.77 -32.931355 0.01549
-43.792629 -29.344656 7.0172448
-43.027191 -32.648731 1.009931
-43.004364 -28.380722 8.8465118
-42.96402 -31.73601 2.8411651
-42.898506 -27.337851 10.641532
-42.894218 -30.803024 4.666873
-42.771648 -33.907513 -1.411446
-41.799114 -30.103985 6.230238
-41.434448 -26.719955 11.887527
-41.03627 -33.651924 -0.408465
-41.003288 -29.122093 8.0534229
-40.97279 -32.740253 1.422931
-40.891937 -31.77676 3.238215
-40.883381 -28.040371 9.8357906
-40.128727 -30.893373 5.0914011
-39.436214 -27.47826 11.099612
-39.374031 -34.581242 -1.856776
-39.348801 -29.962215 6.9309549
-38.971241 -33.716949 -0.005316
-38.915565 -32.829601 1.835622
-38.892628 -28.939415 8.7375278
-38.835842 -31.871284 3.653923
-38.082695 -31.021196 5.519454
-37.44223 -28.373289 9.9993887
-37.346073 -35.241131 -2.679965
-37.326675 -27.3083 11.791269
-37.281536 -30.032207 7.3410411
-36.943436 -34.379536 -0.82726401
-36.885582 -33.48727 1.012574
-36.798691 -32.50996 2.824784
-36.01635 -31.579226 4.6635332
-35.81683 -29.428131 8.5891991
-35.360176 -28.410099 10.401093
-35.254234 -35.117599 -1.9853801
-35.236912 -30.658039 6.5080452
-34.845341 -34.240635 -0.136246
-34.79467 -33.370632 1.7126909
-34.540268 -27.372728 12.2149
-34.366055 -32.436573 3.54564
-33.781254 -29.964598 8.0836506
-33.593391 -31.538225 5.3971968
-33.320202 -28.937984 9.8930826
-33.189026 -35.199039 -1.577253
-32.788162 -34.347187 0.28175899
-32.702629 -33.378651 2.0983491
-32.511936 -27.93915 11.719772
-32.281555 -32.469074 3.9410503
-32.140854 -30.978851 6.6592512
-31.687603 -29.977835 8.4762487
-31.221354 -28.939569 10.283443
-31.096016 -35.087093 -0.87715
-30.660751 -34.139923 0.95095801
-30.579145 -33.183784 2.7736857
-30.518078 -32.164879 4.9345951
-30.406841 -27.927658 12.107536
-30.038816 -31.092735 6.726778
-29.60364 -30.146105 8.5631399
-29.402908 -36.068066 -2.67029
-29.14736 -29.140249 10.382083
-28.995199 -35.20126 -0.81505901
-28.812057 -32.874107 3.7648499
-28.594814 -34.355938 1.0491149
-28.358881 -31.879089 5.5826368
-27.935883 -30.969854 7.4311318
-27.66774 -28.519306 11.631237
-27.465069 -29.925692 9.2371283
-27.282532 -36.012482 -2.309623
-27.142118 -33.687813 2.6296871
-26.900906 -35.22131 -0.42675599
-26.711603 -32.75964 4.4695148
-26.258982 -31.769417 6.290679
-26.009489 -29.376959 10.509142
-25.803242 -30.770758 8.1112919
-25.801195 -34.543911 1.145905
-25.216543 -36.11562 -1.893537
-25.022211 -33.6446 2.999351
-24.841919 -28.514048 12.032805
-24.576582 -32.676815 4.827611
-24.318748 -30.145792 9.3575363
-24.124554 -31.691536 6.652122
-24.099054 -35.392883 -0.33699
-23.668007 -34.467499 1.5031461
-23.176565 -29.358011 10.905131
-22.911366 -33.634186 3.3806601
-22.668236 -31.149122 7.9247346
-22.46209 -32.659405 5.208138
-22.408693 -36.157085 -1.491001
-21.979528 -35.239353 0.35162199
-21.513275 -30.330105 9.4609623
-21.191938 -34.32354 2.2010701
-20.991144 -32.080441 6.4676399
-20.759312 -33.397221 4.0448542
-20.377325 -29.566973 11.017982
-20.278151 -36.219444 -1.4473211
-19.87361 -35.371937 0.42082
-19.861586 -31.335596 8.0274525
-19.300489 -32.856312 5.3164678
-19.089567 -34.469551 2.2761011
-18.697239 -30.4986 9.5591908
-18.550222 -36.76878 -2.317872
-18.238333 -29.502657 11.388934
-18.168846 -32.109612 6.8752642
-18.129059 -35.877792 -0.46419099
-17.950361 -33.702564 3.8248689
-17.028427 -35.217224 1.1186661
-17.009878 -31.291262 8.4126062
-16.829033 -32.986893 5.3932452
-16.550516 -30.297375 10.24266
-16.405495 -36.444904 -1.328966
-16.245747 -34.323986 2.979537
-16.066994 -29.237856 12.053731
-15.673971 -32.182781 6.9342861
-15.301612 -35.779068 0.25219199
-15.115014 -33.586697 4.5405021
-14.873525 -31.244223 8.7871447
-14.678344 -37.127216 -2.5146689
-14.525368 -34.90625 2.120208
-14.402749 -30.222389 10.609805
-13.975398 -32.828369 6.0966582
-13.570865 -36.454926 -0.935785
-13.363815 -34.090836 3.6547489
-13.228715 -29.374514 12.1442
-13.164054 -31.863888 7.9408846
-12.791409 -35.577053 0.93051499
-12.679224 -30.807838 9.7522717
-12.246931 -33.397255 5.2327561
-11.839747 -37.254463 -2.442347
-11.657314 -34.838978 2.4910209
-11.51779 -29.998146 11.298986
-11.449834 -36.454269 -0.55327499
-11.441601 -32.45237 7.083612
-10.622113 -31.471722 8.9252005
-10.538994 -34.144711 4.0685139
-10.298547 -35.673824 0.99179
-9.7416573 -33.224773 5.9273582
-9.6752682 -37.145241 -2.0984373
-9.4549417 -30.651766 10.468497
-9.147809 -34.897751 2.540874
-8.9044294 -32.200848 7.754302
-8.589962 -36.541939 -0.49267799
-8.3915043 -34.087955 4.4364829
-7.920949 -29.945452 11.69764
-7.7607069 -31.44702 9.3188696
-7.5830402 -33.142406 6.2886028
-7.4602909 -35.82497 1.075835
-7.029808 -34.921944 2.9351931
-6.8280869 -37.033169 -1.386777
-6.3971829 -32.281254 7.8165364
-6.2571731 -30.825745 10.575027
-6.2004118 -33.924641 4.769227
-5.7008309 -36.326382 0.185514
-5.2734652 -35.433388 2.0487471
-5.0546579 -33.171856 6.332437
-4.8965788 -31.671368 9.0753994
-4.7033329 -30.077982 11.792175
-4.4887228 -34.555843 3.9234407
-4.3352499 -37.153076 -1.319589
-3.55458 -32.566795 7.591743
-3.5512302 -36.278999 0.55378401
-3.4844289 -31.900726 8.8121004
-3.39924 -34.798714 3.2976
-3.361006 -30.854404 10.628591
-3.3334141 -33.903042 5.1595178
-2.1691811 -29.989954 12.163593
-1.786163 -36.534592 0.300006
-1.6907119 -35.443424 2.4552979
-1.619817 -31.421154 9.7613745
-1.563656 -34.391823 4.2649021
-1.486483 -37.544415 -1.8778419
-1.4807529 -33.452805 6.1142702
-1.381724 -32.471844 7.951149
-0.45360401 -30.627129 11.319221
0.011338 -36.954056 -0.62073302
0.091594003 -36.023907 1.229094
0.168759 -34.980648 3.4031451
0.26408699 -34.011322 5.2427039
0.37336501 -33.00581 7.0718379
0.43789399 -32.114513 8.9404488
1.677116 -31.017609 10.759566
1.7953779 -37.412983 -1.529012
1.830261 -36.598881 0.361393
1.928673 -35.623848 2.1977799
2.0306909 -34.518051 4.3529019
2.1350999 -33.526646 6.1872578
2.2422249 -32.528408 8.0210218
3.4106939 -31.737871 9.5802584
3.5716138 -37.896427 -2.4298739
3.6344941 -37.012665 -0.56262201
3.6919658 -36.142284 1.310294
3.7752421 -35.20639 3.162087
3.8953879 -34.055756 5.304615
3.9134989 -30.662807 11.398598
4.0009432 -33.062931 7.1406398
5.1766868 -32.258522 8.6952515
5.3639321 -37.61858 -1.4213887
5.4628558 -36.645714 0.41681299
5.561039 -35.673527 2.2568748
5.6398234 -34.749668 4.1148782
5.658195 -31.239985 10.532441
5.7586508 -33.603951 6.2615361
5.793766 -30.171219 12.349821
6.9382849 -32.794025 7.8143535
7.2510219 -37.110531 -0.49094599
7.3349109 -36.175602 1.362586
7.3914151 -35.30817 3.24034
7.412406 -31.797045 9.658865
7.494987 -34.323692 5.0797901
7.5422549 -30.744743 11.481927
8.2682028 -38.038254 -2.3349349
8.6794081 -33.506279 6.629643
9.0861053 -36.738087 0.488033
9.1635675 -32.486794 8.4666891
9.1766119 -35.787762 2.338145
9.2681866 -34.834175 4.1886311
9.2819977 -31.464621 10.299779
9.4166164 -30.401888 12.12152
10.150111 -37.553226 -1.396353
10.44261 -34.045551 5.7482042
10.908688 -33.073765 7.6013961
10.972953 -36.365101 1.105577
11.044067 -32.011921 9.4216776
11.046427 -35.336449 3.293777
11.170232 -30.971792 11.251177
11.915571 -38.087074 -2.2827239
11.986596 -37.186687 -0.41512099
12.20622 -34.588165 4.867054
12.705354 -33.53812 6.6943941
12.813188 -32.545292 8.5381441
12.82108 -35.973412 2.0809569
12.920319 -31.553875 10.384026
13.768538 -37.685246 -1.313971
13.8656 -36.72179 0.53392798
13.956978 -35.287357 3.675195
14.441233 -34.276367 5.515543
14.514269 -30.770658 11.598489
14.583426 -33.080093 7.6542358
14.707855 -32.048389 9.4872684
15.028254 -35.973221 2.106154
15.611726 -38.040604 -2.263494
15.652725 -37.214134 -0.36739901
16.197592 -35.210861 3.6760371
16.275909 -31.333748 10.723907
16.327042 -33.926468 6.1478429
16.464514 -32.743519 8.2932978
16.820797 -36.456013 1.201759
17.483679 -37.605278 -1.304734
17.994534 -35.687065 2.7695961
18.039707 -32.017082 9.5253716
18.06019 -34.801346 4.6499591
18.213339 -33.58239 6.7832751
18.529495 -30.997198 11.37262
18.630119 -36.903687 0.28419501
19.265137 -38.120811 -2.2001939
19.774654 -36.208775 1.8775342
19.788496 -32.740448 8.3390388
19.891167 -35.201706 3.717587
19.980335 -34.259617 5.5812211
20.253719 -31.782005 10.206362
20.453487 -37.322617 -0.64432299
21.542126 -30.746531 11.699272
21.549175 -33.559582 6.8203039
21.628681 -36.558483 0.92580199
21.685711 -35.694942 2.8155203
21.78266 -34.735546 4.673955
22.014479 -32.603764 8.6883907
22.258221 -37.912468 -1.879432
23.2516 -31.695803 10.222019
23.353563 -34.035992 5.913044
23.427359 -37.16713 -0.30296701
23.505606 -36.253735 1.570504
23.595648 -35.311989 3.435638
23.837387 -33.038136 7.7677255
24.154125 -30.705038 11.725967
24.491417 -37.885448 -1.8671449
25.083548 -32.114346 9.296258
25.161524 -34.629837 4.6800718
25.318432 -36.834206 0.33141401
25.386021 -35.946522 2.2156191
25.628925 -33.673729 6.549016
26.311567 -31.236378 10.842964
26.378401 -37.566105 -1.229416
26.85461 -32.802635 8.0946627
26.966311 -35.235989 3.4499049
27.195637 -36.541039 0.98054099
27.460442 -34.219551 5.2989216
27.90176 -30.506712 12.082809
28.083456 -31.927444 9.6418133
28.321659 -37.121513 -0.63365299
28.664787 -33.403404 6.8627858
28.770008 -35.849762 2.220957
29.235857 -34.90155 4.093276
29.366045 -37.894516 -2.1824861
29.67742 -31.19483 10.879966
29.848297 -36.545437 0.64525801
29.873182 -32.580982 8.4271441
30.424622 -34.126122 5.670392
30.934217 -37.224586 -0.93699902
31.030296 -35.786587 2.2250049
31.273396 -30.462305 12.120769
31.464394 -31.859745 9.6684341
31.487028 -34.861961 4.107286
31.650938 -33.265759 7.2217498
32.006577 -37.936977 -2.508662
32.058559 -36.601604 0.68862802
32.726707 -33.973927 5.6482401
33.066547 -31.118221 10.905638
33.186131 -37.189293 -0.92650199
33.284401 -32.452087 8.4317513
33.288689 -35.736874 2.233747
33.769302 -34.76004 4.1002302
34.24976 -37.925648 -2.4914219
34.298256 -33.30669 6.905591
34.377048 -36.417557 0.64977598
34.683643 -30.348261 12.13625
34.853485 -31.793165 9.6955719
35.340916 -34.09552 5.3572431
35.423149 -37.19632 -0.90134501
35.575554 -35.387814 2.872535
35.914227 -32.542622 8.1332235
36.476032 -31.015539 10.922978
36.531075 -37.835388 -2.501477
36.623039 -36.408943 0.67107999
36.936264 -33.381367 6.6001072
37.18174 -34.649921 4.1042929
37.49184 -31.871288 9.3942051
37.720917 -37.073738 -0.92085099
37.859409 -35.542175 2.2188821
38.060612 -37.761234 -2.5130489
38.195129 -32.46389 8.1384754
38.294277 -34.918095 3.4763689
39.873642 -34.249191 4.7339439
39.929161 -30.712727 11.240612
40.017666 -37.45108 -2.235734
40.018269 -33.190552 6.5762839
40.063858 -36.494209 0.003155
40.140472 -32.060455 8.7629623
40.157959 -35.429306 2.206239
41.730431 -34.781555 3.4706891
41.76759 -31.290445 9.9947701
41.83569 -33.691502 5.6695619
41.914692 -30.225719 11.842072
41.944725 -37.093697 -1.6066571
41.972881 -32.650715 7.5204539
41.999561 -36.1175 0.62786698
43.246559 -35.24033 2.176429
43.588928 -31.910866 8.7616816
43.708336 -34.072903 4.7216525
43.709084 -30.909185 10.629916
43.844387 -33.036243 6.5747929
43.880669 -36.601082 -0.65537697
44.612648 -29.960691 12.162986
45.124409 -35.735989 0.89730901
45.212772 -34.807453 2.7855849
45.404526 -37.291992 -2.6082437
45.458447 -32.307194 7.8195214
45.568966 -31.32774 9.6960573
45.689877 -33.729786 4.9969592
46.246342 -36.364197 -0.71372402
46.459484 -30.412289 11.240169
46.943836 -32.845589 6.5513344
47.105087 -35.155724 1.8231488
47.167675 -34.284702 3.7333479
47.416 -36.889187 -2.36182
47.451591 -31.70117 8.7460079
48.224209 -35.794346 0.21426301
48.349274 -30.774017 10.286659
48.452358 -33.33699 5.2660489
48.487503 -29.733789 12.148328
48.898991 -32.451954 7.1800618
49.101223 -34.793541 2.089324
49.369957 -36.499016 -1.74152
49.814381 -31.488449 8.7080097
49.986 -33.776901 3.96191
50.238773 -35.518417 0.139806
50.321842 -30.469973 10.582384
50.467903 -32.815784 5.8511772
51.10408 -34.424465 2.353847
51.252918 -29.474537 12.105491
51.355465 -36.168968 -1.468001
51.733437 -31.918428 7.4064231
51.808178 -31.020737 9.3158979
51.962982 -33.345718 4.5762811
52.23835 -35.161278 0.40639701
52.719582 -30.071886 10.853866
53.116077 -34.166264 2.2881241
53.251438 -32.402794 6.1159458
53.35471 -35.939438 -1.528317
53.754284 -31.398804 7.9963031
53.932201 -33.306461 4.2182894
54.201244 -34.891674 0.70369399
54.618874 -30.434048 9.8974342
55.098862 -33.856865 2.5741229
55.211205 -29.235668 11.719392
55.240524 -32.080463 6.4019399
55.756947 -31.049168 8.2755222
-54.589199 -24.15168 12.60638
-52.542141 -24.246206 13.027791
-50.509293 -24.391136 13.465674
-47.779476 -24.695042 13.611795
-46.647655 -23.87579 15.145237
-45.411541 -25.032547 13.762715
-43.034496 -25.591898 13.273378
-42.905842 -24.478195 15.051047
-41.442215 -23.864573 16.30422
-40.965565 -25.654476 13.685583
-39.823799 -24.824322 15.218016
-38.964569 -26.408907 12.896222
-37.797092 -25.50835 14.405814
-37.332329 -24.461742 16.215282
-36.158264 -26.410147 13.30059
-35.69952 -25.384138 15.115946
-34.232998 -24.783678 16.375599
-34.062969 -26.296131 14.013154
-32.583553 -25.662569 15.261312
-32.100983 -24.57402 17.061033
-32.036621 -26.872393 13.521485
-30.542671 -26.203354 14.758245
-30.270447 -24.089815 18.010998
-29.389004 -25.368389 16.294947
-28.943819 -27.351044 13.37272
-28.201548 -24.44051 17.804964
-27.768042 -26.457268 14.889178
-26.588654 -25.557163 16.406462
-26.488846 -27.620007 13.143958
-26.081694 -24.410719 18.192732
-25.345654 -26.825129 14.693097
-24.482935 -25.69153 16.487822
-23.989943 -24.588976 18.289303
-23.678528 -27.666708 13.564219
-22.85033 -26.634232 15.390446
-22.33717 -25.479181 17.174347
-22.025156 -28.548235 12.447917
-21.16337 -27.426554 14.244642
-21.128767 -24.514952 18.677521
-20.678448 -26.353966 16.054253
-19.882107 -28.468195 12.815039
-19.472988 -25.402803 17.560493
-19.03334 -27.38854 14.627119
-17.962725 -24.731606 18.806892
-17.839125 -26.473047 16.143311
-17.739372 -28.398043 13.185826
-16.555822 -27.51519 14.710944
-16.424473 -23.988955 20.033281
-16.317232 -25.774221 17.379574
-15.048089 -26.858404 15.959013
-14.898239 -28.399925 13.592486
-14.790786 -25.068813 18.616203
-13.532494 -26.185242 17.20422
-13.373014 -27.700098 14.825831
-13.276121 -24.400997 19.86701
-11.972268 -25.397911 18.415676
-11.846416 -27.002535 16.062326
-11.711203 -28.700188 13.384519
-10.417529 -24.631426 19.636471
-10.303023 -26.265553 17.288769
-10.1878 -28.016153 14.624029
-10.000815 -29.330547 12.541049
-8.7728853 -25.570292 18.530865
-8.6559238 -27.314642 15.860386
-8.4790106 -28.65579 13.783113
-7.546123 -24.599459 20.041075
-7.123404 -26.61759 17.100546
-6.9563489 -27.983656 15.028395
-6.4098449 -29.305235 12.950721
-5.899519 -25.659218 18.613132
-5.4037099 -27.238781 16.252804
-4.873313 -28.602871 14.186016
-4.3570352 -24.946468 19.853619
-4.2084022 -26.360508 17.790384
-3.491977 -29.037947 13.631119
-3.329268 -27.887053 15.419399
-3.3089831 -25.306684 19.268702
-1.7897249 -27.188299 16.660746
-1.6230659 -26.028009 18.451319
-1.621123 -28.666063 14.261163
-1.42039 -24.772934 20.214863
-0.093925998 -28.004225 15.513514
0.078663997 -29.469051 13.110083
0.087667003 -26.808302 17.292347
0.25030699 -25.660446 19.089125
0.80665898 -24.438717 20.872555
1.6160527 -28.786066 14.35476
1.773451 -27.655249 16.153984
1.9594328 -26.450106 17.932114
2.1745391 -29.953009 12.581475
2.492028 -25.293819 19.735462
3.5063651 -28.262215 15.298733
3.687747 -27.072111 17.08161
3.7518611 -24.273092 21.238434
4.0465531 -29.597843 13.217024
4.2145839 -25.934174 18.890604
5.3858371 -27.89517 15.934028
5.4674001 -24.936604 20.400331
5.9142909 -26.756765 17.742229
5.9461532 -29.058941 14.155333
6.3722 -23.894806 21.892441
7.1740952 -25.746658 19.247078
7.5224848 -28.296946 15.378922
7.696259 -29.630835 13.287138
8.0618343 -27.134935 17.180391
8.066946 -24.739544 20.749153
9.2385464 -28.959381 14.539464
9.3046999 -26.174149 18.701225
9.6832895 -23.887203 21.956156
9.7636318 -27.836872 16.353289
10.195642 -25.177063 20.206894
10.987211 -29.664972 13.351902
11.032749 -26.815483 17.854359
11.517213 -28.53377 15.162678
11.813174 -24.329433 21.415367
11.934936 -25.795078 19.352318
12.743043 -30.234812 12.481078
12.749942 -27.607901 16.69343
13.272563 -29.10824 14.293422
13.566111 -24.91918 20.551348
13.640563 -26.62007 18.20096
14.490707 -28.223658 15.837175
15.003055 -29.74765 13.444465
15.161469 -24.138479 21.783159
15.272147 -25.749577 19.400537
15.395284 -27.205767 17.334856
16.280468 -28.722296 14.942658
16.803474 -30.219103 12.540359
16.880726 -24.941652 20.622728
17.004475 -26.396122 18.553028
17.514742 -27.806013 16.479239
18.026058 -29.332506 14.083173
18.491156 -24.135649 21.848446
18.629463 -25.553953 19.763912
19.140858 -26.962198 17.686235
19.296806 -28.333155 15.592839
19.771385 -30.06839 12.901117
20.230053 -24.777388 20.998222
20.739019 -26.19236 18.919609
20.897232 -27.557663 16.821142
21.037291 -29.085909 14.415339
22.34754 -25.403172 20.14963
22.504917 -26.770334 18.048508
22.620213 -28.357708 15.657952
22.793112 -29.804909 13.22619
23.30801 -24.26996 21.623373
24.137108 -25.930296 19.262041
24.240974 -27.544643 16.876087
24.385927 -29.058321 14.462127
25.073595 -24.858841 20.754921
