# .PCD v0.7 - Point Cloud Data file format
VERSION 0.7
FIELDS x y z
SIZE 4 4 4
TYPE F F F
COUNT 1 1 1
WIDTH 1560
HEIGHT 1
VIEWPOINT 0 0 0 1 0 0 0
POINTS 1560
DATA ascii
-121.44165 30.260963 60.109306
-121.09005 38.560558 67.603226
-120.6783 36.331833 65.689003
-120.63689 28.400402 58.497417
-120.32645 33.713593 63.5233
-120.25227 31.561554 61.5924
-119.4427 29.720592 59.97121
-119.16453 37.370075 66.912437
-119.15021 34.812355 64.712112
-118.7365 32.619965 62.799992
-118.23413 31.093828 61.436588
-117.95415 35.991096 65.885193
-117.94384 38.655643 68.066521
-117.84567 28.681494 59.23835
-117.20663 33.727573 63.999264
-116.75525 37.172585 67.06118
-116.7177 32.142765 62.646545
-116.65013 29.988466 60.718235
-116.25955 27.599134 58.516811
-116.0156 34.873764 65.178688
-115.19292 33.215755 63.854294
-115.13191 31.036644 61.926865
-115.05077 28.954216 59.983089
-114.81516 36.050797 66.35424
-114.27121 37.552231 67.781052
-113.98961 34.402824 65.023987
-113.59813 32.140652 63.125385
-113.5359 29.980394 61.19556
-113.45364 27.915833 59.249458
-112.76506 35.803082 66.500008
-112.40731 33.26577 64.308357
-112.18845 37.436043 67.896759
-112.00484 31.065287 62.397129
-111.93683 28.942438 60.46032
-111.8642 26.847771 58.5238
-111.18955 34.498566 65.468948
-110.79643 32.257046 63.562439
-110.64603 35.976143 66.899872
-110.3989 30.048075 61.655296
-110.3605 37.991188 68.548096
-110.33097 27.937906 59.717384
-109.60505 33.367096 64.750961
-109.20871 31.153362 62.84008
-109.04333 34.914982 66.163315
-108.82794 36.48592 67.560127
-108.81162 28.954706 60.932629
-108.73658 26.886612 58.986481
-108.2515 38.093895 68.96743
-108.00491 32.308609 64.016106
-107.60805 30.109985 62.103676
-107.51686 25.609943 57.946404
-107.45044 33.81596 65.436455
-107.20367 27.953867 60.187798
-106.87788 35.396893 66.843735
-106.65044 37.009979 68.233353
-106.40804 31.240919 63.284069
-106.00298 29.08853 61.36245
-105.98107 26.684587 59.143497
-105.84966 32.754578 64.701195
-105.72305 38.595043 69.66404
-105.2886 34.277931 66.120354
-104.80251 30.213291 62.542877
-104.77781 27.824442 60.314556
-104.71516 35.850952 67.532364
-104.38052 25.661331 58.405544
-104.22517 31.796471 63.941555
-104.1152 37.534218 68.923187
-103.70518 33.139339 65.40242
-103.57317 28.960587 61.489925
-103.18599 26.756935 59.586014
-103.09148 34.870537 66.774948
-102.67677 30.398676 62.935135
-102.51962 36.425014 68.194344
-102.11223 31.917048 64.351418
-101.97756 27.901178 60.757889
-101.95361 25.534302 58.530106
-101.56425 33.365383 65.788864
-101.29634 37.611835 69.379494
-101.07687 29.34742 62.199337
-100.97092 34.998688 67.186714
-100.50881 30.871037 63.612648
-100.41889 26.567715 59.740593
-99.936401 32.410866 65.026566
-99.856323 28.063494 61.153667
-99.74855 38.536461 70.289246
-99.730064 36.251625 68.353874
-99.579399 25.051968 58.389965
-99.379044 33.887146 66.460114
-98.951904 29.512835 62.596313
-98.367867 31.090181 63.998596
-98.36586 26.197845 59.559448
-98.185127 37.158012 69.265785
-98.122581 35.194576 67.61264
-97.818275 27.622786 60.990314
-97.796768 32.613453 65.418541
-97.141182 24.946369 58.509338
-96.89856 29.121531 62.421196
-96.63414 38.076447 70.17749
-96.569839 36.125244 68.517479
-96.559128 33.835419 66.588997
-96.321724 30.658419 63.833542
-96.239738 26.368347 59.952023
-95.761627 32.126564 65.266937
-95.676903 27.844189 61.372299
-94.983009 34.982086 67.795715
-94.775917 29.255463 62.826572
-94.738091 36.608105 69.189415
-94.639137 25.334782 59.213818
-94.514778 33.373512 66.431549
-94.196259 30.791775 64.240944
-94.08004 26.786039 60.6385
-93.482216 37.878654 70.360153
-93.148911 28.307785 62.064075
-93.13076 35.542484 68.44828
-93.067276 24.064329 58.18129
-92.941025 32.064621 65.396957
-92.670845 33.903652 67.08876
-92.57975 29.794716 63.48893
-92.519135 25.464235 59.616455
-91.944778 26.965305 61.030716
-91.869591 36.824829 69.614639
-91.343826 30.981852 64.663994
-91.107414 34.846451 67.990677
-91.092575 32.607975 66.049416
-91.031555 28.404612 62.478447
-90.944588 24.202433 58.580631
-90.367111 25.706911 59.991756
-90.303284 37.766598 70.523308
-89.856636 36.076332 69.168747
-89.817955 27.100056 61.434666
-89.78035 29.644381 63.638359
-89.502426 31.493225 65.322998
-89.496277 33.800385 67.245575
-88.850227 24.092297 58.688175
-88.737801 38.692898 71.438187
-88.564774 28.341986 62.591465
-88.302223 36.960583 70.090141
-88.277328 25.569126 60.1073
-88.251274 35.000172 68.429085
-87.945511 32.396866 66.230721
-87.943565 30.134249 64.300941
-87.348625 27.047438 61.544125
-86.719666 24.238768 59.086521
-86.674103 33.691288 67.389404
-86.670212 35.981071 69.326576
-86.583054 32.029701 66.021088
-86.582947 29.768435 64.091042
-86.579803 25.152861 59.923531
-85.366234 28.469601 63.041599
-85.359161 23.890699 58.872223
-85.0299 32.899788 66.939247
-85.018166 35.208088 68.870811
-85.01355 30.706415 64.988335
-85.00209 37.540966 70.804993
-85.00206 26.260435 61.124149
-83.813087 29.342319 63.952499
-83.775787 25.014786 60.066303
-83.728874 27.550043 62.270023
-83.456001 31.587988 65.901787
-83.446815 33.873001 67.835571
-83.432861 36.184303 69.771347
-83.414986 38.518051 71.710289
-82.534264 23.831423 58.994247
-82.510033 26.270214 61.218113
-82.223396 30.341654 64.835403
-81.884514 28.042803 62.930733
-81.877808 32.53672 66.801865
-81.862274 34.840359 68.736053
-81.832527 37.205269 70.664345
-81.29158 24.994545 60.16655
-80.666946 26.755966 61.878864
-80.628098 29.24873 64.103264
-80.374344 30.833399 65.501274
-80.293213 33.496819 67.701904
-80.273514 35.811108 69.638535
-80.252457 38.137909 71.580574
-80.076897 23.711256 59.118286
-79.42923 25.550079 60.808464
-79.382942 28.058693 63.025364
-79.08503 32.14954 66.655289
-78.74295 29.87001 64.736794
-78.728134 34.373108 68.624466
-78.707542 36.684677 70.566338
-78.213936 24.266376 59.758549
-78.171928 26.74762 61.978298
-77.536949 28.532398 63.692944
-77.512917 30.958107 65.943764
-77.241867 32.724659 67.661758
-77.216087 35.169674 69.924904
-77.214294 37.40514 71.889
-76.989555 25.338364 60.956924
-76.104668 26.595234 62.4552
-76.102638 33.595345 69.283897
-76.058266 29.215645 65.009445
-75.829575 35.622524 71.664246
-75.803459 31.039455 67.066338
-75.474281 23.848892 59.97086
-75.286171 27.606165 64.017006
-74.771935 33.846748 71.067947
-74.766838 31.533749 68.774734
-74.68042 24.896507 61.873756
-74.478706 28.827785 66.242905
-73.901215 25.888752 63.793137
-73.722107 29.735546 68.191193
-73.722084 32.055893 70.477646
-73.436226 27.036356 65.663513
-73.411766 34.204502 72.82798
-72.916962 23.652487 62.617882
-72.635078 28.104084 67.570465
-72.602318 30.531124 69.827347
-72.353973 25.401405 65.04879
-72.30854 32.483841 71.862991
-71.527252 26.432249 66.606247
-71.241982 23.757212 64.083366
-71.17923 28.692289 68.912392
-70.845322 30.778006 70.91259
-70.379898 24.910803 65.608406
-70.029076 27.171156 67.910011
-69.607292 31.859581 72.130669
-69.357964 29.170177 69.941483
-68.874268 25.675797 66.903641
-68.855904 23.591772 64.933006
-68.19474 27.696297 68.926018
-68.122246 30.238901 71.159981
-67.503296 31.792519 72.594826
-67.324699 24.4433 66.20575
-67.011757 26.299681 67.89418
-66.943245 28.816498 70.12986
-65.991371 30.267996 71.600754
-65.767937 27.389046 69.102798
-65.444626 25.124783 67.181091
-64.822998 28.810522 70.577728
-64.268715 23.717239 66.154831
-64.19989 26.210829 68.388809
-63.857101 30.300421 72.041382
-63.236198 27.68977 69.848251
-63.020618 24.810905 67.358231
-62.260883 29.204086 71.304306
-62.070148 26.238317 68.826942
-61.891178 23.121199 66.043648
-61.653599 30.689152 72.756561
-61.093136 27.751989 70.279999
-60.932613 24.570532 67.50338
-60.106346 29.294596 71.731277
-59.968575 26.034246 68.964417
-59.745995 23.20476 66.465767
-58.996792 27.51931 70.425186
-58.787457 24.643566 67.929886
-57.998985 29.088047 71.871368
-57.819389 26.11043 69.392036
-56.825607 27.659094 70.839752
-56.78619 23.845486 67.496368
-55.843372 29.163908 72.302818
-55.828465 25.267485 68.968399
-54.837284 26.797009 70.419708
-54.693066 23.604639 67.641846
-53.833668 28.362869 71.867653
-53.718075 25.073896 69.1036
-52.712738 26.639345 70.547577
-52.51638 23.759102 68.0495
-51.527081 25.265455 69.504471
-51.414154 27.84387 71.739113
-50.245548 26.408888 70.707748
-49.927921 24.19116 68.763397
-49.535995 28.304138 72.423363
-48.655312 25.2985 69.973671
-48.359116 26.895254 71.384148
-48.336258 23.095659 68.028008
-47.044289 24.259813 69.223236
-46.748402 27.783443 72.310608
-46.738544 25.879459 70.62674
-45.15612 24.743519 69.898094
-45.152145 26.683336 71.571503
-43.436176 26.221212 71.398605
-43.432537 24.313641 69.717567
-41.834866 23.230682 68.976906
-41.829792 27.072742 72.334694
-41.825024 25.172195 70.648071
-40.239441 25.95224 71.599541
-40.22345 24.095942 69.904449
-38.613564 24.946842 70.837997
-38.58923 26.926786 72.508026
-37.000858 23.90312 70.085876
-36.996567 25.811203 71.770836
-35.394951 24.727335 71.026863
-35.082642 26.325365 72.444801
-33.775612 23.700666 70.269897
-33.485535 25.222885 71.704041
-31.870026 24.179966 70.949814
-31.850353 26.118437 72.632767
-30.255661 25.006222 71.893425
-30.250082 23.153303 70.192322
-28.62488 24.006815 71.12822
-28.310524 25.586321 72.553314
-26.691595 24.545752 71.796593
-25.143929 23.170193 70.760109
-24.756935 25.078577 72.468018
-23.214418 23.684361 71.43425
-21.276182 24.214415 72.106178
-19.643215 23.212805 71.339409
-19.305599 24.828945 72.760117
-17.680777 23.798288 71.998932
-15.716143 24.379606 72.66114
-14.105886 23.303949 71.909752
-12.140994 23.870726 72.575813
-8.5196075 23.475807 72.463722
-5.5141082 23.674549 72.903847
-75.861275 37.728199 73.661758
-74.829231 38.19323 75.387314
-74.488312 35.907223 73.443504
-73.353767 36.748653 75.081108
-73.107147 38.289261 76.515747
-71.904938 34.964111 74.141106
-71.299606 36.49028 75.591728
-71.022026 38.134186 77.004242
-70.764343 33.377754 73.142586
-69.830551 34.783825 74.633133
-69.201393 36.385479 76.06794
-68.647575 33.352684 73.598137
-68.210281 37.988728 77.523491
-67.680161 34.867805 75.06543
-67.056038 36.441612 76.508347
-66.528313 33.3284 74.053978
-66.071518 38.009369 77.973663
-65.565399 34.816547 75.529099
-65.359482 31.857283 73.029076
-64.898735 36.530357 76.942085
-64.386047 33.376339 74.49398
-63.617783 37.727089 78.15123
-63.384987 34.986935 75.94313
-63.211666 31.926022 73.46302
-62.228966 33.466095 74.924995
-62.102386 36.183231 77.149727
-61.442844 37.855202 78.578506
-60.937229 34.690098 76.122505
-60.651348 32.288368 74.202805
-59.926975 36.313534 77.575264
-59.558884 38.349899 79.266296
-59.473511 30.85812 73.167267
-59.373081 33.458641 75.410713
-58.361294 35.078106 76.86203
-58.198833 32.011692 74.376366
-58.043144 36.8055 78.261856
-57.180347 33.647259 75.820801
-57.012577 30.61305 73.332809
-56.45607 35.639805 77.531807
-56.137383 37.361004 78.93589
-56.005535 32.202984 74.784447
-55.294857 34.140648 76.50415
-55.168159 38.691425 80.106339
-54.826557 30.779848 73.745193
-54.567833 36.132092 78.218712
-54.127701 32.669567 75.472137
-53.598125 37.456429 79.388649
-53.400928 34.651688 77.18502
-52.943836 31.262054 74.427567
-52.555588 29.502968 73.077614
-52.431629 35.968922 78.353745
-52.23275 33.183033 76.150627
-51.67955 38.030685 80.061302
-51.064995 31.720657 75.116806
-50.916275 34.438255 77.346863
-50.657177 30.030457 73.748528
-50.519093 36.522163 79.029175
-49.76812 38.569565 80.743439
-49.74699 32.976162 76.310127
-49.041058 30.941948 74.67482
-49.003986 34.987888 78.021217
-48.603249 37.074982 79.706268
-47.923531 29.201237 73.349991
-47.826813 33.550396 76.977097
-47.608814 38.45219 80.870483
-47.413467 31.880566 75.597626
-47.069637 35.598701 78.683578
-46.332611 30.018137 74.297646
-46.026993 37.253799 80.14241
-45.913818 34.089737 77.653519
-45.526672 32.338039 76.290062
-45.146172 28.634537 73.24823
-45.032825 38.617691 81.311577
-45.00518 35.048046 78.547058
-44.994736 31.31521 75.480309
-43.428089 28.171497 73.075569
-43.406502 30.170425 74.747269
-43.393925 33.959862 77.797287
-43.08147 31.848404 76.155685
-43.080078 37.429577 80.597061
-43.067593 35.648651 79.213402
-41.803856 29.076283 74.003265
-41.488796 34.451271 78.486763
-41.475746 30.75561 75.409576
-41.452034 32.760933 77.089355
-41.157242 37.965767 81.282112
-41.140591 36.203278 79.891586
-40.206177 27.96936 73.262825
-39.890388 29.601477 74.678146
-39.864197 31.605303 76.356033
-39.547489 35.047478 79.154465
-39.529305 33.303047 77.766357
-39.208233 38.574142 81.952972
-39.194443 36.808292 80.560326
-38.2873 28.50757 73.93354
-38.266586 30.484592 75.615479
-37.944237 32.134499 77.034737
-37.602715 35.64352 79.823906
-37.597397 33.863396 78.440903
-37.251396 37.391563 81.235535
-36.684967 27.414515 73.189308
-36.649361 29.429253 74.860626
-36.332859 31.052685 76.284164
-35.990486 32.759174 77.69355
-35.654942 36.237267 80.495544
-35.651459 34.456532 79.10981
-35.29126 38.017063 81.903229
-35.054092 28.308268 74.121391
-34.712479 30.002224 75.527069
-34.404289 31.593765 76.960663
-34.047279 33.338993 78.364227
-33.704742 35.04084 79.78241
-33.694927 36.857952 81.16301
-33.457668 27.195124 73.380989
-33.337582 38.610966 82.579575
-33.120415 28.867134 74.789841
-32.766659 30.591866 76.191368
-32.456566 32.183559 77.627808
-32.096416 33.931774 79.033646
-31.739664 35.670902 80.446533
-31.731152 37.478397 81.83226
-31.528864 27.734272 74.052773
-31.181669 29.430922 75.458801
-30.846704 31.090956 76.877914
-30.501671 32.78397 78.294258
-30.155497 34.482502 79.714172
-29.918232 26.663155 73.302094
-29.792643 36.234154 81.12719
-29.791843 38.012142 82.522171
-29.596361 28.274294 74.725967
-29.246283 29.973042 76.134338
-28.88872 31.696327 77.542015
-28.528559 33.42886 78.952515
-28.187929 35.103817 80.380707
-27.987846 27.192225 73.976692
-27.823786 36.852352 81.797424
-27.635664 28.889381 75.383659
-27.284882 30.583952 76.795944
-26.944611 32.248013 78.21991
-26.788548 38.259712 82.967239
-26.572802 34.009769 79.626793
-26.377068 26.120205 73.225639
-26.207943 35.751781 81.043137
-26.013212 27.844238 74.624588
-25.680798 29.475657 76.049591
-25.325661 31.176786 77.463326
-25.181461 37.124699 82.218719
-24.967348 32.889194 78.879433
-24.620611 34.568375 80.307716
-24.415251 26.728638 73.882309
-24.085646 28.343906 75.309212
-23.739092 30.011415 76.728668
-23.574503 35.992863 81.470146
-23.36916 31.750589 78.136787
-23.201666 37.751354 82.890358
-22.983326 33.538834 79.53894
-22.811655 25.633223 73.136002
-22.469515 27.278004 74.554337
-22.110046 28.976271 75.965065
-21.988558 34.802013 80.73526
-21.777742 30.595156 77.39859
-21.605032 36.583836 82.14827
-21.392059 32.374737 78.800575
-20.867777 26.173027 73.809067
-20.510183 27.857231 75.221176
-20.374939 33.698368 79.981827
-20.156275 29.532619 76.640045
-19.992876 35.46674 81.395897
-19.903524 37.601429 83.079277
-19.791409 31.242344 78.055901
-18.892124 26.795563 74.464668
-18.764854 32.586697 79.230797
-18.54822 28.433617 75.890327
-18.39115 34.322529 80.650108
-18.30241 36.445347 82.333839
-18.199669 30.087294 77.317017
-17.889215 38.303291 83.737404
-17.348944 25.392006 73.427727
-17.169172 31.436338 78.489052
-16.925121 27.38158 75.13044
-16.782696 33.201553 79.899826
-16.699022 35.299683 81.586746
-16.575283 29.031214 76.556366
-16.290806 37.134155 82.993401
-15.537067 30.395657 77.723282
-15.387574 25.958157 74.096291
-15.242274 38.528374 84.173615
-15.155337 32.13863 79.137253
-15.082375 34.197067 80.830917
-14.95922 27.953869 75.801033
-14.683182 35.995838 82.24337
-13.932962 29.276291 76.975861
-13.761774 24.920713 73.334381
-13.632404 37.3894 83.421898
-13.544257 31.031445 78.385178
-13.478 33.061195 80.083061
-13.403066 26.580599 74.753563
-13.077564 34.855175 81.494514
-12.325533 28.17012 76.226021
-12.019773 36.261909 82.668411
-11.942443 29.900698 77.638939
-11.914953 38.412498 84.357353
-11.843967 32.014446 79.315948
-11.785021 25.515867 73.996742
-11.463638 33.742371 80.740204
-10.76233 26.814814 75.172905
-10.412262 35.122986 81.91803
-10.318257 28.837584 76.878036
-10.290239 37.313591 83.595993
-10.237131 30.892178 78.566246
-10.151372 24.497528 73.229591
-9.8463964 32.642071 79.983757
-9.1275616 25.7931 74.405067
-8.7913074 34.026329 81.15905
-8.7640629 27.452374 75.829903
-8.6764622 36.186291 82.841454
-8.6028576 29.851097 77.798882
-8.272501 37.977989 84.26535
-8.2296524 31.543285 79.227486
-7.503232 24.743853 73.644005
-7.1725049 32.926319 80.401375
-7.1499972 26.367096 75.075455
-7.0612679 35.066292 82.085983
-7.057323 28.435986 76.755272
-6.6362162 36.909508 83.496689
-6.6064448 30.465658 78.467072
-5.5428009 31.859934 79.636742
-5.519238 25.331142 74.310158
-5.4428101 33.958656 81.328377
-5.4384789 27.35767 75.997665
-5.0538731 29.066629 77.417976
-5.0366688 35.739929 82.750557
-4.9255471 37.879932 84.445793
-3.9938312 30.443628 78.588966
-3.8236041 32.856499 80.570129
-3.801532 26.333101 75.228287
-3.500468 24.33778 73.551239
-3.499547 37.529255 84.229332
-3.4975748 29.357574 77.780365
-3.487253 34.30722 81.700294
-3.1204679 27.690952 76.381233
-153.46161 41.634071 55.623806
-152.95912 39.926807 54.310593
-152.46436 42.088104 57.316437
-151.97629 40.305798 56.019371
-154.00696 50.088718 63.415005
-153.72821 46.0117 59.822273
-153.65384 53.702484 66.816498
-153.57133 44.150829 58.168716
-153.28287 47.372021 61.629292
-153.22992 51.364803 65.266647
-152.54436 48.432549 63.525669
-152.27353 44.34639 59.941494
-152.1855 52.186962 67.242462
-151.83487 45.662315 61.756302
-151.79495 49.549999 65.411697
-151.49399 42.3923 59.046413
-151.1132 53.02383 68.863441
-151.08015 46.809582 63.629181
-151.04242 50.546062 66.975685
-150.70912 43.839508 61.191967
-150.69885 40.407463 57.810341
-150.65395 54.316036 70.35244
-150.3165 48.001682 65.494919
-149.97667 51.347454 68.602325
-149.9622 44.942024 63.072018
-149.91417 41.985291 60.271568
-149.55107 49.0648 67.041161
-149.50674 52.693825 70.076141
-149.18961 46.179733 64.923325
-149.14085 39.895645 59.060181
-148.87962 42.637188 61.91777
-148.71834 53.872452 71.607132
-148.47227 49.937336 68.649323
-148.42619 47.229652 66.469543
-148.11983 43.670425 63.460438
-148.08685 40.657295 60.676346
-148.00571 51.255424 70.127762
-147.35117 44.745926 64.996002
-147.31863 48.257748 68.038651
-147.20081 52.517838 71.637749
-147.01543 41.506832 62.273533
-146.92766 39.07177 60.0606
-146.56471 45.912544 66.513153
-146.52565 49.455441 69.556877
-146.23544 42.6409 63.791103
-146.02997 50.919376 71.002617
-145.52846 39.826962 61.691925
-145.45596 46.941826 68.080513
-145.45052 43.79483 65.307327
-144.87961 52.153969 72.535385
-144.74811 40.956245 63.208008
-144.64537 45.051685 66.802681
-144.64127 48.245766 69.572762
-144.14218 49.716053 71.015709
-143.94238 42.214924 64.69664
-143.52452 46.136311 68.356689
-143.23106 39.44656 62.584801
-143.1351 43.475395 66.188606
-142.9823 50.991722 72.537949
-142.68256 47.572121 69.818306
-142.4176 40.738037 64.063133
-142.19258 48.981853 71.275032
-141.99463 44.657112 67.717415
-141.61105 41.985989 65.555702
-141.23112 39.18354 63.083931
-141.16228 46.0336 69.190193
-140.71794 49.935566 72.532257
-140.65424 47.527531 70.625069
-140.46094 43.21093 67.07196
-140.42938 40.402431 64.580498
-139.6272 44.58659 68.542465
-139.27591 41.639816 66.090698
-139.18781 48.433907 71.890968
-139.12003 46.065319 69.978378
-138.49004 39.553112 64.516243
-138.44472 42.995029 67.562874
-137.6395 47.039299 71.226784
-137.60551 44.384651 69.031197
-137.32567 40.834145 66.015602
-136.54747 38.724289 64.447227
-136.48563 42.222855 67.479393
-136.13972 48.098053 72.459137
-136.11571 45.40173 70.267067
-135.64406 43.611958 68.947388
-135.35771 40.120483 65.9188
-134.62175 46.424603 71.504875
-134.51512 41.508736 67.382355
-134.14436 44.66716 70.174065
-133.79771 38.847698 65.236046
-133.66521 42.926369 68.843422
-133.45403 47.550228 72.707237
-132.95518 40.226406 66.69973
-132.64226 45.719452 71.404861
-132.16286 43.98209 70.06974
-132.10905 41.615971 68.165184
-131.47229 46.842869 72.607468
-131.38554 39.001041 66.004692
-130.65495 45.051319 71.296364
-130.58621 42.76424 69.36805
-130.52238 40.46373 67.450958
-129.47192 46.22757 72.486771
-129.07933 43.820721 70.595856
-129.01311 41.537663 68.669327
-128.94092 39.29261 66.741974
-128.16513 40.059761 67.64843
-128.15787 45.677998 72.320274
-128.15186 42.974422 70.130341
-126.98753 41.20295 68.836494
-126.9533 44.211643 71.303566
-125.80837 42.344318 70.028381
-125.78173 45.310658 72.511971
-125.77595 39.799339 67.812393
-124.59804 43.620956 71.192596
-124.59643 40.93697 69.002647
-123.71024 45.15229 72.640808
-123.41119 42.089947 70.19268
-123.03909 39.51757 67.996284
-122.51178 43.66782 71.627014
-121.86086 40.631653 69.193039
-121.31014 44.878948 72.81147
-121.3063 42.226662 70.605263
-120.11183 43.398689 71.795998
-119.88263 39.797539 68.770325
-119.33577 41.344482 70.192848
-118.25324 44.248611 72.740623
-118.1166 42.617664 71.35952
-117.74833 40.189274 69.475456
-116.53857 41.411255 70.652115
-116.26273 43.433868 72.311203
-115.85142 38.724957 68.492477
-114.94229 40.293182 69.92514
-114.67892 42.248104 71.597481
-113.33834 39.216019 69.189301
-113.09187 41.082798 70.87989
-112.5021 42.779781 72.276375
-111.48811 39.997288 70.144615
-110.9193 41.591377 71.56282
-109.68081 42.890121 72.729607
-109.45129 39.522766 69.99115
-108.86903 41.162651 71.398987
-107.63945 42.410213 72.577637
-107.32838 39.672558 70.40152
-106.08598 40.966526 71.566811
-104.53892 41.90942 72.476852
-104.48853 39.846649 70.837395
-102.94888 40.75145 71.754623
-102.88813 38.745564 70.104294
-101.39404 41.706665 72.662971
-101.3416 39.670898 71.015381
-99.796135 40.580425 71.932755
-98.235435 41.539848 72.84127
-98.198364 39.457985 71.202309
-96.633995 40.425228 72.107536
-95.065392 39.05463 71.078049
-93.518982 39.931198 72.004677
-91.934769 40.945553 72.902336
-91.924095 38.795456 71.275993
-90.341179 39.797043 72.175003
-88.467659 40.394562 72.828468
-86.858253 39.307816 72.086464
-85.036125 39.559223 72.463051
-81.81147 39.545601 72.606781
-78.693832 38.977863 72.520721
-146.06609 53.673267 73.191254
-143.4422 52.916313 73.840286
-141.98259 53.785 75.12394
-141.51764 51.890873 73.811081
-140.03558 52.867382 75.069992
-139.24486 50.868458 73.797211
-138.53749 53.913342 76.316742
-138.08844 51.956642 75.014732
-137.68333 49.522312 73.118759
-136.5809 53.039665 76.252663
-136.52286 50.624859 74.331123
-135.00496 51.752651 75.55706
-134.97008 49.239014 73.660797
-134.46387 53.377411 76.982559
-133.45348 50.353966 74.887505
-132.89729 52.042068 76.296478
-132.33337 53.76606 77.702713
-132.27048 48.743649 73.897697
-131.38441 50.319695 75.34407
-130.81467 52.059135 76.743317
-130.28033 48.06477 73.791168
-129.62547 53.252213 77.945969
-129.38741 49.660046 75.232979
-128.81279 51.408611 76.629906
-128.28165 47.427711 73.675293
-128.15105 53.842564 78.591072
-128.14456 48.485035 74.498184
-126.98059 52.161858 77.607346
-126.94875 46.960129 73.489799
-126.59782 49.695869 75.706375
-125.76121 48.128246 74.688843
-125.75453 53.503925 78.780212
-125.39777 50.915531 76.900444
-124.55568 46.656231 73.667961
-124.1966 49.406372 75.88279
-124.16957 52.258724 78.071037
-123.93433 54.036457 79.456299
-123.34543 47.916 74.847214
-122.98673 50.655849 77.071136
-122.5068 46.377407 73.824875
-122.35033 52.78117 78.748131
-122.14311 49.127853 76.040932
-121.11494 54.130951 79.923843
-120.9854 47.301815 74.741753
-120.91724 50.437588 77.216629
-120.32707 52.199036 78.619408
-120.07461 48.911026 76.185463
-119.7885 45.800804 73.726585
-118.88349 47.376312 75.174446
-118.83701 50.260735 77.35318
-118.78663 53.176487 79.537338
-117.68235 45.897781 74.153008
-117.64809 48.709652 76.342796
-117.59948 51.598255 78.527618
-117.23509 54.189697 80.450325
-116.43988 47.256683 75.312675
-116.41564 50.018021 77.520638
-116.0452 52.62159 79.435799
-115.68276 45.110538 73.716576
-115.20982 48.547905 76.491493
-114.85191 51.079216 78.417854
-114.49852 53.594761 80.357712
-114.46758 46.3335 74.905945
-114.10893 43.86832 73.013557
-113.6672 49.510773 77.407936
-113.30817 52.036427 79.340775
-113.21436 47.716328 76.063446
-112.86671 45.203655 74.175667
-112.11749 50.491154 78.323196
-111.75101 53.039478 80.256371
-111.67826 48.638794 76.988106
-111.62985 46.503094 75.34993
-111.27766 44.026985 73.456772
-110.54873 51.541538 79.225906
-110.11829 49.653248 77.895096
-110.09007 47.434742 76.271004
-110.03027 45.36319 74.62088
-109.64296 52.923443 80.382202
-108.55499 50.667419 78.805
-108.53439 48.423546 77.181999
-108.48619 46.306881 75.537697
-108.42979 44.233158 73.890297
-107.75923 53.635857 81.024719
-106.97646 51.733253 79.706528
-106.95926 49.481224 78.080582
-106.93428 47.270504 76.452759
-106.88574 45.169106 74.807297
-106.08823 43.37693 73.484383
-105.39729 52.788353 80.613373
-105.39204 50.491104 78.992645
-105.36552 48.293324 77.357422
-105.33418 46.124474 75.722694
-104.54051 44.315685 74.400246
-103.80108 51.588608 79.888474
-103.79187 49.322739 78.263504
-103.76952 47.121769 76.631439
-103.52092 53.438736 81.270546
-102.99339 42.83247 73.394043
-102.97589 45.312386 75.305817
-102.21584 48.059368 77.556175
-102.20383 50.399246 79.162178
-101.92389 52.236649 80.544868
-101.43524 43.796825 74.30455
-101.41239 46.291996 76.217934
-100.61068 49.199394 78.43911
-100.33052 51.026493 79.8218
-100.32794 53.324478 81.448212
-99.852692 44.848122 75.198181
-99.832893 47.323616 77.121284
-99.822472 42.718643 73.561127
-98.728905 52.129349 80.720123
-98.715553 49.911812 79.07869
-98.297409 45.773975 76.122864
-98.26738 43.649529 74.4804
-97.955254 47.966835 77.77327
-97.128586 50.946522 79.990181
-97.124077 53.231937 81.621536
-96.685104 44.677856 75.380493
-96.662277 42.537586 73.743851
-96.411102 46.44891 76.765907
-96.351463 49.070827 78.665932
-95.523033 52.042412 80.891327
-95.087334 43.528893 74.650711
-95.070694 41.376137 73.019218
-94.812973 47.522278 77.662773
-94.804695 45.323437 76.028809
-94.764038 50.092152 79.579727
-94.196686 53.583042 82.040565
-93.496277 42.357906 73.926643
-93.441673 51.613247 80.728592
-93.225769 44.092377 75.316101
-93.217186 46.345577 76.935402
-93.213776 48.586235 78.564774
-92.271286 50.01395 79.714111
-92.139404 53.041431 81.902069
-91.625587 45.158356 76.211212
-91.616493 47.40757 77.836128
-91.608185 43.022186 74.568031
-91.30751 51.521358 80.85022
-90.669357 48.844532 78.981606
-90.079704 41.475555 73.572441
-90.03714 43.964119 75.489456
-90.021484 46.226036 77.108948
-89.985649 53.012672 82.011261
-89.730759 50.241497 80.139778
-89.085289 47.610279 78.264114
-88.477104 42.53569 74.464798
-88.427353 45.047268 76.381973
-88.402519 51.749172 81.294975
-88.366394 54.108742 82.920166
-88.131424 49.059566 79.408897
-87.474487 46.488136 77.522713
-86.890831 43.519661 75.377235
-86.879623 41.390858 73.733727
-86.806641 50.54253 80.567375
-86.77108 52.885288 82.193474
-86.599174 51.74905 81.380432
-86.598427 45.307919 76.762314
-86.593124 47.513435 78.401413
-86.563515 54.095455 83.009819
-84.99868 44.153725 76.029724
-84.983643 52.811245 82.295586
-84.983124 42.049686 74.377151
-84.966942 46.448509 77.646683
-84.961319 48.648685 79.291809
-84.64209 50.542332 80.669212
-83.436348 40.580242 73.362564
-83.387085 45.20919 76.931313
-83.378555 43.083073 75.279175
-83.348228 47.525406 78.548309
-83.042191 53.587879 82.933296
-83.038368 49.370358 79.934227
-83.014175 51.6413 81.574898
-81.818634 41.65797 74.252159
-81.765572 44.135235 76.179909
-81.747475 46.357895 77.815231
-81.441162 48.179249 79.204208
-81.415131 50.444107 80.843651
-81.137604 54.206055 83.606712
-81.106422 52.280346 82.240814
-80.216805 42.661343 75.161499
-80.204529 40.573692 73.506142
-80.171555 45.102627 77.102455
-79.901474 46.774879 78.522011
-79.60379 48.553715 79.922882
-79.581573 50.92403 81.901222
-79.331398 52.528496 83.350891
-78.662544 43.601746 76.445549
-78.386192 45.417267 78.188675
-78.370842 41.087711 74.54071
-78.228485 53.234222 85.047691
-78.180405 48.981339 81.331024
-78.15107 46.949574 79.641327
-77.952431 50.621437 83.128082
-77.235245 41.935169 76.18483
-77.229088 39.586151 73.873329
-77.166145 51.501884 84.767502
-77.024086 43.367825 77.652245
-76.810204 47.199059 81.444382
-76.790154 45.016026 79.433502
-76.650833 52.726776 86.319145
-76.594742 48.653893 82.920029
-76.173721 40.134918 75.582474
-75.771271 49.672359 84.527153
-75.672096 41.429192 77.451012
-75.470955 42.818253 78.928528
-75.413673 45.403393 81.203896
-75.163742 46.978802 82.650787
-75.150261 51.287251 85.993805
-75.125923 53.517868 87.659569
-74.599388 39.680229 76.836166
-74.294777 43.805355 80.547852
-74.229599 48.405422 84.168365
-73.997543 41.338539 78.624313
-73.620628 45.733322 82.289993
-73.26947 51.918774 87.02536
-73.226768 50.081337 85.637779
-72.786003 42.324158 79.884743
-72.508675 39.798492 77.977844
-72.375229 46.834942 83.534958
-72.163841 43.921719 81.338272
-71.693115 48.655369 84.9534
-71.421463 52.28772 87.75515
-71.391846 50.40987 86.373657
-71.252068 40.943958 79.200844
-70.880783 45.156593 82.551491
-70.631004 42.529278 80.654617
-70.228363 46.857872 83.991844
-69.842491 49.039806 85.676254
-69.786705 39.197449 78.242737
-69.512756 50.889874 87.078987
-69.328659 43.827362 81.851952
-69.139519 40.868462 79.674171
-68.675323 45.522518 83.291183
-68.360741 47.305012 84.699562
-67.968582 49.499256 86.384605
-67.849068 42.116833 80.879395
-67.566513 39.637913 78.957642
-67.166183 43.908661 82.294212
-66.993111 50.909763 87.559013
-66.793602 46.017738 83.987312
-66.473724 47.810432 85.396301
-66.278748 40.869812 80.164566
-65.607704 42.609032 81.588501
-65.490463 49.241207 86.5634
-65.302383 44.337803 83.002823
-64.901817 46.536823 84.679871
-64.772919 39.273022 79.170776
-64.110886 40.970753 80.600433
-63.93961 47.884823 85.86248
-63.734726 43.068356 82.28936
-63.588062 49.780571 87.257042
-63.410252 44.857307 83.693382
-62.602139 39.384949 79.602936
-62.425259 46.27821 84.857559
-62.242786 41.411602 81.303596
-62.007839 48.524014 86.533714
-61.831722 43.62286 82.971077
-61.664921 50.380661 87.939621
-60.865704 44.96875 84.149338
-60.711475 39.9035 80.287315
-60.517105 46.832378 85.544838
-60.320667 42.030678 81.969337
-60.105072 49.049168 87.230637
-59.360291 43.350151 83.150475
-58.94416 45.565956 84.826042
-58.808105 40.453911 80.966263
-58.582516 47.466675 86.216774
-57.885532 49.261997 87.653099
-57.848522 41.763657 82.146774
-57.657612 38.893154 79.944847
-57.445236 43.922356 83.830666
-57.019512 46.1619 85.504753
-56.680908 40.255951 81.110893
-56.292294 48.051697 86.9188
-55.94558 42.292191 82.834511
-55.527248 44.493065 84.512764
-54.814083 46.324219 85.935486
-54.780949 40.773445 81.799171
-54.008556 42.925259 83.501274
-53.815887 47.744904 87.108681
-53.29076 44.761711 84.919487
-53.262745 39.225372 80.789215
-52.858456 41.35635 82.474739
-52.306435 46.12767 86.101379
-51.866383 42.746758 83.643692
-51.593964 47.940426 87.535011
-51.341415 39.801472 81.464401
-51.167263 44.508442 85.078949
-50.342091 41.208706 82.62693
-50.146835 45.985435 86.238174
-49.6464 42.9487 84.063606
-49.426342 47.812729 87.669968
-48.762764 39.988991 81.901306
-48.649147 44.340363 85.23806
-48.08065 41.674767 83.347481
-47.936279 46.132812 86.673721
-47.058887 43.140354 84.504074
-46.623158 39.795948 82.045876
-46.345627 44.924118 85.939278
-45.969936 46.808384 87.341011
-45.907475 41.581738 83.471504
-45.04966 44.089481 85.468124
-45.04607 40.41127 82.698883
-45.030334 42.305408 84.069252
-45.026085 46.018818 86.840965
-43.105328 41.005646 83.375214
-43.098949 44.703873 86.146111
-43.088982 39.227539 81.981621
-43.084854 42.908813 84.746658
-43.082054 46.605827 87.527756
-41.146381 39.821571 82.656898
-41.138985 41.670769 84.038063
-41.138905 43.501957 85.42794
-41.12373 45.386566 86.811394
-40.10556 46.804585 87.991318
-39.189812 42.26862 84.717194
-39.189198 40.450424 83.32634
-39.170818 44.154732 86.098366
-38.170509 45.505539 87.29071
-37.244747 39.217182 82.618088
-37.243412 41.031418 84.007889
-37.237255 42.865372 85.398239
-36.205109 44.308422 86.569267
-36.18961 46.177475 87.961555
-35.281914 39.846134 83.288071
-35.28175 41.651012 84.682831
-34.246784 43.09333 85.852249
-34.222721 44.978527 87.239273
-33.323284 40.449772 83.965225
-32.285992 41.889774 85.133362
-32.261051 43.767239 86.520187
-31.370691 39.23436 83.251259
-30.574076 44.783154 87.461143
-30.334829 40.660465 84.420654
-30.302124 42.551128 85.802696
-28.736471 39.490791 83.678238
-28.617706 43.551147 86.745499
-28.355066 41.302727 85.092789
-26.769905 40.087627 84.358841
-26.665747 42.310123 86.032455
-26.260015 44.193142 87.441238
-25.059166 41.154312 85.284081
-24.793356 38.937584 83.629074
-24.663059 42.998745 86.698936
-23.605862 44.458546 87.874329
-23.097336 39.951244 84.56427
-23.068964 41.800343 85.958229
-22.013834 43.245487 87.134827
-21.517883 38.721947 83.833145
-21.102062 40.606133 85.235275
-20.295523 44.304565 88.070831
-20.061255 41.999462 86.421097
-19.521875 39.374649 84.503242
-18.436098 40.894657 85.660072
-18.349371 43.031075 87.361313
-16.855358 39.661659 84.927116
-16.733423 41.89249 86.60582
-15.121713 40.744946 85.852974
-14.703506 42.612564 87.268753
-13.529623 39.543674 85.112343
-13.107751 41.413094 86.525482
-11.50256 40.245583 85.776222
-11.369825 42.48658 87.458984
-9.8971386 39.082249 85.026817
-9.7730513 41.288067 86.714615
-8.1678886 40.118103 85.964897
-8.0026112 42.438065 87.633423
-6.5362248 39.027225 85.199013
-6.4064212 41.23534 86.888893
-4.782608 40.115219 86.127525
-4.6602311 42.2985 87.827454
-3.4755621 40.869534 86.748207
-2.7818618 38.998535 85.383934
-73.291458 53.837826 88.400787
-70.438705 53.743599 88.924423
-68.551033 52.258705 88.264259
-68.53653 54.290386 89.621162
-66.650604 52.795242 88.961754
-65.075447 51.504967 88.242889
-64.728355 53.398235 89.647133
-63.166565 52.056606 88.937553
-62.168053 53.522678 90.10968
-61.017876 51.890923 89.081238
-60.013062 53.367416 90.252167
-59.447723 50.58699 88.364418
-58.456097 52.008553 89.54454
-57.802559 53.526966 90.690308
-56.87825 50.730263 88.821404
-55.863499 52.218464 89.989815
-55.313786 49.412037 88.107582
-55.211327 53.719898 91.141045
-54.296173 50.901649 89.273537
-53.63591 52.422516 90.418709
-53.143452 49.302174 88.239204
-52.131687 50.760109 89.412743
-51.683006 53.062862 91.101173
-50.575962 49.411449 88.70359
-50.201229 51.322239 90.109192
-49.520218 52.893616 91.24765
-48.604446 50.108097 89.370857
-47.942528 51.606308 90.522308
-47.572609 53.492504 91.94088
-47.482479 48.416134 88.354469
-46.455349 49.896118 89.524872
-45.985531 52.232887 91.208527
-45.299374 48.320698 88.483498
-45.051357 51.394188 90.714424
-45.026237 53.350311 92.101418
-44.345165 49.419468 89.373245
-43.091976 52.013763 91.402878
-43.045258 54.034367 92.779953
-42.388828 50.032066 90.060249
-42.06395 48.032864 88.707527
-41.11235 52.687531 92.082077
-40.421154 54.250252 93.231026
-40.417068 50.682945 90.741219
-40.070808 48.757671 89.370071
-38.999947 52.186859 91.935509
-38.387592 49.794361 90.313042
-38.307079 53.745102 93.085381
-38.127445 47.473804 88.664146
-36.984039 51.243225 91.51754
-36.432388 48.539989 89.599335
-36.283085 52.817066 92.663307
-35.392445 50.004528 90.780006
-34.698849 51.546043 91.930389
-34.483158 47.271973 88.889206
-33.442425 48.728909 90.069595
-33.261059 53.081345 93.124191
-32.746178 50.268658 91.218468
-32.534195 46.007454 88.179016
-31.8482 47.508556 89.330009
-31.688303 51.77137 92.397858
-31.25893 53.771568 93.805626
-31.165955 48.996597 90.487595
-30.101484 50.511589 91.662323
-29.888184 46.274517 88.612434
-29.674847 52.492477 93.071579
-29.125746 48.130657 90.054039
-28.102491 51.183163 92.34465
-27.949057 53.599667 94.013268
-27.848541 45.41835 88.177902
-27.410635 49.209358 90.992653
-27.098892 47.223679 89.629074
-26.371469 52.299984 93.282494
-25.694471 50.280235 91.936035
-25.568762 45.682129 88.594185
-25.364573 48.352192 90.556564
-24.630796 53.434704 94.220009
-24.327143 51.418728 92.849701
-23.860765 46.724335 89.537003
-23.644978 49.423862 91.499031
-22.579967 52.56395 93.784264
-22.208933 50.891533 92.708107
-22.14839 47.768936 90.482422
-21.906399 45.466858 88.822647
-21.881397 54.066845 94.955887
-21.443769 49.284645 91.640678
-20.453897 52.049534 93.640068
-20.173285 46.565632 89.755234
-19.729504 53.62154 94.797958
-19.683268 50.4575 92.566521
-19.398296 48.411732 91.206848
-18.568224 45.379593 89.006584
-18.241976 51.91856 93.78196
-17.788935 47.229347 90.455215
-17.637386 49.575832 92.133636
-17.515501 53.486843 94.941689
-16.97296 44.168575 88.263962
-16.255487 50.720631 93.048553
-16.19817 45.995785 89.71492
-16.064701 48.277218 91.403992
-15.546485 52.227127 94.21891
-15.034322 44.486561 88.651863
-14.788063 53.879551 95.364166
-14.45746 47.086365 90.653221
-14.313439 49.394745 92.341713
-13.586089 50.946251 93.501122
-13.299849 45.555046 89.592049
-13.00008 43.59161 88.223816
-12.840025 52.551823 94.65377
-12.713743 48.174694 91.595055
-12.100335 54.136578 95.814865
-12.003268 49.669094 92.764137
-11.568078 46.604816 90.539185
-11.254232 44.683689 89.158257
-11.249955 51.287537 93.912148
-10.49971 52.895287 95.066536
-10.481717 48.089752 91.726128
-9.7477837 49.643414 92.884331
-9.6528797 43.488453 88.410713
-9.5069113 45.769791 90.097076
-9.075592 54.126842 95.974403
-8.9901047 51.264702 94.03289
-8.4081316 47.281071 91.277885
-7.8792582 44.644043 89.333321
-7.6870441 48.787922 92.444839
-7.5838475 52.438213 94.949699
-6.9191189 50.429058 93.588547
-6.8056068 46.074799 90.528862
-6.2768531 43.449165 88.584679
-6.1496119 53.684799 95.855026
-6.0777092 47.593826 91.691429
-5.5153093 51.586506 94.507805
-5.322948 49.188545 92.842567
-5.1773419 44.946629 89.764442
-4.4560099 46.439083 90.930656
-4.1574526 54.083008 96.240173
-3.8913331 50.419315 93.745285
-3.791775 52.435371 95.146149
-3.7085869 48.004898 92.085854
-3.5482309 43.823734 88.999519
-3.497797 45.680576 90.415321
-3.4411688 42.672802 88.167488
-3.4338441 49.173943 92.941612
-2.7608099 47.211735 91.576279
-167.33966 69.648415 -9.0416327
-167.20741 67.659454 -9.9165459
-154.36221 59.499538 70.39315
-153.87831 61.086891 72.182953
-153.71985 56.248356 68.695427
-153.25392 57.592476 70.177521
-152.80077 58.863125 71.679794
-152.60632 54.401661 68.471146
-152.14777 55.697727 69.961014
-151.67819 57.054859 71.440514
-151.22026 58.342655 72.939278
-150.19734 55.592632 71.848419
-153.70712 62.748627 73.589706
-153.50952 64.699211 75.293282
-152.65884 66.511757 77.422112
-152.33029 60.227608 73.164413
-152.16518 61.842796 74.581276
-152.1404 68.288025 79.192772
-151.98369 63.551208 75.982018
-151.19078 64.754257 77.530174
-151.02142 66.392517 78.954689
-150.75488 59.671364 74.432312
-150.56209 61.42894 75.818497
-150.5157 67.948654 80.418106
-150.05605 62.981277 77.270683
-149.992 69.601738 81.865486
-149.70116 57.084656 73.299545
-149.56848 64.427452 78.750229
-149.35747 66.288002 80.128334
-149.09352 59.598328 75.592697
-148.92032 61.235294 77.007011
-148.84694 67.858421 81.590294
-148.23116 55.305511 73.068687
-148.06918 62.745289 78.486305
-148.0443 57.002708 74.459686
-147.88164 64.46122 79.892609
-147.6866 69.123192 83.155479
-147.43045 59.532784 76.75177
-147.35406 66.114784 81.333824
-146.91003 61.141769 78.190216
-146.6366 57.600212 75.808029
-146.54959 55.368057 74.195183
-146.37935 62.803768 79.622032
-146.18692 67.411423 82.889496
-145.96675 69.301666 84.27346
-145.84294 64.493645 81.052788
-145.47105 58.905212 77.3414
-145.10889 56.142387 75.502411
-144.94688 60.519253 78.779083
-144.66902 65.820534 82.599541
-144.63031 54.425838 74.500443
-144.43723 67.757652 83.970932
-144.41354 62.18063 80.211327
-144.21486 69.646805 85.357895
-143.94458 57.433464 77.036606
-143.8622 63.935287 81.628723
-143.40382 59.12553 78.455002
-143.16785 55.310375 75.782806
-142.91408 66.198845 83.672752
-142.87375 60.757484 79.891388
-142.66788 68.19989 85.033852
-142.32666 62.476849 81.313927
-142.09663 64.37899 82.685837
-141.98358 56.694981 77.29612
-141.4416 58.378319 78.716248
-141.12671 66.738594 84.713821
-140.88655 60.126961 80.127373
-140.54291 68.643463 86.115761
-140.54088 63.027092 82.347145
-140.49745 54.773521 76.383942
-140.30524 64.946167 83.718704
-139.96631 56.387318 77.815407
-139.71149 61.300453 81.345444
-139.40463 58.157661 79.217743
-139.12648 66.122383 84.947197
-138.73904 63.647202 83.367546
-138.53189 68.064835 86.341515
-138.50359 59.861404 80.656494
-138.00851 55.502495 77.752937
-137.90369 61.95533 82.355972
-137.65321 69.502052 87.506752
-137.42894 57.348293 79.138176
-137.1824 64.945137 84.586388
-136.95441 66.801712 85.979073
-136.71494 63.174107 83.570679
-136.70148 60.487617 81.671364
-136.27211 58.410648 80.376419
-136.05768 68.320976 87.125717
-136.03018 54.726154 77.666878
-135.47365 56.437733 79.080704
-135.16127 64.440346 84.796532
-135.15067 61.748878 82.8918
-134.9214 66.342255 86.180229
-134.7209 59.678314 81.590897
-134.26309 57.761131 80.262108
-133.99815 67.981201 87.302773
-133.90598 55.083313 78.395134
-133.59323 63.025497 84.113167
-133.34331 64.964912 85.486351
-133.20937 60.593845 82.528999
-132.70883 56.331116 79.590752
-132.44995 66.439873 86.640244
-132.42084 58.572819 81.235962
-131.64738 61.880287 83.746933
-131.39279 63.825184 85.117386
-131.19829 59.927986 82.417801
-131.13837 54.992943 78.900818
-130.86604 57.140621 80.563232
-130.63399 66.92421 87.342285
-130.1451 65.285667 86.290657
-129.82542 62.415356 84.43235
-129.63245 58.540676 81.733131
-129.34633 60.751507 83.394958
-129.30183 55.767151 79.879204
-128.93735 63.840702 85.592949
-128.60495 66.287704 87.224014
-128.17824 59.010582 82.411339
-128.17561 56.368256 80.508957
-128.16304 61.751141 84.303047
-128.12056 64.637901 86.174904
-126.64077 60.00795 83.33448
-126.61462 57.621761 81.727119
-126.60147 62.855564 85.209198
-126.59667 55.071941 79.808266
-126.58083 65.624893 87.11116
-125.10715 60.97134 84.267555
-125.07124 56.014454 80.736206
-125.06812 58.656528 82.640465
-125.05759 63.858532 86.139557
-125.00316 66.780312 88.015701
-123.54893 56.92749 81.673058
-123.54282 62.067581 85.175575
-123.51649 59.698368 83.555191
-123.48473 64.983955 87.047394
-122.70059 55.38747 80.633797
-122.0041 57.932865 82.592873
-121.96491 60.725578 84.475845
-121.9633 63.219189 86.075134
-121.90005 66.149498 87.950142
-121.16582 56.34523 81.561104
-120.43497 59.036777 83.494637
-120.39693 61.814342 85.386581
-120.38114 64.365929 86.978912
-119.61422 57.366028 82.477707
-119.5825 55.070625 80.853378
-118.85571 60.172283 84.392838
-118.80708 62.989635 86.282326
-118.80378 65.473053 87.893921
-118.05048 58.428555 83.38829
-118.03073 56.085327 81.769524
-117.29904 61.185661 85.319702
-117.20512 64.202698 87.173584
-116.47241 57.114952 82.68531
-116.47215 59.541397 84.291222
-116.0024 62.76265 86.471573
-115.69202 55.150928 81.37735
-115.18047 61.092247 85.444839
-114.88758 58.249962 83.581612
-114.11416 63.495457 87.123497
-114.11183 56.264801 82.274399
-113.60228 59.759579 84.7416
-113.29187 61.827324 86.093903
-112.93105 54.647354 81.265236
-112.83545 57.731163 83.43898
-112.20692 64.295937 87.76339
-112.01734 56.078869 82.416733
-111.71212 60.49688 85.388641
-111.40983 62.515923 86.754471
-110.95297 58.438721 84.089241
-110.8284 54.503006 81.397919
-110.13195 56.801308 83.061485
-109.81863 61.232433 86.037941
-109.49048 63.354843 87.38588
-109.3541 59.587925 84.988159
-108.95254 55.181717 82.049835
-108.54212 57.910149 83.965897
-107.92198 61.962929 86.690224
-107.45963 60.314262 85.638786
-107.36983 56.255302 82.958984
-106.64686 58.641178 84.613152
-106.58917 63.619583 87.833588
-106.18454 54.670353 81.939568
-105.86188 61.4263 86.551064
-105.468 57.014393 83.597969
-105.04808 59.756985 85.521606
-104.58026 62.711098 87.412766
-104.27512 55.460396 82.569679
-103.86066 58.163769 84.496529
-103.76805 61.031898 86.382263
-102.67283 56.583 83.471184
-102.43552 62.652832 87.533028
-102.25822 59.275066 85.406319
-101.92372 54.540264 82.172707
-101.63298 60.93795 86.508942
-101.09012 57.606247 84.396736
-100.34689 62.211468 87.37397
-100.31552 55.672752 83.07132
-100.10472 59.263298 85.514977
-98.990204 57.24213 84.220978
-98.761208 60.901718 86.659767
-98.727791 54.41473 82.354012
-98.015572 58.837658 85.352318
-97.410812 62.556362 87.806244
-97.392197 56.015903 83.49469
-96.673813 60.452778 86.502068
-96.416878 57.604179 84.625374
-95.798531 54.780159 82.771294
-95.378258 61.730942 87.367363
-95.08049 59.185711 85.779831
-94.81646 56.384144 83.896545
-93.4944 57.895954 85.063416
-93.437714 60.396896 86.675117
-93.242264 55.064606 83.189728
-92.433411 62.073574 87.800781
-91.903587 56.633881 84.342155
-91.841064 59.14143 85.94957
-91.154533 54.632542 83.027885
-90.847977 60.761635 87.084618
-90.26796 57.798882 85.243217
-89.526421 55.767155 83.931442
-89.278496 59.393539 86.381256
-88.615051 61.12923 87.476494
-88.18042 57.336277 85.087898
-87.364883 55.739162 84.042572
-87.17141 58.994671 86.212738
-86.592972 60.246544 87.048782
-84.656105 56.818642 85.01503
-84.642929 58.951046 86.347466
-84.638527 54.813538 83.661537
-84.62207 61.12141 87.678024
-82.705772 59.684395 87.004585
-82.69223 57.66478 85.645081
-82.678947 55.650429 84.289978
-81.149612 60.468441 87.995056
-81.131142 58.473766 86.626854
-81.123589 56.443859 85.271461
-79.696808 58.915195 88.046761
-79.650757 57.039871 86.655945
-79.637161 54.915508 84.963425
-78.30381 54.980125 86.457367
-76.959084 55.087662 87.942551
-135.17018 69.785484 88.287766
-132.13858 68.823067 88.289764
-130.0555 68.57972 88.447807
-126.57499 68.198853 88.706482
-125.00816 69.292099 89.628845
-123.42779 67.907845 88.929077
-121.82148 69.164894 89.819435
-120.32411 67.255127 88.868301
-118.71848 68.484428 89.764534
-117.19121 66.72718 88.782074
-116.82853 69.216873 90.424545
-115.61407 65.347786 88.082085
-115.28767 67.51889 89.427818
-113.71027 66.136047 88.726868
-113.40492 68.196571 90.098633
-112.77333 69.974319 91.1931
-111.8215 66.836113 89.391609
-111.19643 68.571091 90.492271
-110.30703 65.044937 88.415855
-109.67096 66.815903 89.505737
-109.05431 68.497757 90.618279
-108.15868 65.017807 88.530495
-107.76664 69.819069 91.485626
-107.5359 66.715057 89.63649
-106.19363 68.401657 90.786217
-105.94738 65.387375 88.922752
-104.90226 69.718369 91.655708
-104.61237 67.031601 90.07856
-103.95244 64.40358 88.516281
-103.32081 68.338676 90.947906
-102.66224 65.7052 89.38163
-101.37885 66.96595 90.258476
-101.0845 68.761658 91.334557
-101.08418 64.339706 88.675285
-99.795792 65.612846 89.547623
-99.143768 67.377899 90.64621
-98.996864 63.876629 88.520721
-98.477119 69.202225 91.737595
-97.702217 65.161873 89.39064
-97.048752 66.918076 90.491058
-96.387733 68.702873 91.590439
-96.111374 63.852436 88.671921
-95.464783 65.56839 89.778175
-94.808624 67.320854 90.881668
-94.145927 69.097427 91.984879
-94.026169 63.363434 88.52256
-93.367088 65.116776 89.621254
-92.707191 66.869232 90.724762
-92.037903 68.658173 91.8256
-91.78392 63.775063 88.907768
-91.126411 65.506927 90.013077
-90.457893 67.279907 91.114723
-90.199692 62.44743 88.192551
-90.079308 69.487663 92.476273
-89.53553 64.193893 89.292595
-88.889847 65.862717 90.412918
-88.496193 68.116943 91.762169
-87.956726 62.840736 88.581398
-87.301414 64.537376 89.693741
-87.181885 69.401199 92.645828
-86.919006 66.730881 91.052391
-86.598137 62.329197 88.399681
-84.643288 69.323334 92.794876
-84.621147 65.320854 90.386002
-84.620529 63.221657 89.02903
-84.591095 67.547806 91.723228
-82.986488 66.405983 91.324753
-82.71994 61.70784 88.368759
-82.711151 63.827694 89.718903
-82.657379 68.363899 92.73896
-81.472908 64.915253 90.997223
-81.18573 66.696495 92.444176
-80.941223 68.313057 93.928703
-80.883919 62.155979 89.449837
-80.053986 63.201836 91.076309
-79.856308 68.919846 95.673447
-79.815094 64.784981 92.560333
-79.588463 66.322517 94.057587
-79.468224 60.450195 89.530533
-78.673424 61.358223 91.182449
-78.448181 69.2229 97.137115
-78.447937 67.146927 95.756729
-78.430756 62.946999 92.662582
-78.329933 57.049213 88.163788
-78.158951 64.649841 94.124268
-78.104233 58.564674 89.648659
-77.226959 59.78545 91.234444
-76.938416 61.540131 92.67907
-76.691261 56.753971 89.393303
-76.642548 65.379982 95.498619
-76.63559 67.467667 96.873932
