# .PCD v0.7 - Point Cloud Data file format
VERSION 0.7
FIELDS x y z normal_x normal_y normal_z curvature
SIZE 4 4 4 4 4 4 4
TYPE F F F F F F F
COUNT 1 1 1 1 1 1 1
WIDTH 599
HEIGHT 1
VIEWPOINT 0 0 0 1 0 0 0
POINTS 599
DATA ascii
-99.597252 9.4574051 42.779705 -0.10145155 -0.72414607 0.68214434 7.3158117e-05
-99.477859 18.156372 51.718822 -0.086369351 -0.70319974 0.70572728 7.0073496e-05
-99.145744 20.650936 54.223766 -0.082902312 -0.69435149 0.71484864 8.8830398e-05
-99.117912 13.138025 46.704285 -0.093447968 -0.71335822 0.69454199 7.0620685e-05
-98.756371 10.677474 44.200329 -0.09366399 -0.72182602 0.68570727 8.0636106e-05
-98.583061 14.486991 48.149361 -0.093218952 -0.71076375 0.69722813 3.8774469e-05
-98.25386 16.945904 50.661446 -0.089424357 -0.70387483 0.70467275 2.8330582e-05
-97.950386 19.174978 52.899326 -0.082613207 -0.69837564 0.71094972 7.6645767e-05
-97.932922 21.774918 55.423401 -0.082652092 -0.69001871 0.71905923 6.5093329e-05
-97.544472 11.941074 45.676361 -0.087281235 -0.71851385 0.69001502 5.3660991e-05
-97.170113 9.5185242 43.199638 -0.090976834 -0.72083741 0.68710977 8.138558e-05
-97.072464 15.450962 49.320694 -0.091300234 -0.70671767 0.70158243 3.2230335e-05
-97.015182 13.272787 47.104137 -0.087259367 -0.71357018 0.69512856 4.5829594e-05
-96.723175 17.962467 51.855282 -0.088909805 -0.69950426 0.70907605 2.9675919e-05
-96.71447 20.526247 54.368095 -0.085892498 -0.69374985 0.71507609 3.5856556e-05
-96.398468 22.806221 56.605934 -0.085223354 -0.68805969 0.72063339 4.0069437e-05
-95.961784 10.783679 44.639294 -0.085281804 -0.71883559 0.68993026 3.377927e-05
-95.539223 16.459696 50.53392 -0.092188969 -0.70371652 0.70447737 2.9375327e-05
-95.499985 14.236604 48.291893 -0.08945439 -0.71196228 0.69649732 4.0016948e-05
-95.492676 19.293936 53.315342 -0.089467339 -0.69522887 0.71319908 4.1541181e-05
-95.438278 12.089879 46.065594 -0.087184019 -0.71767294 0.69090128 4.2922049e-05
-95.177109 21.561724 55.550758 -0.087283179 -0.69001293 0.71851641 3.9632716e-05
-95.14444 9.1243687 43.009853 -0.090513967 -0.71779901 0.69034201 6.4227963e-05
-94.656731 17.801378 51.97197 -0.093634173 -0.69779456 0.71015173 2.7578788e-05
-93.97583 22.635757 56.737892 -0.086073086 -0.68884844 0.71977764 4.0170798e-05
-93.969437 15.229432 49.50531 -0.09205807 -0.70896667 0.69921327 3.6155794e-05
-93.948593 20.334915 54.519081 -0.091140553 -0.69108409 0.71700513 2.2021983e-05
-93.934006 10.380162 44.461746 -0.092268147 -0.71649998 0.69146162 4.699485e-05
-93.918518 13.052399 47.269844 -0.091234103 -0.71574539 0.69237882 3.3036747e-05
-93.435867 16.574955 50.92424 -0.092605323 -0.70311713 0.70502394 3.4368873e-05
-93.410294 11.677449 45.892437 -0.093081951 -0.71744519 0.69036877 2.9992396e-05
-93.121796 18.812126 53.168983 -0.091864586 -0.69343406 0.71464151 3.4736007e-05
-93.09005 8.9553185 43.119961 -0.098712191 -0.71509093 0.69202727 2.58696e-05
-92.744354 21.412712 55.706657 -0.085657045 -0.68827873 0.72037172 3.8679682e-05
-92.401337 14.010717 48.455414 -0.092601418 -0.7130903 0.6949299 2.7716518e-05
-91.902283 17.569384 52.133755 -0.08940912 -0.69924659 0.70926756 5.6130906e-05
-91.896545 12.615651 47.090172 -0.092882603 -0.71558797 0.69231981 2.1608425e-05
-91.879257 10.199009 44.578934 -0.098857641 -0.71493918 0.69216281 1.3341662e-05
-91.861565 15.35378 49.900288 -0.089636073 -0.70751673 0.7009896 3.7352696e-05
-91.853256 22.788958 57.126148 -0.082358025 -0.68647271 0.72247666 4.0338389e-05
-91.574432 19.856653 54.366505 -0.087492697 -0.68886966 0.71958607 3.5929581e-05
-91.078758 8.4930525 42.948761 -0.10101933 -0.71428329 0.69252759 2.5737341e-05
-90.672951 21.254961 55.794922 -0.084588483 -0.68637425 0.72231245 3.2458447e-05
-90.365837 13.589162 48.307911 -0.08905369 -0.71114594 0.69738156 5.6594465e-05
-90.361862 11.144163 45.774105 -0.097036175 -0.71419567 0.69318777 2.3045804e-05
-90.360893 18.594751 53.321182 -0.087824471 -0.69304979 0.71552211 7.2918243e-05
-90.336807 16.331627 51.078259 -0.085964262 -0.70554996 0.70342976 4.7893805e-05
-89.859673 9.7513504 44.4147 -0.10055591 -0.71212047 0.69481891 2.1068792e-05
-89.831291 14.930297 49.716843 -0.085598245 -0.70793033 0.70107621 3.759818e-05
-89.754402 22.68503 57.264477 -0.080998383 -0.68481755 0.72419989 3.6921923e-05
-89.448853 20.01066 54.767872 -0.08404953 -0.68649673 0.7222591 3.8829916e-05
-89.143333 12.399204 47.240425 -0.092425279 -0.71166289 0.69641483 3.4858545e-05
-89.023201 8.307416 43.073124 -0.097868733 -0.71710473 0.69006127 5.0810318e-05
-88.786842 17.359049 52.297085 -0.081716761 -0.70052457 0.70893627 7.5002121e-05
-88.540993 21.4202 56.199398 -0.078896306 -0.68548143 0.72380406 4.0816642e-05
-88.331528 10.716017 45.619888 -0.093473136 -0.71067494 0.69728762 6.4880405e-05
-88.278816 15.964398 50.934002 -0.084445767 -0.70610958 0.70305008 5.6148361e-05
-88.261787 13.709285 48.675587 -0.085191369 -0.70814854 0.70090592 4.7935537e-05
-88.232559 18.755239 53.724705 -0.077803887 -0.6919924 0.7177003 6.8734167e-05
-87.637474 22.815996 57.62822 -0.076546274 -0.68381047 0.72563422 3.4737994e-05
-87.494987 9.273881 44.271049 -0.092929773 -0.71189862 0.69610703 6.6892826e-05
-87.324829 20.161497 55.148827 -0.07570333 -0.68601066 0.72364372 3.8237446e-05
-87.10656 11.984914 47.080547 -0.086236127 -0.71038401 0.69851124 5.4264416e-05
-86.747261 16.948835 52.111504 -0.077486485 -0.69943714 0.71048135 7.4696596e-05
-86.708153 14.739605 49.891544 -0.082029343 -0.70665312 0.70279008 5.1824205e-05
-86.616394 10.570816 45.694447 -0.088692255 -0.70935827 0.69924796 6.0064882e-05
-86.609444 13.040601 48.215935 -0.084053591 -0.70842415 0.70076483 6.6646404e-05
-86.588707 18.062794 53.227287 -0.074110679 -0.69434381 0.71581841 9.6705968e-05
-86.587173 8.3632803 43.474709 -0.090658426 -0.71460825 0.69363457 9.6812888e-05
-85.38649 11.852605 47.149693 -0.081638969 -0.70821792 0.70125872 5.9818442e-05
-85.372833 14.34953 49.664627 -0.0809182 -0.70525074 0.70432496 4.7082543e-05
-85.359406 19.18717 54.416267 -0.069821917 -0.68761581 0.72270983 3.4523258e-05
-85.359016 21.532604 56.645916 -0.067387298 -0.68442941 0.7259599 4.9639966e-05
-85.350243 16.874695 52.200077 -0.077815562 -0.69913566 0.71075767 0.0001062365
-85.049324 9.3521156 44.667362 -0.085026421 -0.71125484 0.69777447 6.5609034e-05
-84.20533 7.9375591 43.324451 -0.084004141 -0.71613336 0.69288987 8.6381493e-05
-84.13488 15.651933 51.123329 -0.07345514 -0.70310557 0.70728356 9.4846109e-05
-84.132072 20.307274 55.594059 -0.063040875 -0.68639922 0.7244876 3.7391917e-05
-84.130295 17.977827 53.366978 -0.067595698 -0.68872875 0.72186142 3.5049961e-05
-83.829788 12.88298 48.359097 -0.07477311 -0.70832437 0.70191574 6.5219858e-05
-83.833481 10.410784 45.873245 -0.077368908 -0.7075575 0.70240813 6.4118773e-05
-83.281029 14.239577 49.780552 -0.071608886 -0.70539904 0.7051869 6.2058869e-05
-82.913788 19.07481 54.521244 -0.063717335 -0.68629307 0.72452891 3.6672751e-05
-82.912239 21.419771 56.742916 -0.058451392 -0.68406588 0.72707593 3.124636e-05
-82.913445 16.740738 52.310688 -0.065242074 -0.69681716 0.71427548 9.8860342e-05
-82.668022 8.9265165 44.499973 -0.076195784 -0.71139246 0.69865328 6.3325308e-05
-82.611473 11.68681 47.284 -0.071585752 -0.70646232 0.70412123 5.2697957e-05
-81.766693 10.266622 45.93819 -0.07168857 -0.70744258 0.70312572 3.9423554e-05
-81.729431 15.260664 50.967106 -0.063182302 -0.70130497 0.71006018 9.1149202e-05
-81.701927 13.043407 48.739719 -0.065669879 -0.7069304 0.70422834 6.4741645e-05
-81.681389 20.20027 55.699921 -0.059741445 -0.68344432 0.72755402 4.8517511e-05
-81.676842 17.873203 53.493767 -0.05748878 -0.68982017 0.72169548 6.575208e-05
-81.126694 7.4767761 43.202 -0.073092349 -0.71464711 0.6956588 7.6728735e-05
-80.577652 8.8203611 44.614422 -0.069008425 -0.71016783 0.70064354 5.6050732e-05
-80.517349 11.586767 47.392666 -0.066376314 -0.70505434 0.70604038 5.3185351e-05
-80.47303 16.626209 52.397213 -0.058221005 -0.69483274 0.71681219 7.6517623e-05
-80.456825 18.978167 54.639923 -0.059897229 -0.68846661 0.72279137 8.5980457e-05
-80.133057 14.106395 49.930317 -0.060424615 -0.70315927 0.70846033 7.5942655e-05
-80.084526 21.354179 56.884418 -0.066333629 -0.68139881 0.72890401 0.0001729864
-79.669197 10.167106 46.059784 -0.06475956 -0.70715445 0.70409006 6.8976187e-05
-79.22982 17.776184 53.568035 -0.066704758 -0.69275951 0.71808535 0.00037575819
-78.955872 12.631861 48.57011 -0.063296303 -0.7041409 0.70723361 3.4379376e-05
-78.868629 15.475938 51.377216 -0.064639807 -0.69753695 0.7136358 0.00020709888
-78.863625 20.124371 55.804554 -0.086277857 -0.68853372 0.7201333 0.0012466846
-78.534286 8.441328 44.413528 -0.06125747 -0.71037638 0.70115125 5.8769983e-05
-78.111137 11.211736 47.219513 -0.065125436 -0.7057001 0.70551127 8.6469568e-05
-78.0392 14.017536 49.996891 -0.073514536 -0.70151478 0.70888478 0.00054789596
-77.626106 21.244616 56.976807 -0.14783147 -0.68777537 0.71082401 0.0046043415
-77.63269 16.600122 52.547596 -0.090494856 -0.69677067 0.71156943 0.00064880273
-77.626015 9.7952042 45.837898 -0.068448573 -0.70826077 0.70263195 0.00020417193
-77.624542 18.940636 54.752777 -0.1243805 -0.69381899 0.7095558 0.0035519614
-76.844551 12.564668 48.68174 -0.097684778 -0.70710987 0.70033371 0.00068369147
-76.809296 15.117703 51.153702 -0.12977512 -0.69923747 0.70314842 0.0039073639
-76.08255 8.3594923 44.513988 -0.086326949 -0.71023405 0.69865286 0.00034744749
-76.070854 19.918367 55.981934 -0.2549468 -0.68682647 0.68071783 0.0081175482
-76.066208 17.63953 53.734142 -0.20943992 -0.69644618 0.68661451 0.0055750557
-76.045662 10.87771 47.018353 -0.11333974 -0.70927101 0.69577062 0.0015897949
-75.591156 13.88021 50.130463 -0.18417324 -0.70148009 0.68850881 0.003930449
-75.588089 16.172337 52.364277 -0.22699918 -0.69311637 0.68470889 0.0099287992
-75.539604 21.2001 57.464603 -0.33461565 -0.6717149 0.66104281 0.010873958
-74.856468 9.4327459 45.704319 -0.1687894 -0.70905727 0.68475169 0.0053103073
-74.799591 12.152186 48.505192 -0.21343379 -0.70979804 0.67129481 0.0059097344
-74.583809 18.382122 55.037029 -0.38064274 -0.67601538 0.6322965 0.010584849
-74.119888 16.851091 53.664959 -0.38788319 -0.67385262 0.62927842 0.0079988036
-74.092819 14.701107 51.424061 -0.34522152 -0.68722558 0.63925666 0.011271767
-74.079453 19.71027 56.85556 -0.4432261 -0.65706033 0.60993546 0.0091563538
-74.03273 7.9573174 44.319447 -0.20007911 -0.71093845 0.67512494 0.0064227683
-73.975792 10.654211 47.133923 -0.25617251 -0.7074253 0.65997797 0.0096647739
-73.620209 13.174588 50.02697 -0.35448036 -0.68799514 0.63346529 0.0099241333
-72.968025 18.162296 56.208519 -0.50233996 -0.64320135 0.57818413 0.0052363966
-72.847191 9.0504847 45.881981 -0.33219066 -0.69934267 0.63335818 0.010246624
-72.85405 11.576053 48.758621 -0.39081523 -0.68982702 0.61072493 0.0085847611
-72.69931 15.258358 53.095703 -0.48258215 -0.65419209 0.58246869 0.0058095059
-72.528915 16.561386 54.866688 -0.51848924 -0.64133805 0.56558836 0.0028518089
-72.246429 13.692557 51.743393 -0.48949069 -0.65680176 0.57382965 0.0061764829
-71.809929 12.131478 50.411938 -0.49619982 -0.65986258 0.56426877 0.0039076172
-71.767387 9.7695379 47.501907 -0.45659003 -0.67667907 0.57769537 0.0058531519
-71.218987 16.691051 56.625465 -0.5113036 -0.6404497 0.5731867 0.0035047303
-71.125237 14.728137 54.293625 -0.52109754 -0.64296281 0.56132931 0.0023152241
-71.087173 7.4241548 45.327351 -0.46426633 -0.67760164 0.57050472 0.0057193246
-71.00618 10.609155 49.394924 -0.51775706 -0.65530145 0.55003232 0.0022305527
-70.687851 13.156761 52.959816 -0.52493465 -0.6446324 0.55578977 0.0016932783
-70.326431 8.300355 47.22073 -0.51241136 -0.65786266 0.55231673 0.0034774579
-70.253593 11.617731 51.629543 -0.50998402 -0.65690798 0.55556393 0.0035141525
-69.803474 15.080867 56.050488 -0.44376224 -0.66121179 0.6053791 0.0056175869
-69.581924 9.0468245 49.126797 -0.49833748 -0.66200292 0.55984896 0.003255093
-69.360023 13.57256 54.71888 -0.42496857 -0.6725952 0.60639733 0.0051769111
-68.994919 16.08436 57.618439 -0.35361797 -0.67537433 0.64760309 0.0049911677
-68.888329 12.054203 53.33543 -0.41998565 -0.67724335 0.60412914 0.0065084333
-68.830956 10.006364 51.044125 -0.44468763 -0.67631978 0.58725727 0.0059525417
-67.922531 14.085972 56.03775 -0.30356497 -0.68677449 0.66046083 0.0027466174
-67.456261 12.60178 54.662308 -0.29920745 -0.69381255 0.65510201 0.0024361671
-67.431046 10.477221 52.411983 -0.33579704 -0.69382513 0.63710344 0.0056442735
-67.358017 8.6097193 50.414928 -0.35979086 -0.69390637 0.62410486 0.0050704037
-67.048492 15.270538 57.524628 -0.24160287 -0.68646449 0.68588156 0.0015951588
-65.954323 13.378123 55.958271 -0.21214482 -0.69495368 0.68705428 0.00063219789
-65.949821 11.170234 53.698101 -0.2378183 -0.70281988 0.67044479 0.0018887189
-65.890274 9.2817717 51.721977 -0.25534064 -0.70453244 0.66217643 0.0020646441
-65.058868 14.629562 57.419231 -0.18383664 -0.68816179 0.7018891 0.00061008293
-64.430351 11.991721 54.944221 -0.1823082 -0.70228732 0.68817472 0.00037542108
-64.385071 10.057808 52.976254 -0.19494654 -0.70618683 0.68068719 0.00052615069
-64.330559 8.159976 51.010239 -0.20164916 -0.70895767 0.67581415 0.00058882567
-63.865925 13.324888 56.391972 -0.16739839 -0.69393301 0.70031601 0.00010229846
-62.855175 10.912133 54.220119 -0.16505198 -0.70385605 0.69092202 0.0001505859
-62.806038 8.9967489 52.26297 -0.16740765 -0.70872051 0.68537843 0.00020650789
-62.311127 14.250677 57.639694 -0.15215811 -0.68746769 0.71009612 4.5500379e-05
-62.292934 12.230117 55.673023 -0.15459262 -0.69868636 0.69853443 7.6243021e-05
-61.268524 7.6799541 51.242863 -0.15240929 -0.71250021 0.68492407 0.00010976478
-61.267952 9.872982 53.498997 -0.15043554 -0.7081309 0.68987864 7.6408025e-05
-60.746464 13.133729 56.894585 -0.14200014 -0.6927737 0.707039 6.9022695e-05
-60.711536 11.167555 54.945915 -0.14378043 -0.70252115 0.69699472 8.0848862e-05
-59.733646 8.5496149 52.462353 -0.14136414 -0.70948374 0.69039822 5.3242082e-05
-59.16243 12.074423 56.167694 -0.13319384 -0.69832832 0.70327806 7.3246716e-05
-59.160664 9.8771019 53.933849 -0.13424154 -0.70707637 0.69427848 4.9957369e-05
-57.751442 7.7628579 52.049973 -0.13167879 -0.71049911 0.69127095 5.5469016e-05
-57.607685 10.794987 55.146904 -0.12770274 -0.70407289 0.69855195 4.7512949e-05
-57.5853 13.050495 57.407436 -0.12532815 -0.69049019 0.71240687 0.0001012543
-57.180405 9.0902977 53.491371 -0.12622343 -0.70713443 0.69572312 3.6265381e-05
-56.035831 11.74557 56.393013 -0.12436532 -0.69698876 0.70621729 0.00010020308
-55.627838 7.8164544 52.46941 -0.12388071 -0.70815974 0.69510001 4.497404e-05
-55.617767 10.023805 54.71571 -0.12331017 -0.70691556 0.69646692 4.3987235e-05
-54.174374 12.369768 57.320953 -0.11642831 -0.69014466 0.71424657 7.6477379e-05
-54.063683 8.74827 53.694401 -0.1194462 -0.70696354 0.69709164 4.2938475e-05
-53.750576 10.639723 55.694717 -0.11627062 -0.70216256 0.70245987 8.8624052e-05
-52.51162 7.4743128 52.668316 -0.11336382 -0.70949507 0.69553262 4.9384871e-05
-52.208393 9.3474054 54.636971 -0.10938463 -0.70692545 0.69878048 9.47195e-05
-52.174171 11.607034 56.90387 -0.10629842 -0.69405812 0.71202976 0.00011950799
-50.955524 10.389095 55.86504 -0.10002237 -0.70189643 0.70522302 9.0815054e-05
-50.672527 7.8620453 53.354584 -0.10611571 -0.70725548 0.69894904 7.0455069e-05
-49.753437 9.1531572 54.788738 -0.098755434 -0.7034418 0.70386076 5.9260055e-05
-49.360218 11.407728 57.059818 -0.093946144 -0.69607008 0.71180141 4.5671601e-05
-48.533443 7.9497542 53.745678 -0.097955532 -0.70511115 0.70229965 5.3601834e-05
-48.142876 10.187112 56.017391 -0.092635371 -0.69921446 0.70888501 3.5307239e-05
-46.946152 8.9348354 54.945393 -0.096434973 -0.70043343 0.70717287 2.715592e-05
-46.895805 11.227201 57.200172 -0.093104802 -0.69714969 0.71085453 2.7181315e-05
-45.72757 7.7204981 53.911041 -0.094019689 -0.70428872 0.70366049 3.9000333e-05
-45.687031 9.9904709 56.146122 -0.092989974 -0.69815844 0.7098791 1.4296619e-05
-43.427219 8.6671524 55.148766 -0.090381153 -0.7009995 0.70741189 2.3672006e-05
-43.425808 10.670632 57.117321 -0.091247179 -0.69490975 0.71328467 2.6776581e-05
-41.813408 9.6921053 56.366024 -0.089151956 -0.69818991 0.71034002 3.0445906e-05
-41.808613 7.7110553 54.39991 -0.087504186 -0.7061854 0.70259976 3.2174161e-05
-40.203999 8.7139082 55.605228 -0.083569922 -0.70203465 0.70722461 3.7562713e-05
-40.192554 10.731432 57.580585 -0.083757773 -0.69408715 0.71500212 3.2099491e-05
-38.986416 7.515254 54.539413 -0.08320079 -0.70432794 0.7049824 5.5096552e-05
-38.584785 9.749157 56.810349 -0.082055897 -0.69783396 0.71154392 4.3101038e-05
-37.36615 8.5450592 55.749035 -0.08062432 -0.70170557 0.707892 5.1583098e-05
-35.771606 9.3370018 56.696091 -0.081104316 -0.70163256 0.70790827 4.7510683e-05
-34.263081 7.8093677 55.349449 -0.079489686 -0.70324165 0.70649487 5.9938753e-05
-33.907742 9.7643394 57.333572 -0.084173352 -0.70296955 0.7062248 4.4001747e-05
-32.377277 8.26019 56.026112 -0.082153089 -0.70519722 0.70423627 5.1105078e-05
-31.415277 9.5936012 57.489162 -0.081291609 -0.70211387 0.70741016 6.3108193e-05
-29.798429 8.6287842 56.71677 -0.080283836 -0.70190573 0.70773238 7.9168072e-05
-27.901381 9.0911798 57.393696 -0.075115085 -0.69878465 0.71137851 7.9963982e-05
-26.765686 7.5649948 56.002014 -0.071609303 -0.70470041 0.70588398 6.4530432e-05
-24.826923 8.0955477 56.706638 -0.070555851 -0.70027781 0.71037674 6.4012427e-05
-22.635303 8.2550974 57.06472 -0.074231483 -0.70118272 0.70910746 7.3972202e-05
-20.725363 8.7170696 57.752098 -0.078075677 -0.70084244 0.70903134 3.4503406e-05
-19.522165 7.4864407 56.668064 -0.073068872 -0.70357686 0.70685267 4.2343607e-05
-15.068239 7.8810358 57.448597 -0.061692923 -0.70408738 0.70742851 2.5902111e-05
-12.22991 7.4677668 57.302654 -0.059419826 -0.70764375 0.70406669 5.8488953e-05
-84.127083 22.671982 57.818974 -0.060210615 -0.68327057 0.72768039 3.5257504e-05
-81.310013 22.58523 57.943558 -0.058027554 -0.67926848 0.7315926 4.3684013e-05
-78.838409 22.516035 58.05864 -0.0960114 -0.68174499 0.72526538 0.0010687256
-77.001404 22.978777 58.715488 -0.21985789 -0.67876911 0.70080543 0.0056688073
-74.732391 22.211823 59.024841 -0.42784569 -0.65073258 0.6275481 0.0085733198
-73.673599 22.764288 60.685577 -0.50695586 -0.62355578 0.59525919 0.0039052037
-73.290077 20.66596 58.736515 -0.507873 -0.6348272 0.58237964 0.0041687237
-72.267311 21.060415 60.431137 -0.52064806 -0.62071353 0.58622211 0.0029136916
-72.19841 19.012621 58.113029 -0.53306413 -0.6261909 0.56901592 0.0017585253
-71.461334 22.161379 62.318413 -0.44728357 -0.6374436 0.62827682 0.0051037744
-70.869904 19.365789 59.874466 -0.44527212 -0.65043777 0.61630583 0.0044492576
-70.421707 17.788158 58.514545 -0.44324854 -0.65528619 0.61170119 0.0064686625
-70.054733 20.358063 61.42733 -0.36860099 -0.65832329 0.6564365 0.0040241666
-69.752419 22.318445 63.436085 -0.32370555 -0.65868014 0.67931616 0.0041584587
-68.995621 18.324415 59.872585 -0.32083258 -0.67253518 0.66750807 0.0040208912
-68.270134 20.749401 62.488239 -0.25120249 -0.66907501 0.69948077 0.001766636
-67.697136 22.128613 63.929665 -0.21564691 -0.66688716 0.71331418 0.00070311798
-67.498123 16.820936 58.904636 -0.24498408 -0.68506074 0.68606794 0.0013985946
-67.485733 19.108574 61.148411 -0.22440714 -0.67995816 0.69815284 0.00068882137
-66.239586 20.342093 62.64925 -0.18124081 -0.67419195 0.71597344 0.00027806475
-66.14431 23.053638 65.171104 -0.17137066 -0.6657722 0.72621083 0.00023498715
-65.971054 17.661551 60.147221 -0.18615535 -0.68527907 0.70418733 0.00063932652
-65.508293 16.164383 58.789425 -0.17986682 -0.68693966 0.7041198 0.00026431677
-65.06147 18.963797 61.623184 -0.16138399 -0.68118334 0.71410626 0.00021834907
-65.009537 21.381746 63.882118 -0.15726356 -0.67043108 0.72511661 0.00022229877
-63.950119 17.105026 60.035038 -0.15148197 -0.68523705 0.71239388 0.00011488618
-63.835785 19.989187 62.835201 -0.14143172 -0.67746502 0.72184569 0.00013132197
-63.50391 15.56686 58.643124 -0.15549338 -0.68702388 0.70980388 7.3013187e-05
-63.132065 22.051552 64.848991 -0.13484833 -0.66876543 0.7311433 6.2039886e-05
-63.034321 18.423237 61.491779 -0.14019446 -0.68067902 0.71904439 9.5315852e-05
-61.955051 20.675875 63.785084 -0.13027011 -0.67157412 0.72939605 3.0912041e-05
-61.932262 16.540422 59.896034 -0.1419834 -0.68280083 0.71667677 6.1495019e-05
-61.197399 18.818842 62.196163 -0.13232991 -0.67642272 0.72452855 6.9157373e-05
-60.755219 15.181787 58.857189 -0.14117487 -0.68315542 0.71649784 6.253078e-05
-60.703793 21.763287 65.008522 -0.12660953 -0.66910022 0.73230833 4.1050644e-05
-60.073112 17.155174 60.854698 -0.13400258 -0.67866844 0.72212088 7.6493736e-05
-59.959183 19.875006 63.386059 -0.12605664 -0.67264742 0.72914767 3.4322871e-05
-59.171349 14.108008 58.140934 -0.13087079 -0.68788147 0.7139281 8.7156135e-05
-58.887302 15.819209 59.821999 -0.12914294 -0.68067461 0.72111392 7.7024757e-05
-58.827538 18.222153 62.065044 -0.12653208 -0.67578906 0.72615623 4.9368715e-05
-58.717316 20.932241 64.588753 -0.12155123 -0.67052138 0.73186743 5.682027e-05
-57.760384 22.369959 66.028229 -0.11726178 -0.665824 0.73683679 2.1846261e-05
-57.647049 16.87084 61.019222 -0.12317451 -0.67819011 0.7244904 6.2191415e-05
-57.586235 19.279295 63.255543 -0.11907496 -0.67203826 0.73088247 4.9408922e-05
-57.290707 14.782083 59.097603 -0.12091561 -0.68260252 0.72071815 5.890194e-05
-56.627048 20.707754 64.716988 -0.11647419 -0.66903949 0.7340436 3.5181896e-05
-56.38792 17.962784 62.240589 -0.11570162 -0.67548084 0.72824425 5.5398457e-05
-56.045662 15.842858 60.291653 -0.11490817 -0.6803683 0.7238068 3.6306628e-05
-55.703285 13.729865 58.352097 -0.11686856 -0.68601114 0.71814442 5.2405358e-05
-55.648888 22.184099 66.192909 -0.11093563 -0.66553032 0.73808241 4.549501e-05
-55.442112 19.359562 63.670792 -0.11318095 -0.67191631 0.73192847 3.7379414e-05
-54.468014 20.8174 65.145821 -0.1084947 -0.66688186 0.73722309 5.1404477e-05
-54.449982 16.870426 61.503963 -0.11105238 -0.6787352 0.72593802 2.347175e-05
-54.447418 14.80519 59.567844 -0.11347364 -0.68106771 0.72337461 4.1951462e-05
-53.840828 18.315199 62.946732 -0.10832132 -0.67504311 0.72978342 3.5598503e-05
-53.502159 22.267187 66.583252 -0.10274174 -0.66440088 0.74028134 4.2921427e-05
-52.911922 13.451455 58.548088 -0.10922477 -0.68535662 0.71997011 6.3652646e-05
-52.873901 19.748676 64.411591 -0.10483202 -0.66906619 0.73577255 4.7287496e-05
-52.85989 15.814834 60.757759 -0.10836647 -0.67906851 0.72603297 3.3428052e-05
-52.243385 17.264256 62.216942 -0.10514778 -0.6767934 0.72862542 4.4631546e-05
-51.90831 21.193567 65.842499 -0.10057417 -0.6648407 0.74018359 3.7929622e-05
-51.662083 14.517129 59.728039 -0.10560232 -0.68022716 0.72535491 4.9819679e-05
-51.284679 18.682571 63.651325 -0.099779867 -0.67222184 0.73359525 2.4374633e-05
-50.916443 12.683096 58.09927 -0.10017356 -0.68912673 0.71768373 6.698964e-05
-50.908325 22.710585 67.323769 -0.098341085 -0.66401482 0.7412256 3.9419909e-05
-50.70388 15.918392 61.180393 -0.10411459 -0.67739904 0.72821307 4.7585607e-05
-50.303795 20.145542 65.117638 -0.09811198 -0.66731173 0.73828852 4.1519474e-05
-50.087921 17.375839 62.609089 -0.09781003 -0.67413515 0.73210353 1.7493538e-05
-49.667477 13.734715 59.288666 -0.099409968 -0.68619365 0.720595 6.7670924e-05
-49.316719 21.634521 66.565521 -0.096671976 -0.66422576 0.74125528 2.6003616e-05
-49.107494 18.829344 64.077217 -0.095750466 -0.6715135 0.73478037 3.2035721e-05
-48.693829 15.160522 60.758423 -0.094893761 -0.67888546 0.7280876 4.5016099e-05
-48.133171 20.281252 65.515091 -0.096204177 -0.6663118 0.73944443 3.0263813e-05
-48.103039 12.467078 58.263195 -0.094232872 -0.69216919 0.71555775 4.1867279e-05
-48.074417 16.627401 62.174004 -0.094403662 -0.67522603 0.73154515 2.2185792e-05
-47.512131 13.848621 59.679016 -0.094643369 -0.68514889 0.722229 6.2610954e-05
-47.133793 21.784193 66.986694 -0.096908338 -0.66557962 0.74000865 2.5835883e-05
-47.096622 18.069679 63.633148 -0.094532467 -0.67333817 0.73326844 3.0894e-05
-46.533512 15.284866 61.140148 -0.092837214 -0.67765516 0.72949821 4.3823227e-05
-46.123871 19.505814 65.076851 -0.096283667 -0.66947001 0.73657358 2.4738327e-05
-45.942383 12.586111 58.664803 -0.091791086 -0.69301361 0.71506155 5.6194454e-05
-45.900307 16.770033 62.57922 -0.095885381 -0.67537767 0.73121268 2.5052483e-05
-45.853577 22.916292 68.169876 -0.095886566 -0.66225803 0.74311519 2.8230945e-05
-45.325714 14.01462 60.109581 -0.091763243 -0.68448836 0.72322589 5.8245445e-05
-45.126553 20.995853 66.54406 -0.095408022 -0.66597164 0.73985076 1.5689744e-05
-45.038219 17.591183 63.46748 -0.094653532 -0.67429423 0.73237634 3.0094961e-05
-45.032059 11.665931 57.871014 -0.090604521 -0.69538969 0.71289849 2.7449318e-05
-45.003044 15.790543 61.802811 -0.09356714 -0.67745441 0.72959095 4.0822295e-05
-43.430038 22.410315 68.03672 -0.091736287 -0.66292864 0.74304169 1.8963477e-05
-43.42691 12.684991 59.072834 -0.088289589 -0.69094801 0.71749413 3.9312203e-05
-43.41523 14.740714 61.029106 -0.088735208 -0.68199152 0.72595894 5.3355674e-05
-43.41526 20.544413 66.364006 -0.091542423 -0.66620159 0.74013233 2.729956e-05
-43.403992 18.683266 64.677948 -0.090988182 -0.67314082 0.73389608 2.5027968e-05
-43.130768 16.243828 62.46558 -0.09029597 -0.6764456 0.73093688 3.6377955e-05
-41.852413 17.358582 63.641174 -0.087772138 -0.67508131 0.73250413 3.0408884e-05
-41.826382 21.354874 67.292099 -0.089393415 -0.66539615 0.74112111 2.6376769e-05
-41.806553 11.715237 58.327503 -0.08753752 -0.69188625 0.71668041 1.8477165e-05
-41.806316 19.50864 65.623024 -0.087517202 -0.67077005 0.73648381 3.0034882e-05
-41.789375 13.764936 60.303432 -0.086857602 -0.68673211 0.72170335 3.155123e-05
-41.526787 15.222239 61.709156 -0.086749978 -0.68049818 0.7275967 3.9274815e-05
-40.251144 18.187897 64.586945 -0.086287856 -0.67319554 0.73441333 2.5377281e-05
-40.232895 16.357662 62.909138 -0.086128697 -0.67771447 0.73026448 3.4713335e-05
-40.221413 22.201117 68.223824 -0.085657299 -0.66309273 0.74362051 2.0549734e-05
-40.174187 12.786681 59.54015 -0.083992206 -0.6897555 0.71915877 3.8143509e-05
-39.924839 19.97954 66.269096 -0.084960513 -0.6692214 0.73819017 2.9030922e-05
-39.915718 14.224093 60.950237 -0.083968267 -0.68422323 0.72442466 5.1295134e-05
-38.637821 17.17429 63.838497 -0.08793956 -0.67547899 0.73211688 2.4071913e-05
-38.633492 15.327991 62.14035 -0.087845214 -0.67978358 0.72813356 4.8532445e-05
-38.613762 23.049841 69.152237 -0.085946731 -0.66077882 0.74564409 2.9836119e-05
-38.607052 21.167522 67.485275 -0.087729596 -0.66527331 0.74142778 3.4857163e-05
-38.565472 11.791261 58.779747 -0.08606749 -0.69274056 0.71603316 4.8111899e-05
-38.364544 18.66238 65.243347 -0.088139124 -0.6711551 0.73605955 3.4422214e-05
-38.294632 13.242661 60.208706 -0.08933115 -0.68710208 0.72104931 2.6004245e-05
-37.070122 19.795967 66.434853 -0.09037438 -0.66842014 0.7382738 3.5540856e-05
-37.040966 16.12958 63.074169 -0.086940661 -0.6764977 0.73129505 3.7874561e-05
-37.018929 14.320295 61.404423 -0.08797574 -0.68223041 0.72582531 4.3929809e-05
-37.005753 21.994297 68.412361 -0.086182274 -0.6616376 0.74485546 3.3786353e-05
-36.949028 10.813938 58.025803 -0.085871831 -0.69667298 0.7122314 6.4354557e-05
-36.757599 17.625801 64.498581 -0.088285424 -0.67519379 0.73233873 4.483966e-05
-36.683205 12.242398 59.460247 -0.088428393 -0.6924572 0.71601945 6.3578191e-05
-35.45993 20.627172 67.386269 -0.08766973 -0.6637131 0.74283284 3.8605278e-05
-35.452969 18.768169 65.709381 -0.087956622 -0.67275667 0.73461789 4.7523012e-05
-35.425262 15.11896 62.338993 -0.086086713 -0.67883563 0.72922659 4.6103643e-05
-35.417725 13.298177 60.639282 -0.087047234 -0.68627715 0.72211307 4.5642322e-05
-35.402554 22.821777 69.336395 -0.087467939 -0.65974522 0.7463817 2.9013177e-05
-35.147636 16.607847 63.74062 -0.086135194 -0.67646748 0.73141885 3.2237967e-05
-35.07766 11.242742 58.690758 -0.085380517 -0.69807905 0.71091413 7.2700823e-05
-33.857819 17.718458 64.9291 -0.084598854 -0.6749965 0.7329551 3.2148415e-05
-33.824268 14.093917 61.569317 -0.081075877 -0.6819604 0.72688198 4.1907198e-05
-33.809521 21.73831 68.572105 -0.085287534 -0.66172796 0.74487919 3.7659614e-05
-33.800423 12.302426 59.901405 -0.082040027 -0.69138402 0.71781528 9.2845003e-05
-33.563061 19.234236 66.364952 -0.083930686 -0.67099637 0.736696 5.8011763e-05
-33.521656 15.616104 63.009007 -0.081060432 -0.67859799 0.73002338 3.5255816e-05
-32.645355 10.786086 58.538021 -0.082075 -0.70020014 0.70921469 7.3403055e-05
-32.243141 20.409687 67.570671 -0.081120469 -0.66501516 0.74241155 4.8507365e-05
-32.22488 16.735922 64.202148 -0.079212599 -0.6781919 0.7306034 3.699405e-05
-32.199574 13.111349 60.830959 -0.075776123 -0.68445152 0.72511101 5.8070113e-05
-32.162201 22.641203 69.546112 -0.081262298 -0.66088355 0.74607843 4.1069125e-05
-31.945349 18.223553 65.609947 -0.080604106 -0.67506647 0.73334056 3.5367804e-05
-31.924473 14.588998 62.222507 -0.075371474 -0.68132901 0.72808707 3.2955977e-05
-31.048946 11.575498 59.473869 -0.075129323 -0.69353628 0.7164945 6.7912653e-05
-30.633814 19.374269 66.809128 -0.078549415 -0.66963506 0.73852527 6.6487941e-05
-30.63167 21.253155 68.47728 -0.081156999 -0.66266418 0.74450666 3.9727114e-05
-30.612116 15.731702 63.430374 -0.076219499 -0.68066996 0.72861457 3.2135686e-05
-30.326216 17.221083 64.851204 -0.077452309 -0.67826772 0.73072189 3.6644509e-05
-30.292887 13.622344 61.478283 -0.075007401 -0.68347412 0.72611189 3.1020052e-05
-29.538971 10.033857 58.132114 -0.079490192 -0.69679445 0.71285504 7.3101517e-05
-29.138586 12.079316 60.140877 -0.07448744 -0.68917227 0.720761 4.5439388e-05
-29.013346 18.368511 66.05072 -0.07950452 -0.6747843 0.73372233 5.1933512e-05
-29.010475 20.226194 67.743546 -0.082256272 -0.66634178 0.74109709 5.353881e-05
-28.984539 14.751936 62.681442 -0.077473044 -0.6817081 0.72751129 3.3952703e-05
-28.710682 16.218649 64.080902 -0.079622537 -0.68050349 0.72840667 3.0444487e-05
-28.6954 21.795597 69.171143 -0.082175657 -0.66140264 0.74551594 2.7430227e-05
-27.936895 10.829331 59.06456 -0.074218392 -0.69330013 0.71681827 6.2587511e-05
-27.841963 13.187393 61.325336 -0.076307535 -0.68593043 0.72365558 2.6137861e-05
-27.400324 19.190786 66.980942 -0.081733912 -0.67059493 0.73730904 3.4459285e-05
-27.382084 17.379652 65.310333 -0.082277194 -0.67897624 0.72953677 3.0665567e-05
-27.099569 20.719641 68.403023 -0.080344051 -0.66362035 0.74374384 5.9598497e-05
-27.079744 22.63365 70.083328 -0.077988632 -0.65963274 0.74753112 2.5401969e-05
-27.079771 15.238793 63.338142 -0.079260767 -0.68227917 0.72678292 3.2279473e-05
-26.643896 11.916162 60.259232 -0.074676722 -0.69034052 0.71962219 3.8766462e-05
-26.007868 9.5673409 58.030693 -0.071191326 -0.69815272 0.71240157 6.015355e-05
-25.94364 13.654928 61.984512 -0.077440105 -0.68658596 0.72291356 2.4912224e-05
-25.775339 16.353874 64.53553 -0.080849707 -0.68154687 0.72729474 2.2690727e-05
-25.486464 19.678148 67.655884 -0.08081957 -0.66683292 0.74081218 6.1153311e-05
-25.485371 17.840462 65.962891 -0.081023566 -0.67667341 0.73181379 3.4371773e-05
-25.465992 21.584656 69.33696 -0.079083949 -0.66003132 0.74706429 3.0051955e-05
-25.003792 10.973838 59.512482 -0.07313516 -0.69607663 0.71423292 4.7897855e-05
-24.739338 12.397559 60.916618 -0.07525377 -0.6897077 0.72016692 3.2009739e-05
-24.629763 14.783398 63.188511 -0.077281564 -0.68440294 0.72499686 2.9871877e-05
-23.871849 16.821722 65.197449 -0.077722639 -0.68021005 0.72888553 3.3209402e-05
-23.865719 18.655502 66.911209 -0.076510511 -0.67103916 0.73746568 7.4860334e-05
-23.848358 20.550323 68.587479 -0.075252816 -0.66273344 0.74506682 3.5092849e-05
-23.847437 9.475071 58.136673 -0.072498508 -0.6982041 0.71221888 5.4415599e-05
-23.517906 22.143221 70.020416 -0.075250015 -0.65929866 0.74810624 3.2937158e-05
-23.419657 13.532502 62.123726 -0.075448513 -0.68725878 0.72248429 2.5830572e-05
-23.106632 11.443631 60.15498 -0.074301332 -0.69374442 0.71637863 3.9549963e-05
-22.713776 15.27398 63.858341 -0.073348656 -0.68448395 0.72533017 2.6835291e-05
-22.24411 19.501686 67.811852 -0.07003656 -0.66595846 0.74269485 3.6543934e-05
-22.245672 17.648825 66.143684 -0.071154118 -0.67513746 0.73425293 4.9217939e-05
-21.943451 9.9389944 58.806175 -0.078387909 -0.69816929 0.71162838 3.3743068e-05
-21.90476 21.099054 69.259697 -0.071297951 -0.66280216 0.74539268 3.2731692e-05
-21.790176 12.561204 61.366241 -0.073517792 -0.68887174 0.72114581 3.5319637e-05
-21.597488 22.645823 70.669487 -0.071219765 -0.65917695 0.74860901 4.0227325e-05
-21.503122 14.02706 62.785477 -0.070611268 -0.68619937 0.72397834 1.740219e-05
-21.100182 16.081465 64.782593 -0.070358403 -0.6828621 0.72715145 2.7285058e-05
-20.64982 11.003692 60.008102 -0.075313747 -0.69286692 0.71712273 4.8280261e-05
-20.607721 18.511049 67.072098 -0.06692563 -0.67059928 0.73879886 3.0360256e-05
-20.284771 20.072227 68.50238 -0.067555688 -0.66496676 0.74381155 3.8304264e-05
-19.979887 21.613209 69.903236 -0.066699393 -0.66173857 0.7467621 4.0217994e-05
-19.887823 13.032212 62.007614 -0.069853336 -0.68611312 0.72413379 3.1663349e-05
-19.888121 14.831834 63.712818 -0.069890261 -0.68498528 0.72519726 2.3275677e-05
-19.46583 16.923838 65.720856 -0.066516422 -0.67809033 0.73196274 3.8294827e-05
-19.444494 9.76511 58.929531 -0.073313177 -0.69857854 0.71176869 4.2030664e-05
-18.733219 11.488171 60.674389 -0.070484042 -0.68962592 0.72072756 5.3641994e-05
-18.666462 19.058641 67.723198 -0.066173486 -0.66840029 0.7408542 3.2386401e-05
-18.341551 20.621088 69.154503 -0.066233933 -0.664047 0.74475163 3.9821625e-05
-18.259516 15.659083 64.646828 -0.067641683 -0.68238151 0.72786009 3.1573985e-05
-18.244564 13.879978 62.961044 -0.068481252 -0.68529838 0.72503585 2.3258213e-05
-18.221272 8.5654449 57.860165 -0.069538251 -0.70135033 0.70941699 3.7380985e-05
-18.017384 22.19146 70.578049 -0.065860853 -0.65957081 0.74875158 4.1367239e-05
-17.528666 10.244055 59.596951 -0.066600502 -0.69596148 0.71498591 7.1351649e-05
-17.528399 17.455072 66.379166 -0.069225207 -0.67373329 0.73572749 4.4822053e-05
-17.107388 12.31677 61.59153 -0.066588908 -0.68665779 0.72392577 2.9081972e-05
-16.71666 19.603317 68.398132 -0.067417271 -0.66657019 0.74238813 2.9042218e-05
-16.395426 21.16188 69.818298 -0.06797535 -0.66084522 0.74743855 3.7291811e-05
-16.330044 16.167164 65.306862 -0.066075094 -0.68096501 0.72932917 5.2218962e-05
-16.323948 14.375454 63.611252 -0.064825915 -0.68432933 0.72628671 2.654506e-05
-16.293293 9.0662613 58.531113 -0.064124845 -0.70034367 0.71092105 3.6052985e-05
-16.056873 22.760813 71.247292 -0.066729754 -0.65672565 0.75117183 2.5251866e-05
-15.898483 11.070659 60.524769 -0.063364349 -0.69095737 0.72011322 4.4185388e-05
-15.585268 17.983202 67.050667 -0.064389177 -0.67218179 0.73758113 3.8522525e-05
-15.161671 12.84959 62.26722 -0.062569298 -0.68535322 0.72551864 2.5774241e-05
-14.772546 20.136116 69.059448 -0.066339798 -0.66437292 0.74445182 2.522395e-05
-14.699128 15.19223 64.531464 -0.065070026 -0.68388617 0.72668129 2.8258613e-05
-14.688875 9.8416367 59.443382 -0.062673636 -0.69700688 0.7143203 4.7340072e-05
-14.45317 21.693151 70.471123 -0.065803334 -0.6588679 0.74937516 3.2522104e-05
-14.386634 16.697763 65.971527 -0.063191175 -0.67716014 0.73311853 4.0267321e-05
-13.963047 11.590622 61.181107 -0.061644699 -0.68925858 0.72188824 2.747518e-05
-13.650261 18.507957 67.68959 -0.062876552 -0.67109001 0.73870498 3.2023516e-05
-13.546057 13.653116 63.171642 -0.062380027 -0.68632197 0.7246179 2.7862638e-05
-13.457023 8.6552515 58.377129 -0.061434574 -0.70249814 0.70902985 3.3311931e-05
-12.81285 20.695658 69.725601 -0.062495254 -0.66284138 0.74614775 2.8165739e-05
-12.750947 10.353026 60.113956 -0.06035253 -0.694215 0.71723318 4.7512749e-05
-12.733134 15.748162 65.226067 -0.060047284 -0.68221265 0.72868431 5.3297932e-05
-12.475873 22.280893 71.154999 -0.061366215 -0.65721792 0.75119829 3.6862799e-05
-12.435172 17.241695 66.634018 -0.059752494 -0.67557645 0.7348665 5.1124953e-05
-12.329596 12.417845 62.103806 -0.06067786 -0.68681961 0.72429079 2.890187e-05
-11.672072 19.091135 68.380051 -0.059299413 -0.66904205 0.74085611 4.4102246e-05
-11.59669 14.184707 63.842964 -0.059679542 -0.68573052 0.72540492 3.9234568e-05
-11.537812 9.1375208 59.026798 -0.060341328 -0.69950306 0.71207762 3.4592649e-05
-11.112302 11.187451 61.037125 -0.05806331 -0.68986464 0.72160649 3.3151337e-05
-10.85018 21.26277 70.38063 -0.055578914 -0.66071486 0.74857783 3.2152886e-05
-10.804469 16.259392 65.855255 -0.056273893 -0.67923057 0.73176473 4.7526326e-05
-10.502766 22.870033 71.810043 -0.054955717 -0.6540544 0.75444883 1.5234169e-05
-10.481469 17.787075 67.292122 -0.057047661 -0.67435086 0.73620445 6.4401262e-05
-10.374871 12.953691 62.78075 -0.057440281 -0.68607974 0.72525537 4.1785748e-05
-10.313757 7.9432549 57.948978 -0.057595376 -0.70550168 0.70636421 6.6416738e-05
-9.903492 9.9515686 59.958111 -0.055852722 -0.69437301 0.71744788 5.7925266e-05
-9.7231522 19.635742 69.017899 -0.055499744 -0.66523844 0.74456567 3.4112345e-05
-9.650569 14.714812 64.497551 -0.05420737 -0.68423021 0.72724879 3.409171e-05
-9.1735897 11.707005 61.683987 -0.053019125 -0.68924356 0.72258729 3.4434459e-05
-8.8818979 21.838947 71.030922 -0.056790978 -0.65868777 0.75027305 4.3587235e-05
-8.8499813 16.801361 66.513931 -0.055701215 -0.67731935 0.73357809 5.3004776e-05
-8.672718 8.7617331 58.887199 -0.051874716 -0.70001894 0.71223813 4.3565862e-05
-8.5026093 18.368608 67.970558 -0.054338664 -0.67106843 0.73940182 5.0074465e-05
-8.445219 13.467683 63.403919 -0.052340731 -0.68711388 0.72466207 2.4846793e-05
-7.9444995 10.499919 60.620934 -0.050420325 -0.69317377 0.71900505 3.9827166e-05
-7.7435527 20.222311 69.686913 -0.054000083 -0.66352791 0.74620092 3.8402195e-05
-7.6807618 15.274246 65.174751 -0.050759435 -0.68310153 0.72856027 5.2502768e-05
-7.2074738 12.262466 62.354465 -0.051357765 -0.68754339 0.72432494 3.8559556e-05
-6.889842 22.444818 71.70742 -0.051985841 -0.65608895 0.75289112 3.8722748e-05
-6.8699813 17.383638 67.1875 -0.05015875 -0.67584664 0.73533434 6.3390697e-05
-6.742394 9.2711439 59.516956 -0.044923592 -0.69950521 0.71321732 6.3591477e-05
-6.556129 18.908878 68.594551 -0.050385147 -0.66920191 0.74137217 5.3230026e-05
-6.4662519 14.042237 64.082954 -0.048743736 -0.68394285 0.72790575 3.4145345e-05
-6.0055785 11.01991 61.256603 -0.047969777 -0.69299549 0.71934587 6.6227571e-05
-5.9183354 7.8419724 58.146439 -0.041162796 -0.7040121 0.70900112 5.5678811e-05
-5.7531333 20.824675 70.357895 -0.04965448 -0.6617884 0.74804711 6.0789727e-05
-5.7248931 15.832201 65.804321 -0.049671639 -0.68217272 0.72950369 3.5872454e-05
-5.2535496 12.803035 63.001091 -0.054835416 -0.68834478 0.72332919 4.9518363e-05
-4.9072289 17.937513 67.836967 -0.047191415 -0.67304438 0.73809636 8.5948574e-05
-4.7599845 9.8458128 60.196278 -0.042004511 -0.70042872 0.71249437 7.7885845e-05
-4.5600972 19.509193 69.280312 -0.043247871 -0.66633159 0.74441981 9.8957564e-05
-4.5091667 14.589108 64.72628 -0.055042677 -0.68319798 0.72817832 2.7763022e-05
-4.3935304 22.040195 71.515312 -0.038815428 -0.65947628 0.75079268 5.582493e-05
-4.0404611 11.572246 61.915001 -0.056354932 -0.69298714 0.71881729 7.3058967e-05
-3.9653606 8.3889332 58.780918 -0.037641346 -0.70319319 0.71001697 5.8930003e-05
-3.7424192 16.404953 66.482765 -0.037516117 -0.68067133 0.73174572 5.5851702e-05
-3.4974303 17.602922 67.610741 -0.03289295 -0.67672288 0.73569471 9.5578187e-05
-3.4917562 10.673708 61.085796 -0.042141516 -0.70004284 0.71290994 9.3236013e-05
-3.4853792 12.444103 62.798798 -0.055978637 -0.6917578 0.71996975 5.1152037e-05
-3.4801476 22.718231 72.152504 -0.0045283008 -0.65576643 0.75609088 8.4616935e-05
-3.4728112 21.096376 70.72403 -0.027201209 -0.66100711 0.75008422 5.426216e-05
-151.76912 29.460552 42.267776 0.67303258 0.63111937 -0.38603196 0.00028955069
-150.98318 27.175255 39.75774 0.68872935 0.63181478 -0.35573611 0.00018698466
-150.43254 25.418419 37.782806 0.69542229 0.62111378 -0.36144504 0.0001026874
-150.35332 27.646952 41.767063 0.67838949 0.62713075 -0.38279369 0.00026827535
-150.1954 23.480692 34.7985 0.67277241 0.65540045 -0.34418091 0.00014526282
-149.55019 25.427174 39.583134 0.70059037 0.61811078 -0.35764435 0.00018736284
-149.32068 23.680872 36.9021 0.68932611 0.63348883 -0.35150772 0.00014214714
-148.88736 25.895149 41.576351 0.66976517 0.6297766 -0.39378455 0.00060113653
-148.38533 23.639139 38.692867 0.67822659 0.63753814 -0.36565334 0.00044764095
-147.77519 24.151285 40.695183 0.65252906 0.64512795 -0.39751637 0.0006554508
-146.51334 24.084705 42.500233 -0.5990811 -0.66653925 0.44370437 0.00092957413
-153.07477 38.232357 52.253372 0.67218983 0.57453108 -0.46751371 0.00019915416
-152.70622 34.350365 47.970436 0.66710949 0.5917598 -0.45270723 0.00047702924
-152.66812 35.983334 50.068588 0.65418738 0.58902115 -0.47447783 0.00025997267
-152.29733 31.722515 44.83548 0.65432668 0.62629724 -0.42395487 0.00024807305
-152.23369 32.854263 46.653824 0.65068233 0.62112761 -0.43726391 0.00043617398
-151.6629 36.209648 51.780327 0.65676177 0.58215684 -0.47946337 0.00028637936
-151.58316 37.59613 53.562962 0.65687668 0.57253355 -0.4909862 0.00035735656
-151.24707 33.761181 49.284206 0.65692168 0.59779876 -0.45950779 0.00032575053
-151.13614 30.079863 44.249748 0.66724509 0.61885965 -0.4145484 9.3984178e-05
-150.85616 38.449551 55.470848 0.63171977 0.57714319 -0.51787966 0.00064132287
-150.77673 30.972145 46.141487 0.65850943 0.61668974 -0.43146533 0.0002051112
-150.70187 32.141991 47.946835 0.65248936 0.60967052 -0.45007759 0.00034267016
-150.51949 34.476196 51.206646 0.63794309 0.59826583 -0.48502895 0.00041929848
-150.14153 35.561508 53.069256 0.62410164 0.59896702 -0.50175971 0.00062057411
-149.72931 36.734806 54.901199 0.60024387 0.59685707 -0.53241813 0.00088966638
-149.72594 32.885918 50.269413 0.62579834 0.61153316 -0.48415738 0.00053116807
-149.65321 29.160936 45.261379 0.65599149 0.62257904 -0.42672837 0.00015249783
-149.55238 38.64069 57.226631 -0.58492893 -0.5944342 0.55182356 0.0014029767
-149.28351 30.046843 47.148373 0.63902354 0.62209433 -0.45250094 0.00057242368
-149.13387 27.283669 43.312054 0.66267598 0.62697178 -0.40961677 0.00030179109
-148.98677 33.894016 52.475754 -0.59299946 -0.61855638 0.51553446 0.0014479052
-148.88164 31.027088 49.002361 -0.61790681 -0.62360561 0.47887614 0.00050581142
-148.58917 35.093422 54.313881 -0.5674991 -0.61989021 0.54193836 0.00091266038
-148.43065 37.050659 56.649834 -0.54620177 -0.61599696 0.56764543 0.0017660786
-148.16367 27.670883 45.345558 0.62851059 0.63615221 -0.44760349 0.00050897937
-147.91855 31.437723 50.705414 -0.57081741 -0.63592917 0.51940954 0.0011602704
-147.80861 28.630522 47.226238 -0.60175729 -0.64189166 0.47525468 0.00096299883
-147.69051 25.816383 43.418037 -0.63380259 -0.64164269 0.43234664 0.00096399186
-147.4238 33.54319 53.696396 -0.52953959 -0.63939691 0.55748904 0.0010381478
-147.24278 35.452518 56.008011 -0.50139976 -0.63519275 0.58748353 0.0012125007
-147.10396 29.429779 49.139072 -0.55704981 -0.64792061 0.51953638 0.0021264632
-146.90155 31.972088 52.35545 -0.51978385 -0.64851433 0.5561071 0.0011227438
-146.65131 27.098736 46.619766 -0.57156944 -0.65921664 0.48861635 0.0012001968
-146.13902 25.250271 44.668472 -0.56878126 -0.67005867 0.47703281 0.0010677261
-146.09793 30.001633 50.791023 -0.50774956 -0.65829265 0.55573642 0.001697912
-145.79395 33.615528 55.155964 -0.45698234 -0.65493852 0.60188091 0.0013627369
-145.63783 27.784538 48.581257 -0.50893342 -0.66936713 0.54124814 0.0013087388
-145.32738 34.950016 56.918079 -0.42849362 -0.65462607 0.62278616 0.00080558407
-145.27312 32.043617 53.81086 -0.44737926 -0.66566646 0.59733701 0.0009969814
-144.9821 23.667316 43.737156 -0.53734553 -0.68780643 0.48807791 0.0013988094
-144.84419 25.491913 46.403412 -0.5049988 -0.68564564 0.52430326 0.0010614278
-144.76291 30.525904 52.481522 -0.44276723 -0.67009163 0.59576601 0.00062219135
-144.60478 28.437449 50.200176 -0.46018067 -0.67661095 0.57484072 0.00081689924
-144.11427 26.475353 48.267887 -0.46321023 -0.68603396 0.56113493 0.00091297401
-143.89816 32.721394 55.458645 -0.39409992 -0.66987813 0.6292575 0.00084279221
-143.67065 23.968031 45.450676 -0.47979912 -0.6991024 0.53018171 0.0013499494
-143.42876 34.156963 57.223713 -0.36798155 -0.66716629 0.64769149 0.00053984585
-143.3638 31.112251 54.081635 -0.39138186 -0.67528415 0.62518692 0.00066086638
-143.2496 29.058107 51.864441 -0.40487033 -0.68207598 0.60897702 0.00070010405
-142.95204 24.972239 47.327915 -0.43817005 -0.70039487 0.56345946 0.00088000536
-142.76613 27.059122 49.933659 -0.40781203 -0.68800843 0.60030222 0.0005478739
-142.01196 31.695808 55.461208 -0.34619677 -0.67961133 0.64677465 0.000574456
-141.85524 29.748249 53.475159 -0.35748029 -0.68459713 0.635306 0.00063316087
-141.59145 25.56074 48.979263 -0.38795376 -0.69952995 0.60014695 0.00059925992
-141.5193 33.127052 57.170963 -0.32355902 -0.67423421 0.66386747 0.00055185606
-141.4303 23.558798 46.694977 -0.40562931 -0.71042866 0.57511771 0.00064189709
-141.37973 27.748642 51.551079 -0.36153635 -0.69147062 0.62550563 0.00051679171
-140.19586 26.244122 50.576057 -0.34408173 -0.69627643 0.6299271 0.0006021802
-140.14397 30.20051 54.816734 -0.30872142 -0.68650818 0.65833879 0.00044275966
-140.05533 24.182755 48.318127 -0.35862234 -0.70873374 0.60753763 0.00045579585
-139.98752 31.807796 56.53854 -0.29501164 -0.68004036 0.67121083 0.00033394463
-139.98137 28.551157 53.169216 -0.31675854 -0.69000912 0.65086043 0.00040977675
-138.78955 27.07246 52.175533 -0.30031639 -0.69552612 0.65279806 0.00042883254
-138.66913 24.949051 49.943657 -0.31519341 -0.70417422 0.63631064 0.00057483057
-138.43987 30.520758 55.86792 -0.27589694 -0.68445557 0.67484176 0.00017986418
-138.27751 28.823231 54.199409 -0.28299612 -0.68763989 0.66862929 0.00017403124
-138.15884 23.249418 48.283627 -0.31610015 -0.71501237 0.62359798 0.00036346712
-137.31837 31.610643 57.396252 -0.25401396 -0.67833626 0.68945664 0.00023361159
-137.24332 25.824278 51.508736 -0.28142378 -0.69883043 0.65762931 0.00030007548
-137.08235 27.397192 53.209911 -0.2716091 -0.69393033 0.66685206 0.00013423961
-136.77158 23.855724 49.589756 -0.28002667 -0.7114563 0.64452744 0.00019210913
-136.56253 29.191793 55.240715 -0.25705531 -0.68603081 0.68065107 8.0031918e-05
-135.76286 30.364065 56.710712 -0.23855552 -0.68141943 0.69192696 0.00014301385
-135.53322 26.16885 52.544136 -0.25334787 -0.69865072 0.66910762 0.00019788116
-135.3685 27.750172 54.244709 -0.2465516 -0.69183677 0.67865717 0.00020577811
-135.36615 24.537287 50.882996 -0.25336498 -0.70617694 0.66115856 0.00014722784
-134.56726 28.934027 55.716965 -0.23217539 -0.68471867 0.69083768 0.00016848245
-133.81107 26.528412 53.542671 -0.23124894 -0.69763798 0.67812037 0.00016950846
-133.64604 24.877184 51.868782 -0.23286107 -0.70562232 0.6692332 0.000113626
-133.1244 29.752668 56.969749 -0.21184605 -0.68110859 0.70087719 0.0001792988
-133.12286 23.449495 50.528351 -0.231024 -0.71170306 0.66340607 0.0001133769
-133.0079 27.728807 55.023857 -0.21709232 -0.69029868 0.69018835 0.000153644
-131.9157 25.330858 52.914059 -0.210403 -0.70230067 0.68008304 0.00015316303
-131.56093 28.573044 56.287704 -0.19472679 -0.68484366 0.70219612 0.00015201401
-131.39632 23.851168 51.533569 -0.20889863 -0.70885992 0.67370945 0.00013998208
-131.10756 26.523214 54.364292 -0.19768441 -0.69572866 0.69056994 0.0001234003
-130.73177 29.871017 57.728691 -0.1847174 -0.68104488 0.70856029 7.1657152e-05
-129.9577 24.641384 52.770123 -0.19007078 -0.70472533 0.68354785 0.00011274914
-129.65662 27.363728 55.598644 -0.17817645 -0.69098353 0.70056975 0.00013083238
-129.16313 28.707788 57.022594 -0.17392017 -0.68330055 0.70912349 8.1282924e-05
-129.1396 25.89591 54.251244 -0.17844303 -0.69743288 0.69408578 0.0001139487
-128.74635 23.329683 51.758614 -0.1851462 -0.70916384 0.6803053 0.00014482156
-127.98397 27.094601 55.73439 -0.16583712 -0.69084728 0.70372462 8.1543076e-05
-127.65496 23.979954 52.702271 -0.17094296 -0.70458996 0.68872648 9.0671892e-05
