# .PCD v0.7 - Point Cloud Data file format
VERSION 0.7
FIELDS x y z normal_x normal_y normal_z curvature
SIZE 4 4 4 4 4 4 4
TYPE F F F F F F F
COUNT 1 1 1 1 1 1 1
WIDTH 587
HEIGHT 1
VIEWPOINT 0 0 0 1 0 0 0
POINTS 587
DATA ascii
-3.7034876 -59.85989 -71.643204 -0.036361784 -0.45689344 0.88877791 3.269361e-05
-3.5024467 -65.707993 -74.646713 -0.0299106 -0.45500147 0.88998884 8.08287e-05
-3.4752634 -56.355198 -69.839211 -0.03339367 -0.45497736 0.88987678 4.2195581e-05
-3.4505274 -66.879478 -75.182869 -0.035607785 -0.50030154 0.86533141 0.0033603662
-3.3319023 -61.096188 -72.264633 -0.035559129 -0.45769864 0.88839626 2.7821901e-05
-3.3021381 -68.860764 -76.229195 -0.011492594 -0.73560566 0.67840922 0.030378209
-2.020225 -57.648052 -70.441559 -0.032944903 -0.45499888 0.88988346 3.3500532e-05
-1.5806985 -67.848228 -75.600685 -0.030977888 -0.60960454 0.7921797 0.022634238
-1.5665863 -63.905418 -73.653152 -0.030187946 -0.4573938 0.88875246 7.3370276e-05
-1.487016 -59.657703 -71.441139 -0.03238279 -0.45745105 0.88864565 3.2329619e-05
-1.480455 -55.695606 -69.430931 -0.031255327 -0.45267257 0.89112931 2.1102962e-05
-1.3878924 -65.873337 -74.628868 -0.028850792 -0.46569076 0.88449818 0.00067335012
-1.3832282 -69.814087 -77.315094 -0.0017619946 -0.93174672 0.36315721 0.073030412
-1.385254 -61.962528 -72.632629 -0.031035108 -0.45901826 0.88788486 3.0656465e-05
0.02181229 -58.163414 -70.615524 -0.030707335 -0.45724601 0.88881034 3.9073573e-05
0.26895732 -68.961121 -76.289276 -0.030085651 -0.79686987 0.60619164 0.048803601
0.3463451 -60.91692 -72.040352 -0.02963515 -0.45813563 0.88838881 5.6488723e-05
0.35635331 -64.7994 -74.045219 -0.032793924 -0.45936078 0.88764459 7.6863718e-05
0.45148894 -67.168839 -75.126053 -0.025880482 -0.55475634 0.83259594 0.020408815
0.5369612 -62.859478 -73.038857 -0.02993164 -0.4587169 0.88807827 5.9780756e-05
1.1691227 -56.650352 -69.808884 -0.031355571 -0.45370609 0.89059997 4.1923686e-05
1.4967581 -59.404678 -71.231041 -0.028648932 -0.45724604 0.88888276 4.8670499e-05
1.8843954 -69.887489 -77.357475 -0.016383782 -0.95438945 0.30485943 0.067176312
2.1768076 -66.070633 -74.624306 -0.030415956 -0.47378805 0.88012159 0.0010386314
2.2778738 -68.418694 -75.757774 -0.0077740713 -0.70568544 0.70890743 0.04858974
2.2953017 -61.779114 -72.422455 -0.028667318 -0.45708904 0.88895893 4.8931219e-05
2.3801067 -64.102676 -73.60434 -0.030469835 -0.45855048 0.88814628 5.9890546e-05
2.6515379 -57.892239 -70.405846 -0.028657204 -0.45812765 0.88842475 2.6167501e-05
3.459444 -60.251041 -71.607262 -0.029202139 -0.4581151 0.88841403 5.9137921e-05
3.7605538 -70.023033 -78.056152 -0.01989978 -0.98980778 0.18398392 0.05021859
3.7916667 -56.405594 -69.590294 -0.03037178 -0.45613962 0.88938987 3.5434969e-05
4.0000291 -67.3666 -75.158646 -0.020925097 -0.56491935 0.82518476 0.020377519
4.0824242 -63.11322 -73.042503 -0.030121919 -0.45685899 0.88902903 4.7434307e-05
4.1838202 -65.398491 -74.212502 -0.032472484 -0.46042871 0.88710254 6.0796414e-05
4.1937585 -69.234001 -76.223137 -0.021305369 -0.8072145 0.59162098 0.056826692
4.5996456 -58.765785 -70.803162 -0.030830776 -0.45703176 0.88891715 4.091255e-05
5.2619491 -61.569534 -72.213684 -0.031708609 -0.45709011 0.8888554 4.8804064e-05
5.7258139 -57.311035 -69.994553 -0.029919544 -0.4573839 0.88876605 2.6433707e-05
5.8505249 -69.995972 -77.389847 -0.018837072 -0.96042025 0.27915749 0.072899051
5.9120178 -68.295502 -75.538498 -0.028148586 -0.66793454 0.74546021 0.047389075
5.9431882 -64.326378 -73.605072 -0.029965933 -0.45836347 0.88825953 4.9441885e-05
6.1158667 -66.295555 -74.57045 -0.02950958 -0.4755545 0.87926102 0.0013100606
6.4140205 -60.072227 -71.40258 -0.030442419 -0.45737544 0.88875288 4.5312063e-05
6.9072986 -55.760948 -69.160759 -0.029696705 -0.45446271 0.89027089 2.3472305e-05
7.1038818 -62.824169 -72.783195 -0.030769965 -0.45742229 0.88871747 5.1468945e-05
7.5857778 -58.547211 -70.571136 -0.032261826 -0.45869514 0.88800836 3.4846202e-05
7.7151294 -69.528076 -76.588852 -0.034907114 -0.92431498 0.43361878 0.054864425
7.8615613 -65.232307 -74.012024 -0.029264268 -0.46134302 0.88674217 0.00010651521
7.93716 -67.627136 -75.087067 -0.02422438 -0.57350612 0.82035083 0.026577612
8.2405005 -61.354122 -71.995621 -0.030384088 -0.45653707 0.88918555 5.457185e-05
8.7345667 -57.056343 -69.765503 -0.029175639 -0.45533979 0.88983965 3.1988238e-05
9.0321093 -63.717194 -73.195312 -0.028890019 -0.45755392 0.88871312 4.0971707e-05
9.4036007 -59.84729 -71.179359 -0.030386766 -0.45887369 0.88798177 3.59976e-05
9.4026241 -68.787231 -75.784019 -0.029262763 -0.72556317 0.69063538 0.030577853
9.4403219 -70.124702 -77.398087 -0.027206039 -0.96363705 0.26774162 0.071604133
9.6887321 -66.50666 -74.570412 -0.032692183 -0.48092535 0.87616348 0.0013789106
10.175594 -62.24786 -72.393173 -0.029029517 -0.45849878 0.88822097 3.8821581e-05
10.57638 -58.326252 -70.356575 -0.029713627 -0.45603192 0.88946766 3.0384344e-05
10.75342 -56.392452 -69.354744 -0.031390719 -0.45554575 0.88965881 4.472716e-05
10.8663 -64.979713 -73.767227 -0.029330639 -0.45635864 0.88931257 4.2246731e-05
11.130742 -67.825569 -75.102463 -0.044198394 -0.59976733 0.79985476 0.02512544
11.280877 -69.796135 -76.507584 -0.024980005 -0.89110744 0.45311266 0.075024508
11.363567 -60.711517 -71.555336 -0.029484507 -0.46005356 0.88740158 3.6814035e-05
12.007249 -63.509907 -72.993996 -0.027773079 -0.45683146 0.88911986 4.3659093e-05
12.304534 -66.274986 -74.368294 -0.025778603 -0.46686 0.88395691 0.00019334952
12.497956 -59.256786 -70.763695 -0.029035663 -0.45786256 0.88854909 3.936475e-05
12.556597 -55.266068 -68.729614 -0.029202497 -0.45498851 0.89001846 3.814021e-05
12.727398 -57.245098 -69.730919 -0.029839503 -0.45531839 0.88982904 4.5098288e-05
12.993707 -68.950417 -75.804375 -0.015832523 -0.77893049 0.63704014 0.043731909
13.096481 -70.202499 -77.449768 -0.01318656 -0.97403061 0.23767789 0.050077021
13.188515 -61.98687 -72.173485 -0.029542208 -0.46072766 0.88705117 4.0719762e-05
13.478734 -64.756104 -73.580711 -0.027340816 -0.45651776 0.88929528 4.7355261e-05
14.130957 -67.560936 -74.923615 -0.021650009 -0.56848907 0.82249111 0.015461847
14.343013 -60.5126 -71.358322 -0.029341748 -0.45963177 0.8876254 4.3668151e-05
14.502995 -56.168793 -69.128532 -0.030648509 -0.45500404 0.88996184 3.8365572e-05
14.540939 -58.566086 -70.334816 -0.030803321 -0.45816228 0.88833487 4.8977206e-05
14.676891 -63.209438 -72.758324 -0.027792992 -0.45900813 0.88799739 5.61409e-05
14.924161 -69.838844 -76.58075 -0.023644524 -0.9409287 0.369508 0.063527875
15.295269 -66.039978 -74.178429 -0.029448738 -0.46465337 0.88500321 0.0002138117
16.071646 -68.446831 -75.313385 -0.02829905 -0.67898226 0.73362333 0.034064483
16.183588 -61.769871 -71.961105 -0.030121904 -0.4600862 0.88736379 4.3989781e-05
16.345512 -57.454517 -69.702789 -0.030540086 -0.45543098 0.88974786 4.1546195e-05
16.378336 -59.839428 -70.934715 -0.030695569 -0.46122879 0.88675064 4.6099794e-05
16.470774 -70.261856 -77.899857 -0.025978386 -0.99895507 0.074312061 0.073366031
16.487459 -64.507347 -73.368149 -0.031697795 -0.45637006 0.88922644 5.7348396e-05
17.264874 -66.905975 -74.496391 -0.037588973 -0.49769533 0.86669135 0.0050284076
17.559189 -69.5243 -76.032059 -0.0293564 -0.8304221 0.55662304 0.047610406
18.00194 -63.065521 -72.563156 -0.035222042 -0.45817068 0.88816637 4.6527788e-05
18.124773 -56.3853 -69.097343 -0.03111982 -0.45458159 0.89016128 2.3908302e-05
18.161163 -58.76701 -70.32177 -0.030033097 -0.45754889 0.8886773 2.6021304e-05
18.233734 -61.080292 -71.524132 -0.034177888 -0.46022722 0.88714319 3.658732e-05
18.426926 -70.159943 -78.385559 -0.024728758 -1.0008968 -0.028249372 0.042537026
18.528173 -65.039917 -73.54789 -0.038150568 -0.45604184 0.88914263 5.2344105e-05
18.70146 -68.281479 -75.030952 -0.044776998 -0.65230405 0.7601915 0.047939342
19.605602 -70.073067 -76.560081 -0.025398955 -0.92291206 0.38461688 0.05997229
19.859604 -66.715675 -74.334068 -0.032751761 -0.47394621 0.87994915 0.00030607948
19.959478 -57.676723 -69.698349 -0.030131336 -0.45638025 0.8892746 2.6288903e-05
20.006144 -60.033337 -70.912506 -0.032129887 -0.45726094 0.88875294 2.5560445e-05
20.05217 -62.381824 -72.123062 -0.032827012 -0.45752114 0.8885929 3.2256808e-05
20.540051 -64.416061 -73.133011 -0.036115125 -0.45639256 0.88904589 3.8159418e-05
20.729008 -68.794106 -75.245354 -0.040586565 -0.71787465 0.69517088 0.048404798
21.174105 -56.112087 -68.865967 -0.02777224 -0.45348087 0.89083344 2.0622336e-05
21.244997 -70.267365 -77.983566 -0.017752521 -1.0030836 0.059077237 0.046664368
21.795723 -58.965073 -70.290932 -0.030396583 -0.45669419 0.88910437 2.4367004e-05
21.830086 -61.329166 -71.516312 -0.031021856 -0.45778304 0.88852304 2.6652244e-05
21.895412 -66.05027 -73.92054 -0.033714402 -0.46135968 0.88657314 0.0001423958
22.186438 -69.977425 -76.30101 -0.028882593 -0.92464292 0.39180911 0.065995343
22.346821 -63.316772 -72.516655 -0.030609576 -0.45563227 0.88964176 2.5442598e-05
22.768272 -68.107285 -74.831383 -0.023656324 -0.58207375 0.81348914 0.019252561
22.991524 -57.434742 -69.478065 -0.027471917 -0.45353314 0.89081609 1.2238766e-05
23.636694 -60.238815 -70.888435 -0.028663645 -0.45671993 0.88914901 1.5928268e-05
23.7124 -64.93734 -73.306084 -0.027671995 -0.45617437 0.88946009 2.0785666e-05
24.094774 -69.565811 -75.828575 -0.0067418264 -0.85616028 0.53776675 0.044258229
24.148193 -62.231644 -71.903885 -0.029678471 -0.45648351 0.88923693 2.1890575e-05
24.197369 -55.891003 -68.656303 -0.02695642 -0.45450771 0.89033484 2.1231368e-05
24.570969 -66.980423 -74.274223 -0.026496071 -0.48441595 0.87456936 0.0029243012
24.826599 -58.726597 -70.077179 -0.026406277 -0.45372632 0.89074999 1.3824064e-05
25.143181 -70.411697 -77.267174 -0.015313545 -0.98133945 0.19873141 0.080044463
25.486229 -63.896381 -72.716324 -0.03097596 -0.45734143 0.88875204 2.2613887e-05
25.705696 -60.74054 -71.085236 -0.028538354 -0.45465127 0.8902123 2.1837748e-05
25.906771 -68.68235 -75.031258 -0.030022817 -0.6936875 0.71973157 0.044888332
26.036879 -57.177795 -69.266243 -0.027428856 -0.45547107 0.88982862 3.9312868e-05
26.356985 -65.90416 -73.714432 -0.03111105 -0.4569414 0.88895309 2.6612068e-05
26.697948 -62.366879 -71.882874 -0.03228423 -0.45546207 0.88966972 2.1711197e-05
26.897652 -70.223816 -76.280556 -0.015991723 -0.91485673 0.4039132 0.061968256
26.914059 -59.205605 -70.266075 -0.027244287 -0.45206246 0.89157015 1.6272697e-05
27.565992 -64.385139 -72.882713 -0.034287479 -0.4575319 0.88853198 1.336778e-05
27.712433 -67.587059 -74.417206 -0.035591211 -0.5412637 0.84129542 0.019183615
27.88088 -60.878101 -71.076874 -0.02991017 -0.45189449 0.89157021 2.2675627e-05
27.980404 -55.675457 -68.432693 -0.034674775 -0.46328667 0.88553119 5.3116699e-05
28.123997 -57.661858 -69.462265 -0.030620836 -0.45584491 0.88953406 6.0980121e-05
28.587008 -69.53791 -75.491638 -0.016805055 -0.82001382 0.5750733 0.058158871
28.746708 -62.905769 -72.077759 -0.032856569 -0.45409349 0.89034826 1.8424707e-05
28.82427 -70.395187 -77.317986 -0.010202114 -0.99151599 0.17952196 0.057117749
28.89016 -66.06369 -73.698296 -0.033913083 -0.45863739 0.88797635 2.0849802e-05
29.101658 -59.323689 -70.267601 -0.031617753 -0.45173693 0.89159316 3.8937898e-05
29.758087 -68.159485 -74.562378 -0.028201465 -0.60660452 0.79626673 0.030801434
29.942736 -56.578426 -68.816032 -0.034466274 -0.46268797 0.88585114 5.0205614e-05
29.946102 -61.40097 -71.257057 -0.03276404 -0.45195401 0.89144009 3.0115332e-05
30.099039 -64.549446 -72.874069 -0.030514466 -0.45795026 0.88845396 3.1005162e-05
30.577921 -70.250977 -76.332649 -0.020511841 -0.92422867 0.3902913 0.080306597
30.931732 -58.215057 -69.639961 -0.0344688 -0.45558885 0.88952452 6.1693885e-05
30.959347 -66.57608 -73.856567 -0.029289762 -0.46996304 0.88221872 0.00042086936
31.296463 -63.053337 -72.057358 -0.02894108 -0.45679775 0.88909984 2.7464201e-05
31.695639 -69.049271 -75.00177 -0.022171844 -0.72164297 0.69340253 0.054646257
31.784309 -60.276394 -70.64151 -0.032515708 -0.45287526 0.89098257 4.9004415e-05
31.970606 -55.965538 -68.408173 -0.030723618 -0.46239802 0.88614053 5.7632842e-05
32.163681 -65.058746 -73.07193 -0.027496612 -0.45788583 0.8885864 2.6763131e-05
32.339191 -70.310524 -77.881477 -0.006746239 -1.0007329 0.010229829 0.0590191
32.889874 -67.55529 -74.170097 -0.017270561 -0.53247142 0.84934813 0.021357575
32.982552 -57.572578 -69.211197 -0.034421038 -0.45757595 0.88850498 5.7030917e-05
33.107182 -61.978867 -71.450096 -0.030277429 -0.45668176 0.88911545 3.3768803e-05
33.156731 -70.165909 -76.079605 -0.015051839 -0.93066901 0.37307036 0.064519927
33.840549 -59.620136 -70.224022 -0.032233246 -0.45465922 0.89008242 5.8355363e-05
33.951557 -55.633724 -68.177521 -0.03002459 -0.45868358 0.88809234 7.2575407e-05
33.995831 -63.955917 -72.45208 -0.028239993 -0.45803869 0.88848406 4.0410006e-05
34.131805 -65.919647 -73.464478 -0.02762373 -0.45690024 0.88909 4.083446e-05
34.380615 -68.736595 -74.824562 -0.019419823 -0.67018795 0.74293077 0.026167769
35.063774 -58.082123 -69.404167 -0.034553222 -0.45745194 0.88856339 6.7661276e-05
35.077168 -61.661037 -71.220924 -0.032950241 -0.45806763 0.88830656 3.0758569e-05
35.37291 -70.373489 -76.397408 -0.019815786 -0.97890234 0.2476557 0.069019116
35.578758 -67.241257 -74.008698 -0.021270432 -0.51646292 0.85652846 0.01119839
35.940434 -64.858444 -72.85865 -0.029530091 -0.45878962 0.88805491 3.9418584e-05
36.024666 -59.768429 -70.209412 -0.031000955 -0.45334518 0.89079595 5.8758455e-05
36.420372 -69.232796 -75.065544 -0.042160992 -0.75938821 0.64998442 0.055904046
36.499016 -70.361504 -78.037949 -0.0036273696 -1.0001521 -0.044583429 0.071365707
36.526718 -62.9533 -71.838348 -0.030389363 -0.46097577 0.88689268 3.246115e-05
36.922283 -56.956692 -68.746567 -0.033559773 -0.45590922 0.8893941 5.4639484e-05
37.422413 -66.093933 -73.449982 -0.029831285 -0.45714343 0.88889301 6.1323801e-05
37.514748 -61.013958 -70.790588 -0.029130049 -0.45545 0.88978493 5.2001669e-05
37.585697 -70.407043 -76.416504 -0.011280591 -0.96737128 0.25817615 0.078097828
37.855751 -58.679489 -69.587624 -0.031507164 -0.45863107 0.88806856 5.8823527e-05
37.984848 -64.233963 -72.437958 -0.030368334 -0.4598906 0.88745701 4.4008309e-05
38.097729 -55.502758 -67.938484 -0.035276357 -0.4562175 0.88917059 5.6967147e-05
38.217934 -70.427605 -77.606651 -0.015346111 -1.0079811 0.027764698 0.055506505
38.263351 -68.21756 -74.346466 -0.020009458 -0.60954982 0.79325718 0.031601794
39.085819 -59.535397 -69.98719 -0.029177338 -0.45896295 0.88797629 5.9033166e-05
39.798172 -70.382736 -76.429871 -0.0014453593 -0.95668226 0.36847445 0.077498779
39.929432 -56.821068 -68.543648 -0.027424613 -0.45916721 0.88792688 6.4515203e-05
39.957504 -62.731815 -71.610191 -0.026773661 -0.4589242 0.88807243 3.9477232e-05
39.95937 -65.090164 -72.843704 -0.030556377 -0.45796627 0.88844758 6.2643638e-05
40.075066 -67.087181 -73.828224 -0.037582189 -0.48581088 0.87328839 0.001670743
40.188618 -69.081154 -74.821983 -0.039019197 -0.71783572 0.69601947 0.033625551
40.581718 -60.761684 -70.595528 -0.024123505 -0.45910004 0.88805705 2.3011386e-05
40.945683 -58.414394 -69.34803 -0.026794806 -0.46030772 0.88735646 5.6753132e-05
41.710423 -70.025887 -75.599831 -0.0039934367 -0.92908001 0.40115443 0.068271481
41.793312 -64.01152 -72.22139 -0.029737707 -0.45595941 0.88950598 6.0932703e-05
41.918449 -56.490692 -68.325325 -0.026701609 -0.45893455 0.88806957 4.8589642e-05
41.945755 -65.948555 -73.200935 -0.031332314 -0.45861435 0.88808465 9.4127143e-05
41.993584 -70.240211 -77.707954 0.014513779 -1.0003076 -0.067664526 0.056895874
42.016953 -68.026764 -74.174149 -0.042793531 -0.55770963 0.82894659 0.013293918
42.045303 -62.041458 -71.200417 -0.028114641 -0.4574995 0.88876569 3.6266469e-05
42.429585 -59.659065 -69.973877 -0.025712591 -0.45949963 0.88780582 2.6736276e-05
43.400188 -57.749557 -68.945427 -0.02765253 -0.46070072 0.88712507 3.3213753e-05
43.502396 -69.188492 -74.864197 -0.010104945 -0.76280308 0.6549353 0.043280721
43.569942 -70.484177 -76.511963 -0.011719682 -0.97984934 0.2042024 0.078818418
43.746162 -64.916527 -72.616318 -0.032792304 -0.4563652 0.88918829 6.1817278e-05
43.789001 -55.357021 -67.690804 -0.027973482 -0.45747188 0.88878471 2.8204118e-05
43.830666 -66.950935 -73.618629 -0.032406975 -0.47980955 0.87683189 0.0022992059
43.890537 -60.94558 -70.58548 -0.030935418 -0.45600185 0.88944209 1.8397966e-05
43.998177 -62.951977 -71.600258 -0.034098078 -0.45392928 0.89038551 5.4020689e-05
44.887604 -59.002613 -69.547958 -0.032237235 -0.45888361 0.88791138 1.9699417e-05
45.247536 -56.662476 -68.308365 -0.030924557 -0.45922026 0.88778418 1.6671052e-05
45.321663 -68.234512 -74.139214 -0.062492434 -0.62474442 0.78206611 0.046191793
45.383034 -70.186188 -75.591537 -0.0092290556 -0.93475455 0.38006103 0.083549641
45.712654 -65.80648 -72.993324 -0.034002285 -0.4579584 0.88832331 8.7621964e-05
45.840691 -61.870605 -70.978561 -0.039215621 -0.45365676 0.89032072 2.7851238e-05
45.864613 -70.125832 -77.913879 -0.078408092 -1.0009708 -0.13330859 0.05566616
45.964489 -63.84948 -71.977051 -0.036028136 -0.45530844 0.8896051 8.4175786e-05
46.726498 -57.932312 -68.918083 -0.031194374 -0.45901459 0.88788098 2.6681249e-05
46.850941 -59.911793 -69.945274 -0.032028832 -0.45716906 0.88880754 2.0301499e-05
47.094963 -55.576172 -67.682358 -0.028366609 -0.45887813 0.88805717 2.019907e-05
47.131645 -69.400269 -74.857086 0.18079166 -0.85477108 0.527789 0.079735711
47.182537 -67.078606 -73.576508 0.026661469 -0.51877749 0.85459536 0.004628283
47.299305 -70.486069 -76.587585 0.061133023 -1.0000222 0.17150836 0.11794682
47.758846 -65.199753 -72.589981 -0.07130596 -0.46122137 0.88543224 9.0006833e-05
47.796371 -62.797626 -71.344574 -0.059791964 -0.45079857 0.89098388 7.1190691e-05
48.585678 -56.832703 -68.288475 -0.0073767891 -0.46003631 0.88822901 3.3241613e-05
-52.138863 -54.195656 -111.37241 0.16089879 -0.97186863 -0.27743253 0.010927324
-51.685925 -54.371399 -108.81562 0.051034011 -0.97475135 -0.21795267 0.0076460587
-51.596558 -52.408302 -114.97326 0.012018699 -0.87092721 -0.49128106 0.00039461348
-51.386837 -50.343651 -118.27231 0.03488164 -0.82773727 -0.56046379 0.00065458531
-50.812321 -51.47353 -116.56213 0.031663224 -0.84704292 -0.53080601 0.00083059451
-50.6847 -53.532604 -112.9642 0.036573775 -0.92910808 -0.37184435 0.0088721709
-50.228638 -49.330143 -119.61998 0.034964923 -0.8250652 -0.56403613 0.00023253987
-50.18066 -54.230259 -110.15598 0.022051154 -0.9732582 -0.22944102 0.0067840265
-49.515606 -52.563889 -114.6151 0.023200858 -0.87791759 -0.47857136 0.00093683193
-49.346798 -50.585609 -117.81291 0.024357973 -0.83304352 -0.55268008 0.0003939241
-48.998177 -48.156021 -121.35201 0.0091387704 -0.87947309 -0.48392165 0.0008162132
-48.736294 -53.842552 -112.04816 0.00081436156 -0.94817162 -0.31819698 0.010444878
-48.456596 -54.375954 -108.91719 0.0038624329 -0.97494048 -0.22259009 0.0062598041
-48.350624 -51.592793 -116.24498 0.025220001 -0.85011882 -0.526012 0.00074942276
-48.173946 -49.559757 -119.18619 0.014601834 -0.82787067 -0.56077302 0.00045194852
-47.59663 -53.091991 -113.69481 0.012983006 -0.90037751 -0.43724042 0.0059494125
-47.25404 -54.146767 -110.61074 -0.0065473164 -0.97358274 -0.22827658 0.0064812149
-46.927036 -48.392437 -120.9589 0.0069542811 -0.87780851 -0.48677233 0.00058598345
-46.925686 -50.798828 -117.40464 0.02595767 -0.83491665 -0.54978764 0.00045542678
-46.449074 -52.120079 -115.26515 0.028115228 -0.86405128 -0.50285286 0.00056794169
-46.312496 -54.368736 -108.95102 -0.0077411509 -0.97662926 -0.21540689 0.0061052027
-45.946426 -49.441238 -119.34638 0.023669988 -0.83462387 -0.55036074 0.00035239363
-45.803112 -53.830776 -112.25377 0.0064382893 -0.93645376 -0.35150841 0.0077457801
-45.030197 -50.590244 -117.60353 0.033501733 -0.83682001 -0.54645818 0.00036363688
-45.005779 -48.129498 -121.44489 0.020291405 -0.90297014 -0.44572082 0.00062297238
-44.951534 -51.993629 -115.39387 0.026922258 -0.85880315 -0.5116483 0.00034932335
-44.799435 -54.293087 -110.29406 -0.0021426103 -0.97698408 -0.2137215 0.0072346749
-43.518562 -52.784901 -113.96416 0.01953497 -0.88076752 -0.47325224 0.0023495867
-43.152935 -51.193218 -116.57478 0.033867273 -0.84320855 -0.53662002 0.00033275204
-43.079891 -54.396992 -109.3158 -0.01121491 -0.97775066 -0.21059015 0.006979743
-43.026012 -53.93174 -111.82263 0.0065753823 -0.94136959 -0.33852816 0.0092152404
-42.963444 -48.425446 -120.72396 0.034150194 -0.87402755 -0.49040031 0.00044492286
-42.960701 -49.971386 -118.35295 0.03766381 -0.83198708 -0.55352008 0.00026600773
-41.741463 -52.042767 -115.10645 0.02806657 -0.85525447 -0.51745653 0.00020514081
-41.245483 -53.308849 -113.02272 0.020143675 -0.8983525 -0.44025412 0.0057340381
-41.17955 -54.367599 -110.43861 0.00085044547 -0.97258967 -0.23268881 0.0072185583
-41.066475 -50.571705 -117.36343 0.034635231 -0.83517027 -0.54890424 0.00019516087
-41.049007 -48.935051 -119.72851 0.03677959 -0.84748596 -0.53030288 0.0002656182
-39.74918 -51.611816 -115.71339 0.030508637 -0.84500211 -0.53389537 0.00034191748
-39.474846 -54.030598 -111.52228 0.01147766 -0.95044696 -0.31274262 0.0091832317
-39.246101 -52.857536 -113.64962 0.021575172 -0.87240094 -0.4883444 0.0013258347
-39.245132 -48.161831 -120.90611 0.017501825 -0.87095004 -0.49560487 0.00016725891
-39.172115 -54.443577 -109.30374 0.0059774914 -0.97578573 -0.21954501 0.0055404487
-39.150864 -49.530178 -118.73428 0.033769377 -0.83323693 -0.55190313 0.00012391567
-38.221798 -50.653107 -117.03754 0.038101383 -0.83324128 -0.55159599 0.00011119318
-37.803448 -52.095551 -114.82667 0.029917797 -0.85012889 -0.52572745 0.00039481811
-37.503365 -54.228619 -110.62133 0.017561397 -0.96612656 -0.25872728 0.0090241069
-37.320942 -53.391281 -112.72932 0.029823737 -0.8990202 -0.43748656 0.0055356356
-37.3018 -48.654507 -119.97961 0.019794676 -0.86170548 -0.50872284 0.00030914327
-36.701504 -49.695877 -118.33107 0.030719718 -0.83926702 -0.5428679 0.00022531192
-36.33392 -51.240437 -116.02312 0.034025367 -0.83608341 -0.54755157 0.00014353154
-35.729584 -52.26997 -114.40626 0.029233843 -0.85100538 -0.52436185 0.00041018325
-35.538548 -54.009544 -111.22754 0.015471795 -0.94656402 -0.3239072 0.008715949
-35.276207 -48.24725 -120.65385 0.016086062 -0.89210194 -0.45843843 0.00018935451
-34.808384 -50.282669 -117.31898 0.027593603 -0.83673662 -0.54691565 0.00020217348
-34.475407 -54.385357 -108.81079 0.017440533 -0.97521335 -0.22140676 0.0054345871
-34.373657 -53.267269 -112.86838 0.014679473 -0.88990676 -0.45827866 0.0060263425
-34.240002 -49.100594 -119.12251 0.025398547 -0.8540436 -0.52004361 0.00021417403
-34.206062 -51.359177 -115.71828 0.029282566 -0.83548248 -0.54873872 9.124053e-05
-33.438343 -54.141087 -110.86767 0.012709244 -0.95717287 -0.28940937 0.0084005902
-33.077435 -48.186539 -120.68554 0.019056378 -0.89762467 -0.4485369 0.00027652681
-32.891396 -52.395668 -114.07697 0.023614952 -0.84938908 -0.52724195 0.00027586252
-32.725147 -50.480972 -116.91212 0.027088972 -0.83585978 -0.54829824 0.0001734901
-32.308399 -54.456425 -108.86308 0.0079603838 -0.9840827 -0.1789382 0.00501004
-32.162395 -49.302376 -118.688 0.023939678 -0.85256916 -0.5222587 0.00029157189
-31.905087 -53.401264 -112.51968 0.01695827 -0.89734226 -0.44243601 0.007299534
-31.433905 -51.58831 -115.23378 0.02575776 -0.83690882 -0.5467425 8.5570362e-05
-31.015451 -54.225773 -110.42393 0.021902254 -0.96385926 -0.26568064 0.0082117626
-30.910057 -48.264217 -120.43356 0.023352765 -0.89656281 -0.44848111 0.00039207196
-30.462202 -50.307415 -117.07571 0.023449296 -0.83847278 -0.54448122 0.00025510113
-30.071585 -52.570015 -113.70776 0.022905627 -0.85674232 -0.51526177 0.0012109026
-29.899536 -49.140507 -118.84581 0.021596577 -0.85703605 -0.51502973 0.00044260392
-29.231739 -53.790646 -111.60508 0.016488498 -0.93229562 -0.36150298 0.01048117
-29.132492 -51.358967 -115.48081 0.022440761 -0.83637571 -0.54769778 6.6899054e-05
-28.985146 -54.306381 -109.31048 0.014214087 -0.97552305 -0.22029117 0.0073278775
-28.930746 -47.937592 -120.97949 0.033777058 -0.91386908 -0.41727877 0.00043478099
-28.217176 -50.173607 -117.19598 0.022453971 -0.83961856 -0.54271269 0.00016210842
-28.006233 -52.789032 -113.26631 0.019095726 -0.86414367 -0.50292891 0.0014407883
-27.628485 -48.997429 -119.02535 0.018992981 -0.85935485 -0.5112009 0.00036366729
-27.27965 -54.080975 -110.66442 0.0045084208 -0.95405555 -0.3025949 0.0090210401
-27.048565 -51.556438 -115.06619 0.020472595 -0.83728069 -0.54639047 9.2523325e-05
-26.905807 -47.59314 -121.63479 0.044642858 -0.95218438 -0.34265569 0.00035183842
-26.1178 -50.379269 -116.81742 0.019351726 -0.8360672 -0.54828697 4.9086557e-05
-26.106985 -53.394276 -112.30168 0.007886705 -0.89720494 -0.44181174 0.0066080401
-25.708696 -54.348167 -109.39508 -0.0093346983 -0.98029912 -0.19766577 0.0060171946
-25.591063 -49.273167 -118.49329 0.022531945 -0.85249239 -0.52225691 0.00033283627
-25.396158 -48.183949 -120.27474 0.030167209 -0.88112241 -0.47386029 0.00044226169
-25.183464 -52.220486 -114.02297 0.019351587 -0.84387171 -0.5362047 0.00021344851
-24.306543 -54.079254 -110.85134 0.002178737 -0.95049238 -0.31115821 0.010501394
-24.246683 -47.382912 -121.81496 0.036075205 -0.92497498 -0.39774176 0.00044310378
-24.211578 -50.972824 -115.83977 0.017979402 -0.83521718 -0.54962653 4.4058328e-05
-23.683697 -49.860382 -117.50056 0.017117631 -0.84230185 -0.53873748 0.00023155837
-23.587252 -54.354237 -108.72954 -0.011032005 -0.97858858 -0.20615183 0.0051644617
-23.487286 -48.747612 -119.26266 0.02096078 -0.85829413 -0.51278234 0.00034194509
-23.474949 -53.219048 -112.46871 0.014096594 -0.88185549 -0.4713695 0.0037984133
-22.942282 -52.099663 -114.12807 0.016627245 -0.84237796 -0.53863531 0.00021554469
-22.222008 -47.700867 -120.98491 0.016653493 -0.89672381 -0.44789895 0.00038837103
-22.22159 -54.163624 -110.41039 -0.0088911615 -0.96007437 -0.28198051 0.010275999
-21.935452 -50.811623 -116.00854 0.017975621 -0.83709693 -0.54675925 6.8607529e-05
-21.60215 -49.363903 -118.21494 0.014920738 -0.84851235 -0.52898586 0.00021197741
-21.379534 -53.423138 -112.08408 0.0069774622 -0.89374799 -0.44874394 0.0045871139
-20.670242 -51.941532 -114.28854 0.015112835 -0.84036285 -0.54181665 0.00018923488
-20.292524 -48.236877 -120.00555 0.0050744424 -0.86316258 -0.50502741 0.00029132789
-19.995445 -54.164658 -110.52655 -0.014096567 -0.94829082 -0.3173345 0.0089093708
-19.887239 -50.348763 -116.63882 0.014109995 -0.83941793 -0.54330671 0.00011847406
-19.363897 -53.044468 -112.68642 0.0081849629 -0.86947697 -0.49408719 0.0038934131
-19.34824 -49.273731 -118.33462 0.0078113247 -0.85135335 -0.52457166 0.00019833837
-18.543472 -51.355076 -115.07282 0.015146117 -0.83599234 -0.54853404 9.3322429e-05
-18.268219 -47.922932 -120.63278 -0.01226402 -0.88049752 -0.47673222 0.0002690971
-18.012762 -53.959805 -111.11679 0.0091018016 -0.92426574 -0.38219664 0.010487131
-17.605242 -50.204075 -116.80773 0.012634271 -0.84419125 -0.53590542 0.00022389498
-17.280384 -52.513264 -113.37591 0.015133195 -0.84192687 -0.53941768 0.00061100116
-17.279196 -48.846867 -119.02518 0.0047736624 -0.86086148 -0.50902128 0.00017670851
-17.011988 -54.489243 -109.18377 -0.0047317441 -0.96818715 -0.25086576 0.0062509361
-16.283895 -51.22813 -115.18745 0.016810596 -0.83495778 -0.55006254 7.6624339e-05
-16.08033 -47.958027 -120.6084 -0.0015386691 -0.8897081 -0.46018958 0.00023695509
-15.986007 -53.626698 -111.75227 0.016627299 -0.89576924 -0.44583473 0.0099074254
-15.552155 -49.774311 -117.44427 0.012078423 -0.85202861 -0.52336019 0.00015940476
-14.982081 -52.308815 -113.55863 0.016908333 -0.83529049 -0.54955024 8.8627734e-05
-14.966565 -54.281593 -110.17709 0.001279431 -0.9457317 -0.32643455 0.0091107693
-14.595253 -48.672249 -119.24937 0.0049472591 -0.87233806 -0.48962355 0.00021957689
-14.208893 -50.760456 -115.86185 0.012615886 -0.84007752 -0.54232198 6.9425099e-05
-13.702477 -53.450977 -111.91386 0.010655609 -0.88093358 -0.47326878 0.0072838808
-13.266917 -49.636181 -117.59986 0.0097988974 -0.85552913 -0.51766258 0.00021581755
-12.87762 -51.775173 -114.27514 0.016092865 -0.83591598 -0.54862148 4.7431604e-05
-12.790726 -48.080994 -120.36185 0.00029162574 -0.92414683 -0.39750522 0.00033904557
-12.73045 -54.300068 -110.29317 -0.0023557057 -0.94263822 -0.33385646 0.012750949
-11.943796 -50.656929 -115.98086 0.0092547983 -0.84206372 -0.53929937 3.590935e-05
-11.770938 -48.901592 -118.79282 0.0071903965 -0.87013954 -0.49315065 0.00027469077
-11.603414 -52.924366 -112.61887 0.014095178 -0.85135323 -0.52463871 0.0025689455
-11.230208 -54.611004 -108.86216 -0.023791675 -0.96215141 -0.27169764 0.0084683914
-10.67353 -54.004494 -110.98697 0.006733919 -0.91095829 -0.41302121 0.012942592
-10.610928 -51.661469 -114.39388 0.011896512 -0.838471 -0.54481655 6.1226827e-05
-10.57925 -48.081768 -120.36509 0.00096722541 -0.92203778 -0.40313905 0.00033483625
-10.418633 -49.86235 -117.21391 0.0065327408 -0.85239404 -0.52285945 0.00021181366
-9.3045549 -52.726891 -112.78062 0.013956658 -0.84155822 -0.5400061 0.00028443045
-9.2863722 -54.565411 -109.39552 -0.0016876772 -0.95010269 -0.31243715 0.0093048671
-9.0890446 -50.871048 -115.6124 0.0082427645 -0.84275466 -0.53823507 3.7562942e-05
-9.0882435 -48.767143 -119.00456 0.0057151564 -0.875139 -0.48455948 0.00025884595
-8.3907948 -53.845215 -111.13384 0.012442193 -0.89192909 -0.45256779 0.0098851454
-8.1828127 -49.805237 -117.25351 0.0067361072 -0.8540709 -0.52011639 0.00023855179
-7.7967381 -51.923515 -113.94482 0.013869224 -0.84157658 -0.53996253 6.2894549e-05
-7.2817144 -48.1726 -120.09079 0.012077505 -0.91478539 -0.41400599 0.00027898839
-7.085608 -54.585339 -109.43595 0.01591797 -0.94800681 -0.31837127 0.011080028
-6.829896 -52.945412 -112.38797 0.017592909 -0.84937018 -0.52759212 0.001392235
-6.8183799 -50.786892 -115.73492 0.0078234188 -0.84490472 -0.53486007 4.0974119e-05
-6.245862 -48.992821 -118.57182 0.0072183269 -0.86822474 -0.49632815 0.00027862084
-5.5271378 -54.024734 -110.78259 0.011689503 -0.90148938 -0.43744513 0.012941969
-5.5163007 -51.804722 -114.076 0.015050595 -0.84545076 -0.53384173 5.0561855e-05
-5.307766 -50.011028 -116.90868 0.0074640936 -0.85081071 -0.52546811 0.00024990225
-5.2623172 -47.898384 -120.65911 -0.0016040087 -0.92801178 -0.39276603 0.00040312062
-4.5338273 -52.759804 -112.52687 0.017008409 -0.84414005 -0.53586465 3.6665802e-05
-3.9754004 -51.008404 -115.3139 0.013638789 -0.84731746 -0.53091162 2.8461771e-05
-3.9652553 -48.915504 -118.69742 0.0089467531 -0.87112683 -0.49130481 0.00026941474
-3.8190749 -54.642105 -109.11398 0.0081815189 -0.94825524 -0.31774545 0.0069167586
-3.4789913 -48.062813 -120.30717 0.005106499 -0.91606325 -0.4122889 0.00040088035
-3.4260998 -49.94059 -116.96312 0.0099189505 -0.85473412 -0.51901793 0.0002423812
-2.4589064 -48.875626 -118.74456 0.0094437227 -0.87239677 -0.4890863 0.00030041602
-2.4549103 -53.770321 -110.99184 0.024605514 -0.88047349 -0.47354862 0.0034695726
-1.504123 -51.92577 -113.77146 0.016618 -0.84919161 -0.52782565 2.3398678e-05
-1.4734128 -50.494152 -116.04716 0.013413756 -0.85120821 -0.52467179 0.00017739358
-1.2493327 -48.038612 -120.30946 0.017376065 -0.90336871 -0.43561232 0.00034503848
-1.1440384 -54.538349 -109.30843 0.026064856 -0.94302291 -0.33300191 0.0075267581
-0.55452251 -52.936424 -112.17234 0.024957933 -0.85637438 -0.51578724 0.0012342709
-0.53515333 -49.440353 -117.74451 0.015800912 -0.85881019 -0.51208633 0.00020415479
0.42902058 -53.908264 -110.63402 0.033102192 -0.90132517 -0.43453065 0.0089524249
0.42863309 -51.108093 -115.03289 0.015712043 -0.84883916 -0.52841783 2.6210882e-05
0.80450714 -48.382004 -119.51759 0.022020698 -0.88479191 -0.46776098 0.00021623405
1.3673999 -50.038116 -116.71046 0.01692526 -0.85274285 -0.52206558 0.00014328444
1.3819473 -52.089504 -113.4222 0.015883669 -0.85049325 -0.52574646 2.3475804e-05
2.1477299 -54.543911 -109.00783 0.025346937 -0.94780618 -0.31819075 0.0058234981
2.3374693 -53.086742 -111.83498 0.019212248 -0.86551261 -0.50057697 0.0013241614
2.709317 -51.011745 -115.13314 0.012799216 -0.8489362 -0.52834088 2.3191042e-05
2.7574661 -48.880447 -118.54691 0.027211266 -0.85705888 -0.51458311 0.00023448332
3.6794806 -51.970108 -113.5565 0.016606046 -0.85344815 -0.52091408 3.5079109e-05
3.6809847 -54.008965 -110.26316 0.018850802 -0.91417325 -0.40545064 0.0079788696
3.683547 -49.919476 -116.87978 0.017747525 -0.8476271 -0.53029883 9.0554269e-05
4.6198025 -52.955719 -111.9279 0.017414879 -0.86288196 -0.50511235 0.00076673448
4.6470141 -48.148449 -119.71295 0.035335157 -0.87640595 -0.48410621 0.00015377531
5.0198293 -50.896118 -115.2906 0.018256968 -0.84807426 -0.52956313 6.9647649e-05
5.6246643 -54.381336 -109.27644 0.013017372 -0.94442207 -0.3290281 0.008727395
5.6354365 -49.060497 -118.13282 0.02583907 -0.8456527 -0.53313017 8.5277403e-05
5.9699421 -51.859989 -113.66678 0.019545166 -0.8544209 -0.5192138 4.1912732e-05
6.5547204 -50.116455 -116.46378 0.023494074 -0.84503716 -0.53419703 9.0930233e-05
6.5858769 -53.478825 -111.03618 0.019671777 -0.88726687 -0.46097773 0.0042558792
7.2408462 -48.193794 -119.43758 0.027316265 -0.86560452 -0.50176227 0.00013818375
7.5001321 -51.117622 -114.84396 0.024716493 -0.8492772 -0.52737093 9.3014511e-05
7.9304862 -52.3592 -112.74141 0.021719176 -0.85567385 -0.51706004 4.2091819e-05
8.2034111 -49.165649 -117.82785 0.027608864 -0.8424114 -0.53812903 8.480611e-05
8.457551 -54.050335 -109.95364 0.017753115 -0.9276408 -0.37404731 0.0070754359
9.088604 -50.26725 -116.10236 0.025239483 -0.84382331 -0.53603119 8.3068837e-05
9.4541445 -51.629265 -113.89893 0.023993604 -0.85076904 -0.52499229 9.9826531e-05
9.8664455 -52.906139 -111.78132 0.016133852 -0.86598676 -0.4998616 0.00045961142
10.300526 -48.721359 -118.43578 0.022530342 -0.85677171 -0.51645499 0.00013808123
10.816086 -53.848534 -110.16978 0.016027529 -0.91650659 -0.39993563 0.0067723175
11.006018 -50.850117 -115.09306 0.028956143 -0.8463797 -0.5317927 0.00013831507
11.280469 -49.690067 -116.87814 0.034311879 -0.8404128 -0.54086351 0.00011376376
11.399248 -52.158958 -112.94311 0.02619472 -0.85319871 -0.52093095 7.6098419e-05
12.34488 -53.164974 -111.34953 0.021686304 -0.88108796 -0.47312865 0.0048410813
12.656144 -48.552963 -118.62853 0.037328437 -0.87741995 -0.48262122 0.00021538623
12.933434 -51.413902 -114.10199 0.035165872 -0.8444916 -0.53442466 0.0001702005
13.196827 -50.257236 -115.84866 0.042942684 -0.84123051 -0.53897846 0.00011597569
13.909762 -52.336433 -112.53771 0.032763645 -0.85276645 -0.52128762 5.1443218e-05
14.289467 -53.664539 -110.38638 0.020177912 -0.90251577 -0.43030256 0.0047636889
14.472258 -49.302612 -117.17167 0.050528679 -0.84786969 -0.52817136 0.00014460126
14.919343 -51.194633 -114.28107 0.042563509 -0.84194559 -0.53788197 0.00012488979
15.261333 -54.390179 -108.76339 0.021109423 -0.94460237 -0.32754439 0.0058149751
15.884119 -52.805424 -111.61942 0.037913289 -0.85325289 -0.52011794 5.8135389e-05
16.03372 -48.506279 -118.35674 0.04258829 -0.88444906 -0.47050381 0.00045138068
16.429625 -49.789959 -116.194 0.047408 -0.84101611 -0.53893107 0.00028237855
16.830015 -53.793324 -110.02509 0.031552974 -0.90395862 -0.42717102 0.0061180363
16.866808 -51.709496 -113.31033 0.046076018 -0.84276068 -0.53631818 9.6084492e-05
18.08511 -48.878975 -117.5353 0.040552106 -0.86946124 -0.49527487 0.0004022771
18.249178 -52.579216 -111.80299 0.045638692 -0.85031915 -0.5242877 6.9499372e-05
18.320602 -50.424519 -115.1343 0.045522217 -0.83962494 -0.54126155 0.00022425012
18.862656 -51.480827 -113.49402 0.046630759 -0.83980513 -0.54088491 9.0406145e-05
19.184416 -53.590794 -110.19854 0.042892348 -0.89315069 -0.44783533 0.004617495
19.94137 -48.268417 -118.60297 0.020488618 -0.93880808 -0.38202149 0.00056417112
20.027277 -49.396072 -116.52694 0.035764407 -0.85287279 -0.52121609 0.00036993765
20.519356 -50.506973 -114.791 0.03916141 -0.84077644 -0.53997838 0.00026491628
20.628332 -52.323021 -111.99316 0.041743424 -0.8478561 -0.5285846 9.6249387e-05
21.172733 -53.377316 -110.37226 0.042445939 -0.88201338 -0.46994859 0.0043722419
21.852743 -48.870056 -117.29007 0.029198073 -0.87471497 -0.48645973 0.00043734265
22.254459 -51.440796 -113.25542 0.039578967 -0.83995885 -0.54121053 6.4707347e-05
22.335903 -49.951439 -115.51779 0.035901073 -0.84533978 -0.53304493 0.00029663034
22.535587 -54.09758 -108.78604 0.041711364 -0.93169022 -0.36108667 0.0058042048
22.78923 -52.47324 -111.60255 0.03770002 -0.8496303 -0.52603012 0.00010953798
23.912594 -48.538918 -117.80586 0.021130214 -0.91552758 -0.41923046 0.00039211853
24.110842 -53.455013 -110.01731 0.038026661 -0.8916769 -0.45140934 0.0040696412
24.259459 -50.544746 -114.50837 0.032820348 -0.84189343 -0.53864598 0.00014603417
24.392036 -51.637329 -112.82206 0.0365136 -0.84236687 -0.53766811 5.0657974e-05
25.380852 -49.281124 -116.40858 0.028299725 -0.85842097 -0.51283163 0.0002495618
25.741222 -52.57935 -111.27657 0.036405154 -0.85913086 -0.51052231 0.00098719774
26.25745 -50.338737 -114.67554 0.038124375 -0.84491146 -0.53355151 0.00014629861
26.765947 -51.427139 -112.99045 0.037129816 -0.84120697 -0.53943807 4.0904015e-05
26.913218 -48.58905 -117.52425 0.024416976 -0.90529901 -0.43578497 0.00029755026
27.090557 -53.475887 -109.71593 0.032698527 -0.89810359 -0.43877622 0.00454485
27.922554 -49.417198 -115.98014 0.033282164 -0.8575207 -0.51359332 0.00020249357
28.132833 -52.335075 -111.46852 0.036732972 -0.85240901 -0.52164626 0.00060319557
28.426516 -50.497139 -114.27637 0.035100196 -0.84483349 -0.53388137 0.00012204937
29.053932 -53.88509 -108.73859 0.021930005 -0.92547774 -0.37851366 0.0052417796
29.28915 -48.424984 -117.69298 0.013273632 -0.89854854 -0.44665092 0.0002117499
29.747496 -51.478489 -112.67872 0.034730565 -0.84339225 -0.53617799 4.4635784e-05
30.053097 -52.907642 -110.45477 0.036549833 -0.87240702 -0.4874492 0.0019178999
30.101759 -49.588215 -115.5998 0.026983105 -0.85700428 -0.51491207 0.00015354512
31.405783 -50.569332 -113.95422 0.028091222 -0.84850448 -0.52844256 0.00015111508
31.406082 -53.750122 -108.8875 0.032513041 -0.91605866 -0.39986175 0.0046986165
31.452799 -48.612244 -117.27276 -0.00086818537 -0.89833307 -0.44565475 0.00020485958
31.70797 -52.006489 -111.72522 0.031895056 -0.84593314 -0.53233474 4.4825476e-05
32.452381 -49.460239 -115.72066 0.016233617 -0.86859155 -0.49636644 0.00023841404
33.031326 -52.998413 -110.15264 0.030530635 -0.87778258 -0.47810677 0.0029732655
33.329086 -51.156685 -112.93468 0.029495299 -0.84495914 -0.53401858 0.00018472003
34.426517 -49.976776 -114.76985 0.023111751 -0.86390805 -0.50357813 0.00027796222
34.655693 -52.137749 -111.36024 0.030952143 -0.84518027 -0.53358847 0.0001211465
34.958851 -53.515717 -109.12945 0.023117431 -0.90333694 -0.42835146 0.0052148495
35.328144 -50.982628 -113.08995 0.031621311 -0.84894073 -0.52755088 0.00023851219
35.345779 -49.097019 -116.35101 0.0044100159 -0.90822804 -0.42925641 0.00032316832
36.566517 -52.77153 -110.34661 0.033445984 -0.8672545 -0.49705976 0.0035278611
36.627113 -50.108906 -114.40242 0.032523796 -0.86385298 -0.50348288 0.00025326986
37.285614 -51.528461 -112.12613 0.035006326 -0.84347159 -0.5360381 0.00012666496
37.557472 -49.204277 -115.98682 0.037245553 -0.90666294 -0.42972523 0.00035892552
38.183407 -52.603252 -110.49188 0.036179453 -0.86101568 -0.50732517 0.0022522483
39.195614 -50.234421 -113.99782 0.039386626 -0.85770774 -0.51281458 0.00030803189
40.028439 -52.025356 -111.19771 0.040628526 -0.84404981 -0.53476834 0.00037506054
40.32077 -53.439114 -108.97446 0.039669137 -0.8997491 -0.43493098 0.0045162248
40.60041 -49.197468 -115.7146 0.065628998 -0.88716757 -0.46146017 0.00041602782
41.128994 -50.800774 -112.97764 0.045758691 -0.84528595 -0.53237253 0.00023597866
41.992165 -52.583591 -110.24718 0.040708333 -0.86456007 -0.50304312 0.002378697
42.444962 -49.886795 -114.28008 0.087686948 -0.84186149 -0.53444135 0.00025276697
43.080662 -51.327118 -111.97966 0.079289161 -0.8376348 -0.54164517 0.00012650205
43.732494 -53.376724 -108.67994 0.085809752 -0.91461664 -0.40115201 0.0040199221
-52.417622 -54.810043 -106.94927 0.027145389 -0.94444525 -0.32901123 0.010397842
-50.09602 -54.58271 -107.61462 0.0072206459 -0.96188861 -0.27449921 0.0077899517
-47.310467 -54.668636 -107.24635 -0.0021320716 -0.9552111 -0.29596972 0.0078759035
-45.420162 -55.063896 -106.23711 0.0021264709 -0.93176013 -0.36336768 0.0074293409
-44.920769 -54.433289 -108.31644 -0.0037450518 -0.97587055 -0.21947098 0.0074417936
-42.353165 -54.77956 -106.94585 -0.0053233304 -0.95171779 -0.30798909 0.0091051226
-40.980663 -54.509964 -108.39056 -0.00074648933 -0.97417861 -0.22613156 0.0064020278
-40.285984 -54.917591 -106.54134 0.0025193 -0.9459874 -0.32425475 0.0090096388
-38.301544 -54.687885 -107.19862 0.009582811 -0.96104771 -0.27622351 0.0076856958
-36.634705 -54.441631 -108.4976 0.018995967 -0.9738664 -0.22669864 0.0054012593
-35.486065 -54.735348 -106.8282 0.025075767 -0.95342922 -0.30084765 0.0069983625
-32.885674 -54.6409 -107.00011 0.0096971216 -0.9631694 -0.26899707 0.0081555825
-30.964605 -54.892651 -106.01044 0.026452811 -0.94126689 -0.33690768 0.0076806331
-30.536663 -54.448818 -107.93753 0.0081320601 -0.97624105 -0.21692528 0.0060555916
-28.924412 -54.61977 -106.73393 0.019157344 -0.95978862 -0.28035191 0.0086617973
-27.212553 -54.361908 -108.08688 0.0166074 -0.97963065 -0.20177373 0.0067862985
-27.007275 -54.908154 -105.73919 0.006346514 -0.94113761 -0.33812994 0.0085432259
-25.206551 -54.476212 -106.95119 -0.0067734411 -0.97119457 -0.23852532 0.0082205115
-23.784492 -55.013996 -105.44687 -0.020021185 -0.93504685 -0.35443035 0.0071017025
-22.66823 -54.552013 -107.01405 -0.033939134 -0.9702242 -0.24053518 0.0064415191
-21.075663 -54.463802 -108.43238 -0.02705103 -0.96996588 -0.24235293 0.0058626314
-19.556705 -54.886261 -106.52631 -0.017382162 -0.95558321 -0.2943272 0.007532109
-18.922167 -54.558826 -108.42599 -0.011372845 -0.97126406 -0.23836561 0.0054227826
-17.248911 -54.772285 -107.04929 0.003547343 -0.96150148 -0.27496421 0.0051913112
-15.314084 -54.647251 -107.55968 -0.01361989 -0.9670006 -0.2546373 0.0061205011
-13.76966 -54.910629 -106.21841 -0.0043258234 -0.95390427 -0.30012089 0.0089770677
-13.438211 -54.612282 -108.24461 -0.019129969 -0.96918362 -0.24647626 0.0073483526
-11.787373 -54.839783 -106.82829 -0.014438082 -0.96628356 -0.25898615 0.0078711193
-9.6690159 -54.989273 -106.4502 -0.014072022 -0.95797545 -0.28688127 0.0064055007
-8.0008736 -54.777695 -107.67048 -0.012240706 -0.97465646 -0.22544339 0.0078343619
-6.4696188 -55.098267 -106.02847 0.00063863193 -0.95493621 -0.29783705 0.0077145309
-5.4729776 -54.833786 -107.92191 -0.0089148907 -0.96732026 -0.25439805 0.0072845272
-4.1698947 -55.061985 -106.23045 -0.0036095935 -0.9621653 -0.27251339 0.0065122386
-1.813203 -54.897018 -107.37057 0.0096116373 -0.9723388 -0.23414594 0.0058023194
-0.19972563 -55.159168 -105.86917 0.0073010242 -0.95358539 -0.30106506 0.0073698368
0.44632691 -54.849949 -107.76934 0.022248896 -0.9623782 -0.27170667 0.0068008429
2.1722689 -54.989811 -106.43434 0.020074679 -0.95905912 -0.28261888 0.0052575767
3.8018663 -54.743439 -107.83535 0.010124438 -0.95588553 -0.29397589 0.0052180127
4.1843781 -55.175453 -105.55439 0.0047304071 -0.94529659 -0.32631898 0.0057988325
5.9286051 -54.899384 -106.57147 0.0098041845 -0.95669162 -0.29102555 0.0051527498
7.565402 -54.615925 -107.96786 0.021626856 -0.95799428 -0.28606206 0.0049252999
9.2488661 -54.893131 -106.28349 0.022420689 -0.95694536 -0.29024065 0.0052289991
9.8509903 -54.565922 -108.09282 0.027118254 -0.95586562 -0.29263353 0.0045748902
11.601092 -54.764694 -106.79607 0.023128467 -0.95825505 -0.28513512 0.0039056325
12.56533 -54.427975 -108.57757 0.019397588 -0.95193326 -0.30758643 0.0058401683
13.831897 -54.762741 -106.82724 0.00056509493 -0.95864832 -0.28476891 0.0041284631
15.31103 -55.134548 -105.08405 0.010106276 -0.94066697 -0.33923021 0.0062086722
16.432028 -54.737728 -106.83163 0.013506104 -0.96217608 -0.27227053 0.0039109732
17.610172 -55.122166 -105.2234 0.01622672 -0.93945485 -0.34249458 0.0054397737
17.807329 -54.412823 -108.38551 0.016157379 -0.94393039 -0.32987595 0.0053063561
19.049343 -54.714104 -106.57166 0.028402375 -0.95394373 -0.29955161 0.003933805
20.421217 -54.389549 -108.11434 0.0367231 -0.94364744 -0.32932955 0.0049136155
20.536013 -55.135567 -104.85603 0.025087817 -0.93498415 -0.35391164 0.0044353018
22.046667 -54.71439 -106.32504 0.025922112 -0.94811779 -0.31703228 0.0035941056
23.60878 -55.035805 -105.005 0.021956155 -0.93696189 -0.34889349 0.003753325
24.039532 -54.507889 -107.08709 0.035577148 -0.94609433 -0.32226405 0.0034580743
25.52035 -54.080166 -108.48967 0.02767951 -0.92985171 -0.36712685 0.0035760889
25.80139 -54.68615 -106.08214 0.021050757 -0.9452979 -0.32579163 0.0025546369
27.492531 -54.411228 -107.22766 0.023750369 -0.94223899 -0.33449435 0.0027787143
28.673395 -54.847847 -105.34708 0.022193134 -0.93606037 -0.35120797 0.0027732244
30.136791 -54.36692 -106.97419 0.026978619 -0.94562954 -0.32422698 0.0023290277
30.801743 -54.934364 -104.86891 0.022346705 -0.93003941 -0.36693045 0.0034529301
32.316788 -54.486881 -106.30946 0.012044149 -0.94222295 -0.33497727 0.0025802162
33.382496 -54.035542 -107.88999 0.025179952 -0.9299311 -0.3669478 0.0036049914
33.730061 -55.069904 -104.50138 0.020035682 -0.92460501 -0.38063014 0.0030027051
34.642483 -54.448406 -106.43314 0.0076118819 -0.94394255 -0.33024746 0.0024094065
36.09848 -54.961563 -104.67876 0.014209687 -0.9291839 -0.36939645 0.0031995107
36.378216 -54.099232 -107.60293 0.012748224 -0.92870969 -0.37062463 0.0032021678
37.60796 -54.522484 -106.09369 0.010094511 -0.9367786 -0.34997782 0.0028642316
38.088398 -53.901215 -108.20109 0.026541164 -0.92627776 -0.37746888 0.0049576974
40.030869 -54.296524 -106.88972 0.039970487 -0.93385857 -0.35575336 0.0036323057
40.419704 -54.764069 -104.94044 0.027869496 -0.93521214 -0.35328516 0.0032824541
42.127754 -54.042873 -107.47587 0.065148406 -0.93020946 -0.36200798 0.0057201623
42.412018 -55.048969 -103.97292 0.018170312 -0.92350209 -0.38398531 0.0037149182
43.380898 -54.365139 -105.95959 0.010410155 -0.93100232 -0.36597106 0.0031476133
-57.430523 -44.064697 -65.387772 -0.048507195 -0.4669548 0.8833586 7.2955489e-05
-57.302158 -54.560787 -70.809166 -0.0028347103 -0.45738804 0.88985378 7.8003941e-05
-57.139172 -52.263149 -69.598846 0.00097909989 -0.4636448 0.88681382 6.0281029e-05
-56.821198 -46.080235 -66.384201 -0.052365631 -0.45799628 0.88788337 8.5877233e-05
-56.541405 -49.575092 -68.215088 -0.02683327 -0.46245611 0.88624132 5.2759104e-05
-56.048977 -42.58493 -64.593658 -0.023533124 -0.45594135 0.88971436 7.079239e-05
-55.77388 -47.703926 -67.187851 -0.038870454 -0.46373343 0.88521099 7.3123767e-05
-55.655434 -53.489994 -70.188927 -0.032425802 -0.46098888 0.88681734 4.3929358e-05
-55.482376 -51.160797 -68.999199 -0.028008133 -0.45979607 0.88759518 4.2900389e-05
-55.428574 -44.584896 -65.571838 -0.031392545 -0.4503383 0.89231223 9.3964831e-05
-54.964085 -40.931145 -63.841133 -0.091228791 -0.52886188 0.84709322 0.013655613
-54.433643 -49.649666 -68.180031 -0.029665848 -0.46018991 0.88732535 6.762112e-05
-54.38768 -46.226269 -66.386147 -0.028198918 -0.45888963 0.8880524 7.1345457e-05
-54.020283 -52.44783 -69.587212 -0.033472005 -0.45538229 0.88966751 3.5577676e-05
-54.016674 -43.047318 -64.757904 -0.029293483 -0.45354801 0.89075089 7.7118661e-05
-53.758797 -54.396881 -70.584862 -0.034974668 -0.46239695 0.88598382 3.2198532e-05
-53.324463 -47.81192 -67.179787 -0.029442742 -0.4623003 0.88623494 5.7219073e-05
-52.975967 -44.699837 -65.562775 -0.031422731 -0.45250216 0.89121145 6.302711e-05
-52.97081 -50.933121 -68.791168 -0.032807201 -0.4571481 0.8887853 4.0440231e-05
-52.966991 -41.499786 -64.003929 -0.055888727 -0.5046429 0.86171341 0.0067385505
-52.105099 -53.327873 -69.958084 -0.035395388 -0.45910248 0.88768089 4.2079519e-05
-51.920017 -43.169544 -64.750359 -0.03003199 -0.45345485 0.89077342 0.0001476364
-51.918407 -49.421967 -67.974709 -0.032272812 -0.45857298 0.88807082 6.4025997e-05
