# .PCD v0.7 - Point Cloud Data file format
VERSION 0.7
FIELDS x y z normal_x normal_y normal_z curvature
SIZE 4 4 4 4 4 4 4
TYPE F F F F F F F
COUNT 1 1 1 1 1 1 1
WIDTH 599
HEIGHT 1
VIEWPOINT 0 0 0 1 0 0 0
POINTS 599
DATA ascii
73.463921 -33.272915 -3.0070343 0.14703782 -0.92079347 0.36127582 0.00035656712
73.837944 -36.95892 -15.175835 0.21321306 -0.94626945 0.243154 0.00054368214
74.094002 -35.760746 -11.104986 0.193492 -0.94452697 0.26539201 0.00015838069
74.67778 -34.284668 -6.3771982 0.17463519 -0.93576854 0.30640531 0.00031866005
74.767662 -37.218037 -16.952404 0.23366919 -0.95824158 0.16516206 0.0026731729
74.795029 -34.898632 -8.4085007 0.18679841 -0.94186717 0.27927229 0.00037050332
75.02597 -36.035072 -12.875871 0.20398308 -0.94360089 0.2607851 4.8203849e-05
75.171791 -33.38171 -4.0734882 0.16596156 -0.92520738 0.34125006 0.00035566272
75.960777 -36.340725 -14.640375 0.21473366 -0.94707042 0.23866907 0.00036347425
76.139023 -35.074368 -10.207467 0.2005022 -0.94487965 0.25885525 0.00012225911
76.871506 -33.44825 -5.1593599 0.18190159 -0.93087769 0.31686935 0.00034396208
76.865479 -34.111301 -7.1727219 0.19247773 -0.9387666 0.28588974 0.00037225196
76.88208 -36.617317 -16.412453 0.23693854 -0.95887637 0.15628031 0.0041321837
77.141281 -35.340946 -11.990018 0.20774247 -0.94425178 0.25542334 7.8043216e-05
77.83503 -34.386208 -8.9465199 0.20406315 -0.94461918 0.25701377 0.00020434173
78.038452 -35.729973 -14.093387 0.21954903 -0.94537628 0.24096136 0.00027502509
78.042633 -32.632587 -3.5622816 0.16999069 -0.92797768 0.33166897 0.0003731625
78.543404 -33.470856 -6.2606416 0.19500691 -0.93669355 0.29096934 0.00053744303
78.780655 -34.647896 -10.724467 0.21314196 -0.94448483 0.25004464 0.00014700976
79.473984 -35.813976 -15.577502 0.24557588 -0.95606202 0.16044588 0.0036899101
79.659126 -34.835072 -12.149324 0.22214362 -0.94259763 0.24934429 0.000158182
79.768059 -32.249283 -3.3044465 0.17488724 -0.93114257 0.32001328 0.00036103057
79.792847 -33.335167 -6.6692462 0.19912232 -0.93988621 0.27753279 0.00026846281
80.707504 -32.647022 -5.0349627 0.19530202 -0.9349342 0.29625231 0.00052269839
80.790115 -35.639465 -16.373468 0.28686056 -0.95407039 0.088154778 0.006708039
80.808693 -33.605389 -8.4509192 0.22070375 -0.94147629 0.25485966 0.00023042582
81.364578 -34.192566 -11.24291 0.2382265 -0.94070154 0.24152493 0.00025808695
81.520149 -34.720589 -13.320459 0.25065041 -0.9423483 0.22181086 0.00096359098
81.995293 -32.879707 -6.8156629 0.22153333 -0.93905151 0.26288524 0.00026843537
82.307747 -31.90831 -3.7739398 0.19984956 -0.93394685 0.29633638 0.00053759635
82.492348 -34.907696 -15.131007 0.29600194 -0.94264221 0.15437818 0.0032403169
82.583199 -33.470779 -9.6106453 0.24393475 -0.93975562 0.23952074 0.00031332893
83.223633 -33.901974 -12.094914 0.26501891 -0.93714327 0.22707549 0.00028506885
83.531166 -34.749744 -17.024332 0.33925751 -0.94095397 -0.0045019016 0.0067944927
83.687813 -32.113178 -5.5682063 0.22519337 -0.93862873 0.26127648 0.00035744772
83.804512 -32.648521 -7.6370993 0.24410631 -0.93855399 0.24401291 0.00034257071
84.070381 -31.239422 -2.866956 0.20691894 -0.93319923 0.29382122 0.00035087034
84.184448 -34.089153 -13.902461 0.3003962 -0.93735528 0.17707202 0.0030345328
84.431549 -33.158749 -10.46471 0.26642704 -0.93740934 0.22424515 0.00015181788
85.276749 -34.083965 -15.78772 0.33508092 -0.94037187 0.061563719 0.0040669413
85.382164 -31.460506 -4.6536345 0.22864795 -0.93788546 0.26096383 0.0002994505
85.499763 -33.269283 -12.311052 0.28687936 -0.93575561 0.20510304 0.00037365602
85.537025 -31.955627 -6.7405524 0.24841128 -0.93944812 0.23608001 0.0002912613
85.640068 -32.427162 -8.8289843 0.2602351 -0.93979168 0.22152144 8.7257198e-05
86.530426 -33.375984 -14.157999 0.31832033 -0.93741399 0.14213085 0.0026444269
86.549995 -33.55265 -17.477772 0.35984141 -0.93047011 -0.069814257 0.0033766211
86.595116 -30.702038 -3.0242517 0.21992072 -0.93613023 0.274409 0.00046023668
86.682594 -32.553558 -10.665625 0.2794379 -0.93767488 0.20660685 0.00029418946
87.201904 -31.226181 -5.4745975 0.24494621 -0.9399538 0.23781012 0.00048383744
87.356071 -31.648951 -7.5854325 0.26099616 -0.94044256 0.21783069 8.9446636e-05
87.711548 -32.622734 -12.518017 0.29765329 -0.93706709 0.18251847 0.00039421592
88.088593 -33.010204 -15.781577 0.3419022 -0.93959183 0.022328133 0.0050637648
88.420158 -31.779211 -9.4254665 0.28022385 -0.93907768 0.19907042 0.0002908785
88.432327 -30.498829 -3.8347874 0.24123557 -0.93766057 0.25019783 0.00052345981
88.502373 -32.681206 -17.760935 0.34765005 -0.93346184 -0.088322699 0.0024977913
89.07653 -30.970751 -6.6794643 0.26634803 -0.94008744 0.21282987 0.0001141234
89.291626 -32.368134 -13.758713 0.32258981 -0.93819511 0.12555376 0.0015584201
89.424477 -31.923382 -11.6196 0.30175519 -0.93705076 0.17574193 0.00032534741
89.963699 -32.321007 -16.004704 0.35224548 -0.93598527 -0.011837833 0.0041813175
90.116745 -31.073914 -8.5227146 0.28648105 -0.93837303 0.19336578 0.00029083548
90.186195 -29.772501 -2.9417472 0.24719985 -0.93647081 0.24883944 0.00039456639
90.254005 -30.273415 -5.0218573 0.26128975 -0.9398734 0.21993068 0.00030933748
91.041733 -31.619543 -12.878248 0.32639316 -0.9355796 0.13475494 0.0011253435
91.161423 -31.109716 -10.38676 0.30539119 -0.9358328 0.17597283 0.00026994283
91.356186 -30.368544 -6.8761873 0.27793774 -0.94066167 0.19469628 0.0003529035
91.627655 -31.705402 -15.073339 0.35756579 -0.93383461 0.01393253 0.004399661
91.793694 -31.449591 -17.462122 0.37480074 -0.92349213 -0.082381189 0.0027256391
92.021812 -29.562372 -4.1263509 0.26288676 -0.93961763 0.21916085 0.00028253163
92.43914 -30.383362 -8.7525139 0.29877251 -0.93875861 0.17167303 0.00031599405
92.763512 -30.792919 -11.642819 0.32217818 -0.93515295 0.14734781 0.00060127355
93.083855 -29.674843 -5.97051 0.27869964 -0.94076812 0.19309476 0.00035031216
93.389328 -30.97117 -16.122408 0.37402886 -0.92550594 -0.062138245 0.0039426554
93.471565 -30.904808 -13.876644 0.34880173 -0.93461931 0.06971205 0.0026652028
93.739471 -28.890917 -3.2102246 0.26880315 -0.93670398 0.22440276 0.00031053188
94.155136 -29.683893 -7.8459167 0.30424416 -0.93835121 0.16412026 0.00024387302
94.439598 -29.946243 -10.03406 0.31711781 -0.93613285 0.15197229 0.00016716757
94.625587 -30.225752 -12.197824 0.33243984 -0.93455452 0.12686051 0.00054550223
94.759857 -29.004839 -5.0466356 0.2878454 -0.93857455 0.19037451 0.00037830192
94.941154 -29.971087 -17.653585 0.39186835 -0.91551203 -0.091281712 0.0020811479
95.046326 -30.349085 -15.177579 0.37537718 -0.92638773 -0.030961184 0.0046038819
95.919029 -28.975206 -6.9486718 0.31250939 -0.93693119 0.15669468 0.00026515799
96.015442 -28.281061 -3.4000814 0.2903811 -0.93419069 0.20734917 0.00044091255
96.126427 -29.225288 -9.1239643 0.32237455 -0.93517745 0.14668983 0.00012230528
96.197861 -29.889027 -13.456855 0.34995207 -0.93582243 0.043097876 0.0041096099
96.475014 -29.459686 -11.338711 0.33437172 -0.93372846 0.12785512 0.00037618497
96.791649 -29.153782 -17.520559 0.3808594 -0.92013156 -0.091985241 0.0022872654
97.035034 -29.505041 -15.461288 0.37941483 -0.92261881 -0.069711268 0.0033127081
97.142509 -28.267248 -5.2906098 0.31704643 -0.93299448 0.1703151 0.00021586078
97.898506 -28.36084 -7.533967 0.33031014 -0.93254787 0.14577618 8.9369067e-05
98.095673 -29.144873 -13.68938 0.37317684 -0.92777145 0.010035659 0.0037184628
98.121162 -28.591257 -9.7206659 0.33419633 -0.93193918 0.14072753 6.1713174e-05
98.389656 -27.527073 -3.6426497 0.30991513 -0.93265116 0.18470532 0.00037799001
98.566055 -28.620218 -16.613625 0.38281903 -0.91937983 -0.091282412 0.0020813628
98.853127 -28.656578 -11.609176 0.35032415 -0.93174833 0.096032239 0.0019313456
99.039101 -27.677114 -5.8493991 0.32797235 -0.9319821 0.15443085 0.00014158041
99.801071 -27.697884 -7.7480302 0.33161312 -0.93251264 0.1430155 0.00010335637
99.770927 -28.400162 -14.695731 0.38478455 -0.92152768 -0.052570362 0.002698936
100.05846 -27.938375 -9.9431963 0.33959812 -0.93256485 0.12253401 0.00035859412
100.33269 -26.897213 -3.8515906 0.31522942 -0.93454731 0.16508242 0.00024909145
100.763 -27.954182 -11.836893 0.36107901 -0.93005496 0.070466377 0.0022499831
100.89841 -27.609476 -16.534773 0.39646578 -0.91412169 -0.085308008 0.0015227497
100.9782 -27.034443 -6.0631356 0.32641172 -0.93383479 0.14631666 0.00010898858
101.65738 -27.637972 -13.859295 0.38696283 -0.92152429 -0.036864873 0.0022952103
101.70835 -27.063948 -7.9553509 0.33244568 -0.93314385 0.13683552 9.5887968e-05
101.98375 -27.303864 -10.158145 0.34360984 -0.93349552 0.10261705 0.00058858178
102.61343 -26.96069 -15.604729 0.39920756 -0.91242701 -0.090620168 0.0014953208
102.63328 -26.159435 -4.0737543 0.32190359 -0.93463647 0.15112557 0.00021077806
102.6843 -27.237392 -12.067026 0.36923823 -0.92909116 0.029258568 0.0025026335
102.93777 -26.380554 -6.2836938 0.33186015 -0.93321556 0.13776098 0.00011802375
103.29813 -26.388031 -17.754232 0.40688795 -0.91257077 -0.04112795 0.0024748896
103.62952 -26.461945 -8.5228643 0.34597167 -0.92985731 0.12521258 0.00013012023
104.09515 -26.566343 -13.82919 0.39927259 -0.91432756 -0.067850746 0.0018161983
104.39163 -26.4489 -10.43851 0.3660799 -0.92728996 0.078288838 0.00088654138
104.41331 -25.368599 -2.8186173 0.32877728 -0.93183595 0.15360728 0.00044021654
104.62798 -25.601093 -5.007627 0.34110528 -0.93043524 0.13394193 0.00028221557
104.88827 -25.842054 -16.045082 0.41955435 -0.9029507 -0.093063734 0.0016465802
105.41394 -25.573257 -6.9280291 0.35844412 -0.92523062 0.12436701 0.00019910408
105.6295 -26.070648 -12.088067 0.40830886 -0.91285187 -0.0141613 0.0023481306
106.124 -25.5478 -8.8335028 0.37645432 -0.92057091 0.10437907 0.00029790701
106.17466 -25.59178 -14.156621 0.43907759 -0.89297795 -0.099008903 0.0012652361
106.32198 -24.7467 -3.3804605 0.34727547 -0.92788363 0.13576844 0.00033807626
106.82851 -24.890591 -15.95395 0.44920334 -0.88928562 -0.087084621 0.0020715927
107.10335 -24.689814 -5.3054237 0.36627626 -0.92299426 0.11800242 0.00034169882
107.37573 -25.197882 -10.481312 0.41822717 -0.90759015 0.03997431 0.0018858815
107.75342 -24.972593 -12.801364 0.4457252 -0.89199096 -0.075507261 0.0023782877
107.91459 -24.640747 -7.6056781 0.39451087 -0.9132961 0.10133267 0.00029026769
108.5902 -24.157583 -14.689236 0.45327878 -0.88542622 -0.10392626 0.0018427612
109.14259 -24.225836 -9.2572212 0.4158909 -0.90769982 0.056153778 0.00088866049
109.53565 -24.029341 -12.454659 0.45545548 -0.88642812 -0.082627282 0.0022456984
55.418495 -35.377491 -0.96366531 0.20549782 -0.92607582 0.33071399 0.00031074201
55.950771 -32.9179 4.4796658 0.13255164 -0.91270018 0.43715701 0.00070108357
56.213348 -34.480103 0.95151442 0.22434515 -0.90980959 0.36011028 0.00091092312
56.672436 -30.124113 9.8261204 0.082636081 -0.89585584 0.48297423 0.00097668439
57.079231 -35.243393 -2.1071656 0.28640616 -0.90252531 0.32483765 0.0012974938
57.097622 -33.542465 2.4850559 0.29143074 -0.87950784 0.37633619 0.00079901947
57.204826 -28.872023 11.994765 0.031538177 -0.89952856 0.52032459 0.003216295
57.266869 -31.906322 5.9985766 0.24661385 -0.87974685 0.41558263 0.0010863664
57.754307 -30.89052 7.8756227 0.23550351 -0.87949371 0.42585304 0.0016525408
57.975937 -34.270618 -0.21523923 0.29405463 -0.89643645 0.33612487 0.0022483822
58.03709 -32.508102 3.9874189 0.32233036 -0.86561942 0.3835789 0.0011647606
58.714447 -29.868473 9.3948994 0.28477687 -0.86434621 0.42089319 0.0019498441
58.912399 -33.335289 1.3247327 0.27637509 -0.88152164 0.38437393 0.0021685872
59.259289 -28.78731 11.259885 0.30955586 -0.84825385 0.43499419 0.0029900582
59.350742 -34.548248 -1.9529474 0.2071209 -0.9060936 0.36896202 0.002276141
59.470055 -31.400454 5.1068501 0.32138455 -0.8587147 0.39978871 0.0019757375
59.968899 -32.280853 2.8417609 0.2587347 -0.87384433 0.41196355 0.0031761243
60.040104 -30.340837 6.9825869 0.33111128 -0.84937835 0.41104996 0.0025350072
60.279877 -33.668781 -0.38647088 0.20387754 -0.89504045 0.39667365 0.0033181063
60.542858 -28.946934 9.4687843 0.337758 -0.8455295 0.41381776 0.0039131516
61.306499 -27.836477 10.991362 0.35579103 -0.81679529 0.45452467 0.0043926588
61.293037 -31.308025 4.0005393 0.21449263 -0.86995536 0.44440621 0.0043524462
61.496983 -32.690659 1.1292475 0.17263825 -0.88983411 0.42259666 0.0032195176
61.657944 -29.213324 7.7624378 0.28483921 -0.84977585 0.44373745 0.0058430075
61.733147 -34.195633 -2.0601287 0.12652975 -0.90729439 0.40119699 0.0016691847
61.925652 -30.168259 5.8619814 0.22014046 -0.86343265 0.45411065 0.0057727131
62.629543 -28.080713 9.2439117 0.25520626 -0.84784573 0.46494547 0.0078597507
62.648891 -33.346409 -0.48365718 0.11429057 -0.89719296 0.42670536 0.0014848005
62.866779 -31.734104 2.6859505 0.13621517 -0.88214797 0.45111033 0.0032927033
63.223835 -26.837172 11.056508 0.26260626 -0.83539009 0.48302984 0.01023105
63.360935 -30.676758 4.5475006 0.12684283 -0.87193465 0.47291908 0.0025745281
63.552544 -29.191259 6.9995379 0.1492025 -0.85928416 0.48930058 0.0039386121
63.770679 -34.057274 -2.0793805 0.094725616 -0.90580851 0.4129788 0.0002663878
63.889351 -32.474319 1.0781183 0.098125279 -0.88892758 0.44746137 0.00093906082
64.567444 -28.169519 8.5467844 0.11178409 -0.85546643 0.50578785 0.0040925443
64.792145 -31.27578 3.2680421 0.077254742 -0.88009691 0.46850356 0.0004776812
65.030334 -33.189171 -0.51031965 0.089885317 -0.89780295 0.43112788 0.00025682346
65.030945 -30.050312 5.4767203 0.064782314 -0.86910629 0.49036488 0.00044719302
65.129242 -26.991241 10.375564 0.10598953 -0.84153783 0.52995002 0.0042571872
65.940086 -32.168655 1.3811033 0.080827072 -0.89043009 0.44789273 0.00027512811
65.943886 -29.088125 7.0128927 0.054843064 -0.85843039 0.5099957 0.00022579829
66.110352 -25.966202 11.916737 0.071007214 -0.83392417 0.54751348 0.0019294177
66.124237 -33.839546 -2.1395941 0.098639734 -0.90979767 0.40316698 0.0003772293
66.508804 -30.654953 4.2135682 0.066817172 -0.87870753 0.4726693 0.00023273243
66.526054 -27.754099 9.1591368 0.046849195 -0.84755331 0.52863878 0.00017668464
67.015549 -32.858696 -0.23834164 0.089958675 -0.90074998 0.42492414 0.00024638066
67.38681 -29.744373 5.762507 0.056891423 -0.87065536 0.48859504 0.00044293894
67.512672 -26.727989 10.701974 0.035179086 -0.83985043 0.54168135 0.00026182781
67.603409 -31.546333 2.3045309 0.078022234 -0.8900829 0.44907558 0.00021954511
67.981239 -28.624746 7.6354961 0.047201615 -0.85853601 0.51058722 0.00023544926
68.209846 -33.49971 -1.8552259 0.10214952 -0.91077602 0.40007338 0.00045199823
68.691475 -32.241367 0.68801314 0.095412143 -0.89830488 0.42889059 0.00027201886
68.845474 -30.649923 3.8600755 0.073228821 -0.88603294 0.45782211 0.00028150564
68.928185 -27.632315 9.1750622 0.041715786 -0.85005742 0.52504027 0.00013589702
69.186104 -26.074551 11.62646 0.028511276 -0.8378588 0.54516768 0.00021562279
69.390579 -29.631756 5.7623858 0.063538902 -0.87633979 0.47748938 0.00031031584
69.980537 -31.350664 2.2591496 0.084909946 -0.89623481 0.43537745 0.00022647793
70.17675 -33.143524 -1.5961848 0.11058705 -0.91145444 0.39626348 0.00041980596
70.306274 -28.684351 7.3104243 0.063466333 -0.86348319 0.50038195 0.00028165127
70.609001 -26.971157 10.096318 0.046398409 -0.84981114 0.52504259 0.00020515799
70.675644 -32.215057 0.32651806 0.10111867 -0.90295267 0.41767839 0.00024546191
70.88549 -30.340136 4.1609163 0.0785302 -0.88833433 0.45244041 0.00023460075
71.520119 -25.995461 11.629127 0.041872628 -0.84504849 0.53304851 0.00020710056
71.761803 -29.291975 6.0360537 0.077563271 -0.87543446 0.47707415 0.00031937216
71.981979 -31.172504 2.2196934 0.097558253 -0.8994441 0.42601082 0.00024304017
71.985527 -28.026634 8.2298574 0.06618198 -0.86392969 0.49925742 0.00026857629
72.308014 -32.757988 -1.3249812 0.12596968 -0.9128775 0.38832903 0.00038223559
72.891396 -30.323095 3.8106558 0.098424211 -0.89266998 0.43987954 0.00028891891
72.947548 -27.03688 9.7800484 0.068663508 -0.85639888 0.51176703 0.00024490021
73.143547 -31.7932 0.58339453 0.11697876 -0.90540898 0.40811813 0.00025814166
73.501648 -28.614321 6.9661727 0.088007569 -0.87178069 0.48194078 0.00033278903
73.546906 -25.685501 11.936113 0.058449935 -0.8483097 0.52627903 0.00027847948
74.284828 -32.353722 -1.081163 0.1417312 -0.91489619 0.37806743 0.0003790184
74.394203 -30.922432 2.1583185 0.11078781 -0.90388429 0.41318423 0.00021407445
74.430115 -27.621351 8.4993095 0.083357677 -0.86576217 0.49346632 0.00018300473
74.546478 -29.524187 5.0413647 0.10146331 -0.88529491 0.453832 0.00031737812
74.989006 -26.503277 10.365417 0.071677461 -0.860358 0.50462508 0.00023099594
75.519081 -28.394884 6.9131026 0.095961243 -0.876212 0.47229376 0.00021296191
75.633598 -31.497917 0.51287937 0.13408811 -0.91229635 0.38696438 0.00037384001
76.111511 -30.289078 3.0903804 0.11740254 -0.89902663 0.4218843 0.00040108201
76.398567 -32.295753 -1.8237425 0.15051453 -0.92349905 0.35287488 0.00035082159
76.482079 -27.428465 8.4741201 0.085028805 -0.87212491 0.48184535 0.00015770008
76.607124 -29.294386 4.9948854 0.11108825 -0.88801843 0.44620699 0.00036287995
76.725388 -25.808372 11.294345 0.068837509 -0.85893792 0.50744462 0.00018847451
77.536392 -28.355173 6.5555706 0.099472299 -0.88277787 0.45917436 0.00019066341
77.638924 -31.3298 0.095516793 0.14423688 -0.91660184 0.37287697 0.00029548918
78.086937 -30.477249 2.0496991 0.13600998 -0.91021192 0.39126042 0.00045573915
78.136711 -26.783981 9.3920727 0.076519527 -0.87265301 0.4823972 0.00023623125
78.609474 -29.373308 4.2972016 0.12025635 -0.8962335 0.42698538 0.0005035763
78.72094 -25.500399 11.582995 0.064192496 -0.86091483 0.50469142 0.00016045595
78.973747 -31.774883 -1.6030811 0.15804583 -0.92667955 0.34102902 0.00034561125
79.209129 -27.708246 7.4777331 0.095456101 -0.88367271 0.45827317 0.00027594116
79.720909 -26.99963 8.7473345 0.089733876 -0.88071626 0.46508145 0.00024513796
79.779579 -31.169765 -0.30601549 0.15438205 -0.92272848 0.35318771 0.00056167506
79.802917 -30.381815 1.6704481 0.14082229 -0.91409147 0.38027388 0.00032800814
79.829826 -29.526251 3.6193159 0.13096148 -0.90314025 0.40891242 0.00031928718
80.645149 -26.076164 10.320919 0.08278878 -0.87367105 0.479482 0.00027997457
80.745438 -28.655884 5.2081585 0.12446076 -0.89727587 0.42361954 0.00023801345
81.364227 -31.525383 -2.0408123 0.17913909 -0.92912245 0.32349822 0.00042922128
81.61866 -27.787226 6.7907138 0.11814581 -0.89239055 0.4355635 0.00028737137
81.730797 -26.807777 8.7050991 0.10438815 -0.88465917 0.45442566 0.0001533691
81.82177 -30.478939 0.5984236 0.16595004 -0.91998893 0.35511515 0.00044993655
81.880478 -29.660374 2.5667737 0.15399386 -0.91066074 0.3834691 0.00029104197
82.666931 -25.872713 10.277061 0.10140406 -0.87890381 0.46620387 0.00013606016
82.752785 -28.828775 4.1643629 0.14651033 -0.90563893 0.39795876 0.00024018038
83.137413 -30.872967 -1.1243277 0.18395372 -0.92745811 0.32556149 0.00040502712
83.615913 -24.920645 11.847528 0.093455695 -0.87031966 0.48355666 0.00037956191
83.667656 -27.971807 5.7610698 0.14024958 -0.90144515 0.40964755 0.00030449172
83.76059 -27.043127 7.696013 0.12436509 -0.89262545 0.43330571 0.00017160887
83.977371 -29.975433 0.82569295 0.18108222 -0.92019951 0.34705639 0.00035526892
84.444267 -29.120779 2.7900751 0.16869238 -0.91441727 0.36794966 0.00037410209
84.701187 -26.126429 9.278266 0.11818195 -0.88759696 0.445209 0.00018847728
85.31002 -30.303648 -0.9234755 0.2006399 -0.92722178 0.3162418 0.00046056387
85.61927 -25.202398 10.853587 0.11206102 -0.88119113 0.45929712 0.00023918235
85.741203 -28.089832 4.7040234 0.1541889 -0.90968084 0.38564494 0.0003036166
85.791939 -27.219254 6.6575236 0.14159824 -0.90136844 0.40925369 0.00023774324
86.101418 -29.32522 1.3763943 0.18164589 -0.92267835 0.34011057 0.00020965886
86.696564 -26.346491 8.2504253 0.1330736 -0.89642465 0.42276978 0.00019551191
86.960571 -24.378315 12.102565 0.10609611 -0.87661749 0.4693501 0.00024916243
87.424759 -28.480713 2.9820616 0.17338443 -0.92024362 0.35084507 0.00030558457
87.47049 -29.898884 -1.0414531 0.21082991 -0.93081141 0.29856607 0.00044539309
87.613037 -25.455456 9.8403635 0.13022245 -0.89092952 0.43507528 0.00032758823
87.867867 -27.497173 5.2815909 0.16033022 -0.91139668 0.37901223 0.00026006156
88.294998 -29.063498 0.93637747 0.19985472 -0.92735261 0.31635925 0.00055467477
88.760025 -26.507059 7.2100081 0.15629657 -0.9027887 0.4007006 0.00028856457
88.949974 -24.498783 11.416762 0.12845074 -0.88408011 0.44941112 0.00038235477
89.502533 -27.884487 3.5532808 0.1891384 -0.91871202 0.34671709 0.00034227301
89.550896 -29.339987 -0.83148414 0.22477575 -0.93194032 0.28454173 0.00040150815
89.671928 -25.628063 8.8048468 0.15448998 -0.89898807 0.40986919 0.0003524817
89.997971 -27.026573 5.5262318 0.18277785 -0.90936714 0.37369579 0.00042142923
90.438904 -28.303925 1.8290784 0.21010038 -0.9261663 0.3131741 0.00046339197
90.881622 -26.127796 7.1090665 0.17550476 -0.9048388 0.38792986 0.00035889508
90.998138 -24.524578 10.70288 0.15042035 -0.8900857 0.43028638 0.00043138934
91.352966 -28.634659 0.070557505 0.22688818 -0.93285441 0.27985224 0.00040265918
91.678482 -27.210598 4.1041489 0.20143692 -0.91765577 0.34253746 0.00045692705
91.891655 -25.232748 8.7149353 0.16770165 -0.90175813 0.39838818 0.00018558375
91.948669 -29.067249 -2.0407634 0.24379121 -0.93685275 0.2507515 0.00036903122
92.627434 -26.36471 5.7139025 0.19469897 -0.91273868 0.35918096 0.00039670648
92.639175 -27.589699 2.3634732 0.2272485 -0.92453986 0.30600584 0.00039932734
93.494316 -25.536783 7.3266678 0.18721104 -0.9088856 0.3726891 0.0003511144
93.545349 -24.540897 9.6248922 0.17101935 -0.89962345 0.4017871 0.00030460124
93.56234 -28.104034 -0.086359933 0.2489962 -0.93084639 0.26745418 0.00025387187
93.949532 -26.716602 3.9663758 0.22153129 -0.92179143 0.31817025 0.00036407774
94.813683 -27.294821 1.5371451 0.24440345 -0.9285596 0.27945113 0.0003384444
94.980019 -28.13722 -1.569579 0.26531538 -0.93363696 0.24069098 0.000345309
95.190041 -25.623304 6.2491307 0.20519866 -0.91514719 0.34703636 0.00049976259
95.198425 -24.828539 8.2390995 0.18890536 -0.9087249 0.3722038 0.00039696254
96.119972 -26.338375 3.4886942 0.23630115 -0.92594862 0.29473972 0.00036818499
96.150482 -23.958628 9.8492413 0.18051948 -0.90234828 0.39144495 0.00049509248
96.33532 -27.296228 0.037880961 0.2684586 -0.9293735 0.25348601 0.00040355622
96.977875 -24.865587 7.1503563 0.2110227 -0.91498417 0.34395683 0.00032238342
97.001724 -25.58856 5.1318722 0.22760597 -0.92081225 0.31675005 0.00028283795
97.284584 -27.469656 -1.7757639 0.29182696 -0.93058747 0.22102369 0.00032251739
97.568321 -26.394745 2.0133154 0.25511837 -0.92956644 0.2661815 0.00028761107
97.91729 -24.013607 8.7662296 0.20248242 -0.90982515 0.36224726 0.0005304814
98.533638 -26.596483 0.20660953 0.27707291 -0.93217778 0.23300304 0.00035311503
98.758972 -24.820402 6.0281739 0.23504108 -0.91928357 0.31577414 0.00046207078
98.798088 -25.50141 3.9932191 0.25133687 -0.92408347 0.28793257 0.00037669842
99.585449 -26.712494 -1.635131 0.29207724 -0.93452889 0.20336586 0.00042031988
99.654366 -24.018925 7.6590891 0.22293268 -0.91715032 0.33039245 0.00046331112
99.776268 -25.742935 2.1979713 0.26378307 -0.92998534 0.25603634 0.00024707077
100.57533 -24.725758 4.8876634 0.25077936 -0.92453659 0.28700945 0.00050652621
100.83104 -25.903999 0.36910456 0.28248182 -0.93411607 0.21831791 0.00039772235
101.47571 -23.954985 6.5296187 0.24184072 -0.92143708 0.3040905 0.0003323431
101.4809 -26.222027 -2.1634645 0.30788338 -0.93427366 0.17983843 0.00026170592
101.5475 -24.978189 3.0953126 0.2699829 -0.92798907 0.25683799 0.00040558827
102.60404 -25.141981 1.267038 0.29376805 -0.92975026 0.2219699 0.00045524308
102.93491 -24.017689 5.0531998 0.26715562 -0.92441404 0.27221087 0.00042683916
103.18802 -25.425758 -0.89669245 0.30893904 -0.93256986 0.18677519 0.00019711677
103.84981 -24.328232 2.9049273 0.28797704 -0.92825669 0.23541065 0.0004444014
104.53297 -24.621998 0.7304548 0.30663919 -0.92972988 0.20389915 0.00040291023
105.65469 -24.624243 -1.1580633 0.32865921 -0.92934424 0.1682774 0.00048930716
108.08347 -23.906849 -2.1275043 0.35195661 -0.92571968 0.13854849 0.00049536536
58.198875 -27.689877 13.840005 0.058831375 -0.87221265 0.58265346 0.0057826703
60.140995 -27.624945 12.706245 0.36043766 -0.82611674 0.434652 0.0030096336
61.931595 -26.40822 12.731397 0.33882675 -0.75538599 0.58181489 0.0062902551
63.862617 -25.555336 12.871211 0.263946 -0.82704926 0.49984667 0.012340319
65.596153 -24.730814 13.739492 0.11388454 -0.83196628 0.54403216 0.0032363103
67.781845 -25.297428 12.833116 0.022420589 -0.82494557 0.56506097 0.00017967961
68.761909 -24.241238 14.361355 0.009087408 -0.82765472 0.5611912 2.5000511e-05
70.17009 -25.040678 13.169169 0.019470207 -0.83052033 0.55691528 0.00017349514
72.159523 -24.77433 13.482475 0.03654677 -0.83515227 0.54892665 0.00019182582
73.840004 -24.081232 14.388717 0.04073241 -0.83675015 0.54614711 0.00020505894
75.297646 -24.958384 12.8587 0.061522074 -0.84686905 0.52827179 0.00011454863
77.290977 -24.641796 13.142109 0.060459446 -0.8492654 0.52451396 0.00011374331
79.826767 -23.910505 14.080711 0.058264002 -0.84716797 0.52817708 8.8224791e-05
81.633621 -24.7467 12.504609 0.077715769 -0.86056465 0.50337988 0.0003203603
82.973 -23.891685 13.738088 0.074595429 -0.85524625 0.51284099 0.00025087647
84.946533 -24.084835 13.086983 0.093599558 -0.86494958 0.49305534 0.00030482298
100.5146 -23.856802 -48.564808 0.36663479 -0.89111465 0.29330885 0.068266749
103.46698 -23.474283 -49.13818 0.16328715 -0.75145966 0.6407581 0.039573826
105.39095 -22.797411 -48.532303 0.19710854 -0.73706001 0.66241473 0.040509749
108.37001 -23.219074 -48.903 0.010090055 -0.51481295 0.85725266 0.0064175483
110.49381 -22.922464 -48.616917 -0.017970895 -0.46845254 0.88330692 0.00048455517
112.86457 -23.037497 -48.593857 -0.024754003 -0.46143529 0.88682985 3.8069531e-05
116.32021 -23.56723 -48.764034 -0.032176483 -0.46094257 0.88684773 7.6677134e-05
118.43394 -23.280678 -48.516861 -0.030508902 -0.45960006 0.88760203 7.3075717e-05
121.13002 -23.734407 -48.6973 -0.01970847 -0.46134591 0.88700289 5.8368245e-05
130.64436 -23.277994 -48.187767 -0.024195673 -0.46291393 0.88607311 4.4728127e-05
132.67877 -23.332008 -48.154194 -0.02742319 -0.46613374 0.88428986 4.8105263e-05
102.30951 -22.796478 -47.436985 0.40916264 -0.9023453 0.17643858 0.066109098
102.80186 -23.799017 -43.525391 0.50963211 -0.84760308 -0.14793845 0.0059299162
103.10212 -22.670925 -45.472294 0.48627725 -0.87004066 -0.082460575 0.021632824
103.90636 -23.357359 -39.03743 0.49520817 -0.86111373 -0.11582793 0.0041450509
104.41872 -21.854536 -47.043255 0.38015988 -0.86774498 0.32466388 0.080045655
104.47815 -22.979067 -42.239632 0.50984454 -0.85566801 -0.095374525 0.0056643398
104.85669 -21.942366 -44.574661 0.53634602 -0.83911866 -0.09327098 0.016214723
105.27979 -22.923841 -37.188232 0.51749587 -0.83452553 -0.18961009 0.0021587492
105.39175 -22.449833 -40.564896 0.51169771 -0.85685498 -0.064102016 0.0020582089
105.85263 -23.375237 -34.672066 0.50935715 -0.82558644 -0.24286509 0.00013611469
106.26254 -20.651251 -45.947376 0.45485541 -0.86293334 0.2396943 0.071325265
106.45758 -21.882858 -38.422649 0.52975672 -0.83856463 -0.12965931 0.0029286989
106.72908 -21.547321 -42.394478 0.53807211 -0.83274126 -0.13077576 0.0027672807
106.99259 -21.580236 -47.898304 0.22269413 -0.72165239 0.66098517 0.03796206
107.40056 -21.21851 -40.215263 0.52943838 -0.84567964 -0.068472736 0.0018664693
107.98947 -19.933529 -46.601017 0.35783046 -0.82929361 0.4298808 0.077381149
108.59216 -20.554895 -38.136227 0.53503644 -0.83759898 -0.11416528 0.0018224176
108.81101 -20.288952 -41.354782 0.55000156 -0.82840413 -0.10671567 0.0047812024
108.97726 -21.543362 -47.986427 0.064466797 -0.57490271 0.81641197 0.0092641162
109.39613 -18.591442 -45.170444 0.41723332 -0.86349106 0.30395988 0.073031127
109.72158 -19.723284 -39.671532 0.5331443 -0.84376359 -0.063505873 0.0017515364
109.93671 -19.143644 -42.585785 0.54663944 -0.83414972 -0.07581152 0.014112595
110.02323 -19.879953 -47.01815 0.17984952 -0.70414114 0.69102174 0.045783717
110.22227 -19.785709 -36.445969 0.51212108 -0.83725983 -0.19316623 0.0029947262
111.20832 -17.683044 -45.137558 0.42386892 -0.82786018 0.37251797 0.093214013
111.31453 -20.065155 -33.649124 0.53016013 -0.80645061 -0.26241931 0.00031288597
111.3287 -18.691151 -40.729103 0.5235765 -0.84380227 -0.1201595 0.0021737826
111.52102 -18.767052 -38.089443 0.51867813 -0.84600973 -0.12486671 0.0020559297
111.52473 -21.198404 -47.74852 0.0038421815 -0.50909799 0.86072582 0.0041374261
111.93376 -19.084904 -46.537102 0.16791841 -0.65895247 0.73833835 0.041948177
112.11382 -18.874296 -35.612988 0.52872318 -0.82377714 -0.20594282 0.0012047582
112.94207 -17.785793 -39.597172 0.53727037 -0.84073681 -0.076067418 0.0016391141
113.06661 -16.944975 -45.038033 0.33236215 -0.80807316 0.48773992 0.087947562
113.38161 -17.764847 -37.255768 0.50239128 -0.84583145 -0.18639015 0.0025502732
113.42841 -20.405527 -47.289257 0.0035677517 -0.49872011 0.86683381 0.0036668431
114.04707 -18.738779 -46.337719 0.033147294 -0.51979601 0.85391206 0.0035710698
114.42142 -16.670244 -40.427086 0.54989898 -0.82540637 -0.13506263 0.0015723741
114.82191 -15.860059 -44.149895 0.46622515 -0.93920404 0.34774333 0.069462441
114.81596 -22.190111 -48.106236 -0.031481855 -0.46141788 0.88662422 5.9125232e-05
114.82368 -16.603144 -38.438625 0.57122874 -0.81315094 -0.11499899 0.0011617888
115.56551 -20.10594 -47.000523 -0.024223134 -0.47234267 0.88108391 0.00029088755
115.7153 -17.532848 -45.597347 0.016877491 -0.51358438 0.85835326 0.00113375
116.4006 -14.657278 -43.519238 0.46999711 -0.87366748 0.33553782 0.079456531
116.93905 -21.88789 -47.857445 -0.030289531 -0.46171343 0.88651407 6.8148751e-05
117.2552 -18.85515 -46.28767 -0.01500942 -0.47277257 0.88105887 0.00033841064
117.38515 -16.305252 -44.893475 0.020507595 -0.51149702 0.85951525 0.00069840043
118.13006 -13.450831 -42.794601 0.4035981 -0.85788244 0.37703559 0.075354546
118.59931 -20.67388 -47.172295 -0.026942935 -0.46210158 0.88641769 4.5321016e-05
118.40691 -13.181199 -39.700043 0.62359887 -0.79399693 -0.13313015 0.044523478
118.719 -13.922977 -36.741108 0.61548936 -0.77554798 -0.14035028 2.8576742e-05
118.91737 -17.630919 -45.609909 -0.013745288 -0.47475299 0.88001525 0.00044504707
119.07394 -14.98488 -44.283607 0.074374504 -0.61904007 0.78361869 0.032465011
119.71932 -12.224079 -42.123306 0.40107459 -0.81213582 0.42545071 0.073990628
119.96015 -12.542044 -38.408314 0.76723719 -0.69562215 -0.062209032 0.027089236
120.13568 -22.009563 -47.830727 -0.024029341 -0.45820564 0.88852173 3.9971961e-05
120.28764 -19.423384 -46.480286 -0.02315218 -0.46152991 0.88682258 2.6121554e-05
120.63655 -16.33519 -44.911083 -0.010818632 -0.4751924 0.87984538 0.00054184772
120.75583 -13.695648 -43.624508 0.11336573 -0.60146719 0.7911827 0.036606081
121.15745 -12.530056 -42.866589 0.27748519 -0.73156571 0.63609576 0.074052393
121.19286 -20.297049 -46.907772 -0.022438902 -0.45982277 0.88772732 3.4305118e-05
121.41512 -11.132425 -41.277592 0.53118575 -0.86394501 0.31310788 0.080214143
121.58208 -22.489761 -48.039734 -0.019815324 -0.4612776 0.88703489 4.0289349e-05
121.81776 -18.601244 -46.016006 -0.025532885 -0.46288353 0.88605171 3.0793897e-05
123.17475 -11.723495 -42.291599 0.05041527 -0.52872711 0.84927171 0.0012211351
123.17744 -16.049906 -44.645897 -0.030025769 -0.46546179 0.88455939 5.4686658e-05
123.20073 -13.830617 -43.51001 -0.0078682182 -0.49177691 0.87069285 0.0011772603
123.2629 -21.255693 -47.357834 -0.025155086 -0.46167496 0.88669264 4.2741867e-05
123.4362 -9.7885771 -41.075672 0.12062579 -0.58182728 0.81377721 0.00091438863
123.75893 -17.794212 -45.526073 -0.029556496 -0.46474174 0.88495588 4.1049163e-05
124.32031 -19.543896 -46.443764 -0.025828458 -0.46467867 0.88510263 3.3470453e-05
124.76628 -8.4701777 -40.363091 0.1099765 -0.58229887 0.81357652 0.0010331641
124.79327 -22.606821 -48.00425 -0.02879566 -0.46090677 0.88698173 4.1137806e-05
125.10459 -15.26953 -44.150124 -0.02975883 -0.46444148 0.88510537 4.6742272e-05
125.11619 -13.057324 -43.03474 -0.015798844 -0.475741 0.87948179 0.00084943278
125.12042 -10.879024 -41.859028 0.024782887 -0.50293159 0.8645336 0.0008413638
125.66607 -17.037592 -45.047447 -0.029576434 -0.46812165 0.88316965 3.1200085e-05
125.86646 -20.877743 -47.091564 -0.027234076 -0.4611361 0.88691139 3.3069169e-05
126.24201 -18.765064 -45.969044 -0.026927497 -0.46705464 0.88381845 2.6888158e-05
126.5818 -9.1778412 -40.910061 0.024854099 -0.51489079 0.85783136 0.00055570173
127.042 -14.474833 -43.662727 -0.027693814 -0.46099871 0.88696969 3.0617484e-05
127.06393 -12.25172 -42.538624 -0.01947172 -0.4658455 0.8846612 0.00024098314
127.34966 -22.288675 -47.766628 -0.026789002 -0.4587394 0.88816756 3.294666e-05
127.59007 -16.255983 -44.577728 -0.027900282 -0.46484032 0.88495547 3.7312777e-05
127.79239 -20.091145 -46.628113 -0.028857881 -0.46429798 0.88520962 4.9549988e-05
128.13712 -10.505823 -41.618328 -0.012426557 -0.47256839 0.8812077 0.00041285268
128.42738 -18.40613 -45.706944 -0.031630136 -0.46892098 0.8826738 3.0768537e-05
128.9944 -13.655261 -43.189888 -0.029904887 -0.4594923 0.88767922 6.1424216e-05
129.30873 -21.466208 -47.283611 -0.029630184 -0.46169177 0.88654637 4.9633039e-05
129.55157 -15.42733 -44.098484 -0.031647414 -0.46301484 0.8857857 5.2623833e-05
129.65318 -11.914853 -42.276745 -0.031564038 -0.45943856 0.88764918 5.3497737e-05
129.8707 -9.2187109 -40.89024 -0.016093709 -0.47542647 0.87961435 0.0004916031
129.94334 -19.779549 -46.379951 -0.031634875 -0.4659723 0.88423377 4.6434456e-05
130.12775 -17.176268 -44.982639 -0.02892608 -0.46524373 0.88471091 5.3064581e-05
131.04803 -13.700576 -43.135998 -0.029395171 -0.4611879 0.88681632 7.3522853e-05
131.32835 -21.539606 -47.25507 -0.02934799 -0.46395427 0.88537312 3.7796206e-05
131.36336 -10.665771 -41.553425 -0.032546464 -0.46120077 0.88669962 5.436896e-05
131.55634 -15.529513 -44.076931 -0.029647179 -0.46376723 0.88546109 8.0856131e-05
131.62224 -18.580751 -45.668468 -0.031354286 -0.46862385 0.88284177 6.2755855e-05
132.6825 -12.544126 -42.469921 -0.028643347 -0.46106452 0.88690662 7.3696712e-05
132.98891 -20.359343 -46.573654 -0.02972999 -0.4669936 0.88376224 5.5560427e-05
133.06427 -9.4265642 -40.844322 -0.031468581 -0.46156141 0.88655072 6.020772e-05
133.07983 -16.909393 -44.73806 -0.028937008 -0.46442676 0.88513905 9.0089918e-05
133.2771 -14.270959 -43.358536 -0.028841993 -0.46198454 0.88641983 8.3573577e-05
133.68121 -18.613852 -45.622074 -0.028933955 -0.4678486 0.88333505 6.525599e-05
134.3795 -22.111813 -47.443996 -0.02576345 -0.46586642 0.88448089 5.0995328e-05
134.45714 -11.217311 -41.723446 -0.028709942 -0.46441615 0.88515466 7.1450464e-05
134.84399 -15.601107 -44.002033 -0.026405491 -0.46285006 0.88604343 9.0663802e-05
135.00697 -12.994313 -42.657074 -0.026709754 -0.46275148 0.88608807 8.5706306e-05
135.03285 -20.406982 -46.54221 -0.027846469 -0.46799323 0.88329345 5.7014313e-05
135.33829 -17.436989 -44.948521 -0.022949319 -0.46394429 0.8855691 6.2507883e-05
135.87567 -23.495659 -48.134769 -0.028587889 -0.4656224 0.88452244 5.1146038e-05
136.18137 -9.9506207 -41.017956 -0.027639266 -0.46676359 0.88395083 5.2755742e-05
136.54369 -21.785339 -47.213482 -0.025960701 -0.46676314 0.88400155 5.4563036e-05
136.54953 -14.355021 -43.322987 -0.020764247 -0.46056208 0.88738656 8.2635881e-05
136.72505 -11.739978 -41.951511 -0.025633827 -0.46573567 0.88455367 6.7604706e-05
136.7653 -19.149094 -45.819111 -0.024838908 -0.46486813 0.88503247 8.6523418e-05
137.05386 -16.188519 -44.25034 -0.024059799 -0.46320674 0.88592386 6.4624961e-05
137.89888 -8.7031364 -40.298229 -0.031612102 -0.46721464 0.88357949 6.0904058e-05
138.10066 -23.103558 -47.862915 -0.026940508 -0.46658215 0.88406873 6.3855456e-05
138.26614 -13.108291 -42.617603 -0.0286342 -0.46608141 0.88427943 6.269836e-05
138.26949 -20.53669 -46.503044 -0.027699493 -0.46578214 0.88446605 8.5224281e-05
138.41823 -10.525821 -41.244728 -0.030108009 -0.46847725 0.88296241 2.7311924e-05
138.44044 -17.95463 -45.143883 -0.025827801 -0.46254158 0.88622338 6.7451896e-05
138.82214 -14.872265 -43.539474 -0.027247896 -0.46325642 0.88580811 8.4421394e-05
139.77664 -21.920103 -47.177616 -0.029853614 -0.46812657 0.88315922 5.7699341e-05
139.99605 -19.285063 -45.801155 -0.027027661 -0.46418485 0.88532692 7.3521594e-05
140.00969 -11.835916 -41.888725 -0.033886299 -0.46672741 0.88375282 3.1292948e-05
140.15871 -9.260931 -40.504604 -0.031269405 -0.46744835 0.88346732 5.9696558e-05
140.22159 -16.634882 -44.412354 -0.028264621 -0.46547499 0.88461059 8.4094369e-05
140.55151 -13.619959 -42.819706 -0.030916786 -0.46673077 0.88385898 7.0096787e-05
141.34732 -23.224005 -47.81992 -0.026213778 -0.4698005 0.88238424 5.7261157e-05
141.5042 -20.680521 -46.459122 -0.027024735 -0.46423635 0.88529927 6.3062282e-05
141.70793 -10.623591 -41.18008 -0.032206137 -0.46767396 0.88331425 6.2790619e-05
141.71071 -18.048353 -45.110996 -0.028268313 -0.46442103 0.88516343 7.0929047e-05
141.89763 -15.452666 -43.720642 -0.031293571 -0.46591166 0.88428348 7.0632108e-05
142.2556 -12.406999 -42.101727 -0.032921325 -0.46676049 0.88377142 3.1486288e-05
143.00697 -22.065187 -47.147358 -0.024235889 -0.46900067 0.88286746 4.6763369e-05
143.23703 -19.426432 -45.761776 -0.026310125 -0.46466762 0.88509452 6.1344421e-05
143.41809 -16.838589 -44.392284 -0.030350843 -0.46779376 0.88331854 6.2598476e-05
143.42786 -9.387352 -40.460934 -0.03082286 -0.46686172 0.88379377 5.1887924e-05
143.59192 -14.25804 -43.005653 -0.032663371 -0.46761853 0.8833285 4.5621106e-05
143.59213 -23.761372 -48.050034 -0.025175408 -0.46684653 0.88397998 6.7207118e-05
143.9861 -11.162031 -41.375042 -0.033073194 -0.46549222 0.88443387 3.3350374e-05
144.77042 -20.782017 -46.430229 -0.023377597 -0.46630317 0.88431633 4.7951307e-05
144.99059 -18.155458 -45.043747 -0.022539413 -0.46706241 0.88393873 8.1428872e-05
145.15843 -15.583633 -43.674355 -0.02529653 -0.46903774 0.8828178 5.7227266e-05
145.34473 -22.499226 -47.330086 -0.0243201 -0.46744499 0.88368821 5.3037937e-05
145.36722 -12.957253 -42.271454 -0.02799603 -0.46811533 0.88322377 3.521824e-05
145.7215 -9.9108343 -40.653053 -0.028799959 -0.46500194 0.88484114 5.0500057e-05
146.48399 -19.554224 -45.75198 -0.023823449 -0.4662044 0.88435638 5.821649e-05
146.70232 -16.92848 -44.364033 -0.025229933 -0.46829218 0.8832134 4.6312729e-05
146.89235 -14.335403 -42.967445 -0.025514483 -0.46961483 0.88250339 4.8798709e-05
147.05482 -21.282045 -46.647179 -0.023395278 -0.46628714 0.88432443 4.257456e-05
147.08205 -11.732309 -41.568363 -0.024251143 -0.46589631 0.88450694 4.6251822e-05
147.45897 -8.6524658 -39.945808 -0.029620295 -0.46628347 0.88413954 5.3131538e-05
147.60999 -23.019312 -47.555676 -0.025441563 -0.46607715 0.88437843 5.1231429e-05
148.27419 -18.250051 -45.013393 -0.025968455 -0.46745214 0.88363802 5.0652128e-05
148.47278 -15.650121 -43.623211 -0.026664479 -0.4679144 0.88337213 6.1804167e-05
148.63925 -13.076035 -42.251106 -0.024265409 -0.46891341 0.88291329 5.1130617e-05
148.78717 -20.051174 -45.933136 -0.026406128 -0.46703774 0.8838433 4.4509445e-05
148.83348 -10.460741 -40.857635 -0.024518589 -0.46887416 0.88292485 5.3257616e-05
149.33006 -21.803928 -46.852448 -0.024604125 -0.46545702 0.88472956 3.7806745e-05
149.57512 -8.658536 -39.880733 -0.026572932 -0.46895561 0.88282233 7.2580973e-05
149.87556 -23.551668 -47.760868 -0.026753278 -0.46235615 0.88629115 2.8433991e-05
149.9528 -17.079624 -44.330223 -0.024839243 -0.46708682 0.88386452 5.7576883e-05
150.17113 -14.451312 -42.936008 -0.024275037 -0.46808773 0.88334882 4.9097354e-05
150.39526 -11.804874 -41.537731 -0.022340113 -0.46789578 0.88350409 6.3664185e-05
150.51324 -18.821659 -45.24012 -0.025300801 -0.4680247 0.88335323 4.9779774e-05
151.06487 -20.567867 -46.15456 -0.025529176 -0.46750781 0.88362032 4.6951842e-05
151.07396 -10.076825 -40.608223 -0.023721946 -0.4717932 0.88139021 6.5396489e-05
151.61671 -22.310463 -47.062199 -0.028690798 -0.46317345 0.88580543 4.1914478e-05
151.70076 -15.829308 -43.614418 -0.023319867 -0.46702504 0.88393658 6.853426e-05
151.97168 -13.134399 -42.199306 -0.020726655 -0.46936244 0.8827635 6.888849e-05
152.16768 -8.3683949 -39.647587 -0.02070507 -0.46986413 0.88249654 8.3979481e-05
152.27869 -17.559225 -44.506973 -0.023651561 -0.46670628 0.88409871 6.4444786e-05
152.63046 -11.438011 -41.275154 -0.020592844 -0.46850249 0.88322365 7.4546107e-05
152.83844 -19.293322 -45.43005 -0.025638182 -0.46793222 0.88339293 5.2028892e-05
153.1627 -23.656673 -47.703556 -0.032022662 -0.46057644 0.88704282 3.3829318e-05
153.36192 -21.072803 -46.351177 -0.027337262 -0.46336043 0.88574851 4.6701814e-05
153.49533 -14.510776 -42.909012 -0.021458993 -0.46479967 0.88515592 9.4590556e-05
153.7404 -9.7118435 -40.317909 -0.021419195 -0.47011983 0.88234305 8.8301116e-05
154.03311 -16.295216 -43.813625 -0.020317592 -0.46532735 0.88490552 7.7455072e-05
154.16344 -12.807424 -41.985466 -0.021842185 -0.46739805 0.88377887 7.3973999e-05
154.55196 -18.082722 -44.752361 -0.022114675 -0.46507469 0.88499552 5.6311899e-05
154.85567 -22.484634 -47.019901 -0.028444313 -0.4604291 0.88724202 5.2409159e-05
155.11429 -19.826874 -45.641193 -0.024817796 -0.4628557 0.88608623 4.6032976e-05
155.26102 -11.101326 -41.036087 -0.021121796 -0.47017744 0.88231975 6.6188157e-05
155.58195 -14.551868 -42.869278 -0.024551297 -0.46684611 0.88399816 7.6057913e-05
156.0835 -16.370958 -43.804317 -0.024249839 -0.46615669 0.88436985 6.0828879e-05
156.28056 -12.819604 -41.923916 -0.024846816 -0.46744445 0.88367343 7.4288226e-05
156.61848 -21.226231 -46.316509 -0.024717366 -0.45987362 0.8876403 5.9145939e-05
156.63065 -18.13195 -44.713108 -0.024908392 -0.46507227 0.88492286 5.1499814e-05
156.66487 -9.7595491 -40.294846 -0.020912014 -0.46933079 0.8827756 8.1606224e-05
157.57697 -14.700935 -42.879852 -0.023408877 -0.46617663 0.8843835 8.7537708e-05
157.9921 -19.921305 -45.625416 -0.022843415 -0.4616181 0.88678527 4.3802909e-05
158.01117 -11.590377 -41.237175 -0.025512338 -0.46734646 0.88370633 7.53809e-05
158.17371 -16.413416 -43.757057 -0.023849538 -0.46647263 0.88421428 7.6723962e-05
158.17995 -22.554268 -46.967037 -0.019428631 -0.46065378 0.88736778 4.5960573e-05
158.69562 -18.191486 -44.700237 -0.02098099 -0.46638992 0.88433272 6.2337895e-05
158.71098 -9.8555508 -40.285477 -0.027989823 -0.46863833 0.8829478 5.826764e-05
158.96561 -13.386925 -42.14748 -0.022863852 -0.46681565 0.88405919 9.9555436e-05
159.91754 -15.169492 -43.081959 -0.075715452 -0.46276003 0.88332927 0.0024228413
159.92789 -21.298954 -46.3214 -0.06673526 -0.45496833 0.88806123 0.0024354018
160.12056 -11.60861 -41.202797 -0.069990307 -0.46980056 0.88008881 0.0020533942
160.44304 -16.942478 -44.038208 -0.090246618 -0.47782207 0.87406975 0.0028372386
160.66353 -19.547075 -45.360157 -0.034676801 -0.46180928 0.88633019 4.8150847e-05
160.78525 -9.9111509 -40.296028 -0.11923846 -0.46532637 0.87720448 0.0043809959
160.84743 -23.115355 -47.220253 -0.13645209 -0.44485718 0.88608485 0.0042696754
161.01746 -13.477832 -42.137768 -0.13700634 -0.46556917 0.87495202 0.0034349121
161.97427 -21.431116 -46.194954 -0.20739357 -0.43390134 0.88424456 0.00374884
162.01839 -15.247798 -42.901073 -0.2283459 -0.45675528 0.87015295 0.0042957561
162.15469 -11.753276 -41.123508 -0.21601859 -0.47557756 0.8574003 0.0045488761
162.16809 -17.912277 -44.353664 -0.21425352 -0.48341316 0.85743976 0.0034011488
162.66383 -19.72641 -45.27739 -0.25223428 -0.44535977 0.86510986 0.0054925201
162.75476 -9.2272339 -39.55212 -0.36181512 -0.46071151 0.83562237 0.0070505626
163.87622 -16.346556 -42.62315 -0.7318756 -0.56254089 0.67342353 0.0060882266
163.89261 -23.409023 -46.277493 -0.71652341 -0.37819746 0.76730156 0.006389115
163.98163 -10.982675 -39.841728 -0.74739742 -0.36486518 0.75538623 0.0072513558
106.76874 -23.365036 -32.750172 0.50650871 -0.82906848 -0.23684487 0.00018987467
108.38216 -22.89081 -31.033255 0.51798278 -0.82325685 -0.23252073 0.0005462846
108.95639 -23.173306 -28.545732 0.50696027 -0.84207809 -0.18429746 0.00064615044
109.38898 -23.489418 -24.934124 0.49681094 -0.86496007 -0.071477503 0.00073323149
109.58675 -21.589209 -32.648766 0.53316462 -0.80658472 -0.25525835 0.00030055881
109.813 -23.379335 -21.913992 0.47577187 -0.8793056 -0.022220228 0.00063022628
110.09097 -22.851944 -26.766182 0.5117625 -0.84874016 -0.13384147 0.00099662039
110.07641 -22.112093 -30.087467 0.52258492 -0.82100004 -0.23017281 0.00086467864
110.50082 -22.986313 -18.530807 0.46062046 -0.88758737 -0.005251701 0.00033976638
111.11335 -21.939001 -28.243332 0.52762878 -0.82856327 -0.18777545 0.00085557706
111.20773 -22.540981 -23.360441 0.50095135 -0.86304134 -0.065158114 0.00059128052
111.50548 -22.503561 -20.277487 0.47474959 -0.87994289 -0.018345183 0.00056222227
111.72169 -22.04113 -25.447401 0.52173597 -0.84601432 -0.1102034 0.00054150878
111.80985 -20.633129 -31.078024 0.53698272 -0.80527318 -0.25174066 0.00031658562
112.7602 -21.833357 -18.59133 0.4754383 -0.87970215 -0.0092333937 0.00045955842
112.92974 -21.632206 -21.736633 0.50149685 -0.8633725 -0.056443837 0.00073090079
113.07494 -21.360456 -23.805077 0.51497972 -0.85192078 -0.095034741 0.000547353
113.2765 -20.899313 -26.290684 0.53876519 -0.82798886 -0.15580711 0.00088706549
114.07551 -21.096819 -19.985188 0.49259236 -0.86945456 -0.037617933 0.00068891828
114.71706 -19.757671 -27.082314 0.55126375 -0.80897218 -0.21018909 0.0010911705
114.81911 -20.478233 -22.179699 0.51252621 -0.85437685 -0.086130597 0.00066732359
114.88901 -20.163704 -24.227699 0.53446311 -0.83630413 -0.12228896 0.00052769308
115.84403 -20.077131 -20.354614 0.50476915 -0.86133057 -0.057663757 0.00068981654
116.32143 -19.869719 -18.086588 0.50051254 -0.86532396 -0.026886763 0.00068010483
116.64865 -18.441792 -27.218426 0.54343599 -0.8211922 -0.17412846 0.00094408827
116.61537 -19.03607 -24.599058 0.55671149 -0.81640542 -0.15859675 0.00045093388
117.5732 -19.042772 -20.347569 0.53233624 -0.84400225 -0.072472855 0.00088185043
118.18953 -18.377228 -22.141453 0.59434772 -0.80086738 -0.12301384 0.00016703177
118.70865 -18.410307 -18.600712 0.58291757 -0.81342196 -0.05334631 0.0012287897
126.92838 -11.654866 -19.057344 0.45125055 -0.83623439 -0.31158459 0
127.88811 -10.383101 -21.080606 0.89214963 -0.42361078 0.15691715 0
128.8855 -9.0825472 -23.139929 0.3074635 -0.86997515 -0.38549894 0.0001500058
109.01409 -23.776373 -4.1033511 0.37827408 -0.91925949 0.10901997 0.0003829675
109.22116 -23.579531 -16.816832 0.45345378 -0.89021939 -0.045195807 0.0020957463
109.67055 -23.697477 -6.0072155 0.39766401 -0.91277766 0.093278483 0.00025015813
110.42508 -23.070295 -15.097544 0.46238771 -0.87996191 -0.10996087 0.0019024027
110.71198 -22.951574 -3.1928384 0.38740984 -0.91613817 0.10303763 0.00035879473
110.91253 -23.451189 -9.9312887 0.43146485 -0.90211207 0.0090292888 0.0021361217
111.01297 -23.267839 -7.6924424 0.40831053 -0.91039681 0.066850223 0.00069078826
111.42312 -23.048662 -12.690824 0.45682812 -0.88359243 -0.10368171 0.0024971152
111.52097 -22.800081 -5.1491809 0.40263137 -0.9111715 0.08749716 0.00022842277
111.79721 -22.29516 -16.865234 0.46903709 -0.88215405 -0.042848438 0.0018975632
112.24732 -22.288403 -14.568101 0.46806514 -0.87814754 -0.099425986 0.0022548924
112.68754 -22.598263 -8.6782618 0.42899957 -0.90280867 0.033691708 0.0015284525
112.84903 -22.032909 -3.137342 0.3984555 -0.91243422 0.093438648 0.00037878653
113.03699 -22.495806 -10.975772 0.45372522 -0.88888854 -0.063949727 0.003034238
113.24847 -22.132536 -6.1431661 0.41057175 -0.90866995 0.075830191 0.00029234728
113.68959 -21.283131 -15.680915 0.48641443 -0.87159973 -0.06317962 0.0022383532
113.75624 -21.78442 -12.796931 0.47314742 -0.8729825 -0.11929998 0.0020034246
114.45654 -21.432419 -4.448947 0.41847029 -0.90499783 0.076643549 0.00020588089
114.59709 -20.785105 -17.391888 0.49284226 -0.86977518 -0.025431331 0.00068331556
114.67061 -21.630575 -7.8697147 0.43607941 -0.89925134 0.034488376 0.0015870108
