# .PCD v0.7 - Point Cloud Data file format
VERSION 0.7
FIELDS x y z normal_x normal_y normal_z curvature
SIZE 4 4 4 4 4 4 4
TYPE F F F F F F F
COUNT 1 1 1 1 1 1 1
WIDTH 585
HEIGHT 1
VIEWPOINT 0 0 0 1 0 0 0
POINTS 585
DATA ascii
-81.356941 -28.228216 -57.359993 -0.31510872 -0.86608273 0.39000806 0.062632069
-81.145851 -34.656502 -61.348293 -0.02872269 -0.45828721 0.88834018 1.9716615e-05
-80.978477 -37.38028 -62.753551 -0.030425385 -0.45909753 0.88786519 5.4189797e-05
-80.75959 -32.704723 -60.322617 -0.027346743 -0.45798129 0.88854134 3.5518558e-05
-80.575188 -29.365856 -53.582901 -0.43159562 -0.8637979 -0.26005271 0.00092569296
-80.214302 -28.767084 -55.642872 -0.40225542 -0.91559821 0.01418853 0.043947168
-80.151093 -29.616262 -58.621876 -0.22871488 -0.7856248 0.58244312 0.046162907
-79.696892 -30.50824 -50.890293 -0.41751361 -0.89887077 -0.13441351 0.0033563974
-79.631409 -35.879143 -61.934612 -0.028831182 -0.45898366 0.88797706 2.1130791e-05
-79.609474 -30.630106 -48.691963 -0.40349081 -0.91175276 -0.077242464 0.0010737751
-79.243347 -33.930489 -60.915188 -0.026516113 -0.45773041 0.88869554 3.9730407e-05
-79.10453 -31.469671 -59.802704 -0.11020712 -0.60529655 0.78843451 0.027561311
-78.842262 -29.861824 -54.479645 -0.42097339 -0.88467771 -0.20070399 0.0071441461
-78.844528 -29.281904 -57.024673 -0.34323668 -0.9223609 0.2290289 0.043804444
-78.228851 -30.869051 -52.635727 -0.4165743 -0.88553619 -0.20568843 0.0026301427
-77.925064 -31.383688 -49.862087 -0.40711984 -0.9079631 -0.099802896 0.0019225464
-77.795929 -37.176563 -62.540276 -0.034355622 -0.45504257 0.88980681 3.5324334e-05
-77.824791 -30.214312 -58.757416 -0.24516031 -0.80584371 0.54308254 0.072380655
-77.740448 -35.18597 -61.511803 -0.031592198 -0.4558734 0.88948482 4.884282e-05
-77.613182 -32.786697 -60.354958 -0.061834432 -0.51693261 0.85381705 0.0073885107
-77.360336 -30.130671 -55.84547 -0.40095997 -0.91251677 -0.083381578 0.02765796
-76.791664 -31.790253 -51.482563 -0.40150192 -0.90722746 -0.1266347 0.0031221507
-76.740364 -31.129925 -53.973682 -0.41541615 -0.87959528 -0.23206748 0.0028956675
-76.256897 -31.309011 -59.420044 -0.22590846 -0.77587116 0.59628558 0.047766343
-76.149101 -32.160603 -48.470745 -0.38316444 -0.91943181 -0.088662095 0.001594599
-76.107697 -34.050655 -60.925629 -0.04024953 -0.47250786 0.88045096 0.0024502922
-75.899033 -36.480072 -62.099564 -0.033442482 -0.45446149 0.89013904 3.4007779e-05
-75.924042 -30.486162 -57.243279 -0.34299746 -0.93089026 0.14243613 0.044553313
-75.360298 -32.177162 -52.839325 -0.39455327 -0.90021718 -0.18429764 0.0035066111
-75.225197 -31.29406 -55.371437 -0.40850785 -0.89391077 -0.18939462 0.014795124
-75.024399 -32.568321 -50.115845 -0.37843087 -0.92250329 -0.076776311 0.0014043616
-74.839371 -38.137959 -62.909363 -0.031532802 -0.45868585 0.88803917 4.0795119e-05
-74.726227 -32.460365 -60.134274 -0.14918284 -0.69406402 0.70498979 0.043417722
-74.275002 -35.394623 -61.470959 -0.031649694 -0.45442131 0.89022452 7.1728042e-05
-74.229126 -31.107281 -58.110596 -0.32935578 -0.91153562 0.24698882 0.059873883
-73.885963 -32.440041 -54.240902 -0.39061293 -0.8884986 -0.24096069 0.0018137739
-73.909111 -33.024559 -48.535351 -0.37252825 -0.92426068 -0.083655328 0.0011671794
-73.580154 -33.098194 -51.70771 -0.38404036 -0.91804135 -0.10199445 0.0027941901
-73.481804 -31.763832 -56.268524 -0.37730342 -0.92097908 -0.10161687 0.028707385
-73.235977 -33.742229 -60.789413 -0.11241406 -0.62230319 0.77506709 0.039747231
-73.20446 -37.029167 -62.274574 -0.028256318 -0.45609072 0.88948613 3.7240236e-05
-72.899498 -32.075382 -59.523991 -0.23557122 -0.82408929 0.52023381 0.0590434
-72.475395 -33.579353 -50.127319 -0.37453049 -0.92504716 -0.065033019 0.001389179
-72.17382 -35.427425 -61.5359 -0.033972055 -0.4999893 0.86630523 0.011883945
-72.147041 -33.483276 -53.07658 -0.38451838 -0.90745783 -0.17022195 0.0031568797
-72.137939 -32.888706 -55.155258 -0.38564011 -0.89191228 -0.23644006 0.0025302253
-72.0317 -32.077797 -57.712917 -0.34586787 -0.93236327 0.11275272 0.05267242
-71.706055 -33.930992 -48.160061 -0.36951059 -0.92440736 -0.094514191 0.0013315956
-71.347191 -33.1772 -60.174858 -0.20468144 -0.80399251 0.57548922 0.045766983
-71.109909 -37.10957 -62.272968 -0.027212987 -0.45682618 0.88914037 5.2315227e-05
-70.758415 -34.25967 -51.286839 -0.3807193 -0.92050338 -0.087924972 0.0016237083
-70.56794 -32.928818 -56.548985 -0.35902545 -0.92571044 -0.13881652 0.031379763
-70.425461 -33.992779 -54.00201 -0.37731272 -0.90298438 -0.2055923 0.0021689765
-70.340858 -32.683113 -58.624607 -0.30570883 -0.92364037 0.25133923 0.059291258
-70.235168 -34.630981 -61.149872 -0.10892507 -0.63865978 0.76248002 0.03669579
-70.118874 -39.121132 -63.26894 -0.028431883 -0.46016839 0.88737631 4.91229e-05
-69.987915 -34.597565 -49.329132 -0.37272981 -0.92595416 -0.061312784 0.001148151
-69.193359 -36.358166 -61.922268 -0.05811758 -0.49398696 0.86754405 0.0054956214
-69.02594 -34.879478 -52.48143 -0.3692582 -0.92148197 -0.12243302 0.0021967371
-68.919777 -34.203625 -55.371372 -0.37375179 -0.89837158 -0.23097368 0.001777615
-68.985756 -33.550056 -60.051014 -0.24671392 -0.84028268 0.4834837 0.066322006
-68.848373 -33.440735 -57.491138 -0.35026702 -0.93378687 -0.075593688 0.023746042
-68.289185 -35.285156 -50.566521 -0.36184394 -0.93022388 -0.062007058 0.0012512668
-68.205231 -38.413704 -62.827126 -0.031273872 -0.45926014 0.88775116 5.9739363e-05
-67.80233 -34.814453 -61.060921 -0.16767649 -0.70909357 0.69060361 0.050548986
-67.567513 -35.192696 -53.901295 -0.36220291 -0.91256028 -0.19059801 0.0023517096
-67.397301 -33.778149 -58.914433 -0.31297767 -0.93232268 0.18370776 0.052907493
-67.152168 -34.586262 -56.333721 -0.36492386 -0.90911263 -0.20111257 0.0091670081
-67.151855 -35.710083 -48.922451 -0.32628003 -0.94395083 -0.04998561 0.0021318891
-66.833771 -36.871407 -62.106312 -0.076984219 -0.54870528 0.83328992 0.022229299
-66.55423 -35.904411 -51.751263 -0.3443861 -0.93566287 -0.078257941 0.0029749391
-65.823555 -35.650291 -54.828518 -0.35797596 -0.90839159 -0.2168211 0.0020459534
-65.830513 -35.469589 -61.116245 -0.19992819 -0.76221174 0.62607497 0.040480234
-65.593056 -34.654316 -57.733269 -0.36169767 -0.93270695 -0.083233066 0.039945666
-65.417397 -36.309891 -50.148365 -0.31426835 -0.94905043 -0.024408324 0.0020284895
-65.340996 -38.160072 -62.664948 -0.03917129 -0.48661411 0.8728739 0.0027035479
-64.843254 -36.467491 -52.619503 -0.34264484 -0.93349922 -0.10647757 0.0036169712
-64.749771 -34.757771 -59.640739 -0.29290679 -0.93353152 0.22347718 0.053602014
-64.304192 -35.815224 -56.24741 -0.35832688 -0.90031779 -0.24706303 0.00032273264
-63.955566 -36.632137 -61.83622 -0.13243149 -0.70863736 0.69425863 0.039727151
-63.829388 -39.392529 -63.230377 -0.030126981 -0.46986702 0.88223827 0.00044504899
-63.597328 -35.344849 -58.207279 -0.33896732 -0.94037944 -0.051799543 0.029963687
-63.639381 -36.606407 -54.466423 -0.34758347 -0.91837627 -0.18952402 0.0023428465
-63.574646 -36.719292 -48.561001 -0.29216427 -0.95653588 -0.0064358474 0.0021688824
-63.42009 -36.963425 -50.617249 -0.32871291 -0.94447291 0.010335422 0.0026213839
-63.062569 -35.51936 -60.419895 -0.25872636 -0.91002893 0.33435974 0.063468263
-62.908722 -37.19825 -52.70845 -0.34006843 -0.93652922 -0.086097948 0.0053409724
-62.432693 -37.791443 -62.507786 -0.086817242 -0.60460693 0.79458481 0.031829391
-62.362572 -36.545086 -56.332047 -0.3368642 -0.90852666 -0.24719226 0.00034494136
-61.667713 -36.094528 -58.296719 -0.3157751 -0.94754761 -0.058035415 0.032444131
-61.692226 -37.316853 -54.534874 -0.33223894 -0.9244827 -0.18751375 0.0026093391
-61.632015 -37.298641 -48.332817 -0.35083786 -0.93732321 0.011223092 0.0031933831
-61.497498 -37.606426 -50.381207 -0.35913894 -0.93373239 0.027295858 0.0022629751
-61.113731 -36.561028 -61.470085 -0.21547127 -0.82015151 0.53109777 0.050060697
-60.999107 -37.885006 -52.463612 -0.35929868 -0.93119097 -0.070155561 0.0059600915
-60.39851 -37.203323 -56.443306 -0.32154053 -0.91590804 -0.24048267 0.00046484885
-59.979385 -37.940517 -62.463997 -0.14315003 -0.67638254 0.72257584 0.040477823
-59.843201 -36.320942 -59.351906 -0.34562993 -0.96815652 -0.045811966 0.049576182
-59.796711 -38.058968 -54.23473 -0.32741517 -0.92903298 -0.17438255 0.0033372017
-59.717293 -38.222828 -48.662472 -0.50042886 -0.8777281 0.014085795 0.0015423862
-59.561008 -38.449039 -50.794048 -0.43224436 -0.90686703 -0.017361686 0.0027273784
-59.118164 -36.847168 -61.039204 -0.2541272 -0.87640703 0.42444232 0.071758844
-58.569859 -37.438255 -57.407482 -0.48490456 -0.85892755 -0.2313147 0.013491169
-57.902695 -37.113266 -59.425579 -0.49236763 -0.90023226 -0.068760581 0.063058898
-57.931152 -38.195141 -62.299461 -0.30992335 -0.73164469 0.61164004 0.071051598
-98.399788 -23.883448 -35.955414 -0.49084783 -0.85652262 -0.15950112 0.00069551409
-97.511978 -23.893253 -38.130035 -0.49056685 -0.84547263 -0.21108264 0.0004712537
-97.403687 -24.744022 -33.823891 -0.471163 -0.87786674 -0.086075939 0.00099679863
-96.56543 -24.919672 -35.941509 -0.47712258 -0.86737734 -0.14168619 0.0010245834
-96.057663 -24.256067 -39.823017 -0.48647964 -0.84162086 -0.23458457 0.00016589077
-95.50489 -25.698708 -34.178627 -0.4581655 -0.88540012 -0.078593455 0.00098379096
-95.433075 -25.221985 -37.630508 -0.47699112 -0.85852373 -0.18841499 0.00075371168
-94.93528 -23.834713 -43.237106 -0.48908803 -0.84273654 -0.2249691 0.00052385859
-94.406021 -26.104353 -35.834515 -0.46118531 -0.8793031 -0.11896716 0.00081851915
-94.342339 -24.872 -41.034225 -0.48076764 -0.84221107 -0.24401455 9.4170355e-05
-93.797325 -24.045645 -45.025005 -0.48964688 -0.85253668 -0.18301168 0.00080574292
-93.727501 -25.87392 -38.818737 -0.46929896 -0.85937572 -0.20309871 0.00061341905
-93.162811 -25.009855 -42.799206 -0.47711954 -0.8476401 -0.23216701 0.00054832274
-92.999756 -26.951401 -34.43462 -0.44414917 -0.89354342 -0.066032775 0.00071270036
-92.933403 -24.195766 -47.155678 -0.48912087 -0.8575868 -0.15916403 0.00069867988
-92.718964 -26.809752 -37.004883 -0.45493343 -0.87870854 -0.14476608 0.00096838234
-92.56102 -26.012669 -40.605579 -0.46522158 -0.85304838 -0.23639724 0.00011362904
-91.993286 -25.177408 -44.564636 -0.47461835 -0.85840005 -0.19469091 0.0012161214
-91.885139 -26.872149 -38.826694 -0.45554364 -0.86852562 -0.19533171 0.00060224987
-91.374084 -26.140205 -42.364193 -0.46100637 -0.85475129 -0.23848589 0.00015743419
-91.321777 -27.68124 -35.597275 -0.43527848 -0.89588153 -0.089096799 0.00098993233
-91.167221 -25.282328 -46.384693 -0.46838012 -0.86989939 -0.15481116 0.00076228392
-90.701157 -27.042282 -40.541569 -0.45268026 -0.86295766 -0.22462241 0.0004562526
-90.4608 -27.827185 -37.710133 -0.43884212 -0.88628924 -0.14873736 0.0010278343
-90.233688 -28.301214 -33.912128 -0.42110878 -0.90647578 -0.03139649 0.00041305664
-90.188393 -26.235806 -44.168682 -0.45851809 -0.86338198 -0.21055591 0.00086755102
-90.035591 -25.700043 -47.998199 -0.47115076 -0.86924195 -0.14983799 0.00074021704
-89.520309 -27.115009 -42.378887 -0.45191202 -0.86012548 -0.23657304 0.00011415783
-89.404556 -28.549704 -35.992252 -0.42642909 -0.90008259 -0.08974804 0.00070713594
-89.311577 -28.044212 -39.460621 -0.44174439 -0.8761242 -0.19307926 0.00065826136
-89.028824 -26.456217 -45.912003 -0.45537895 -0.87648535 -0.15667409 0.0010841883
-88.320976 -27.214367 -44.147919 -0.44980302 -0.86815047 -0.20975895 0.00075361138
-88.31797 -29.162346 -34.313221 -0.41131887 -0.91086674 -0.033832073 0.00039241085
-88.274094 -28.886623 -37.653893 -0.42640918 -0.89510405 -0.13032714 0.00051450601
-88.12397 -28.183842 -41.20422 -0.44407934 -0.86647266 -0.22812878 0.0001169345
-87.912834 -26.817795 -47.616718 -0.45917922 -0.87856382 -0.13166645 0.00074794493
-87.215416 -29.559906 -35.978699 -0.41244483 -0.90782332 -0.075851254 0.00047902711
-87.137993 -29.150528 -39.39119 -0.42602313 -0.88754153 -0.17555884 0.00058964133
-86.928764 -28.276728 -42.989433 -0.44031683 -0.86743617 -0.23174046 0.00023761757
-86.856293 -27.577257 -45.854233 -0.45036185 -0.87910807 -0.15643963 0.0013301264
-86.60878 -27.445194 -48.090572 -0.45514545 -0.88250566 -0.11846679 0.00085175713
-86.563858 -28.977352 -41.263123 -0.42954093 -0.87645155 -0.21758026 0.00044450397
-85.523605 -30.407602 -33.81926 -0.39100179 -0.92039609 -0.0018577225 0.00053777039
-85.149605 -29.920444 -40.170303 -0.41562715 -0.89085573 -0.18339537 0.00053261005
-84.896599 -30.513071 -37.042793 -0.4021427 -0.91120005 -0.089454062 0.00078917149
-84.901413 -28.475866 -46.606178 -0.43617362 -0.88808316 -0.1455311 0.0014562857
-84.839577 -28.90773 -44.594696 -0.42431149 -0.88173962 -0.20620088 0.00065592973
-84.824593 -29.483397 -42.544312 -0.4189187 -0.87970024 -0.22502431 0.0002704052
-83.845169 -31.093897 -35.029591 -0.38518575 -0.92260784 -0.028836425 0.00056527753
-83.765175 -30.811121 -38.760204 -0.39962527 -0.90658307 -0.13574967 0.00061223295
-83.409698 -30.425617 -41.447701 -0.40422428 -0.89186996 -0.20305942 0.00043817319
-83.080727 -29.41641 -45.829365 -0.41380847 -0.89592493 -0.16167641 0.001790672
-83.055855 -29.943672 -43.796902 -0.40751553 -0.88610417 -0.2208368 0.00043596397
-82.725906 -31.480917 -36.664837 -0.38458699 -0.9206953 -0.066776484 0.00074818346
-82.714668 -31.539774 -33.408901 -0.36588868 -0.93026614 0.027229613 0.00064849685
-82.025307 -31.356915 -39.975521 -0.3906149 -0.90592551 -0.16346109 0.00093755353
-81.954475 -29.673349 -47.653511 -0.41123959 -0.90495682 -0.10940439 0.0013141822
-81.614685 -31.991825 -35.017147 -0.36935568 -0.92920077 -0.012982341 0.00082353514
-81.398262 -31.108835 -42.27673 -0.39712629 -0.89396727 -0.20771675 0.00038105951
-81.349449 -30.451385 -44.72472 -0.40387937 -0.89310652 -0.19839656 0.0011413015
-81.015457 -32.080635 -37.902325 -0.38063154 -0.91997826 -0.093734108 0.00098223903
-80.172028 -32.535557 -33.383625 -0.35177141 -0.93521285 0.040796798 0.00076523976
-80.164436 -30.591125 -46.517414 -0.40256447 -0.90448469 -0.14126204 0.0018512998
-80.126183 -32.160564 -40.048134 -0.38576055 -0.9096753 -0.15403944 0.00058166269
-79.941566 -31.394695 -43.6451 -0.39685425 -0.89157641 -0.21817468 0.0001251559
-79.92012 -32.639076 -36.240665 -0.3653349 -0.93016094 -0.036640827 0.00065295724
-79.247543 -32.169033 -41.851406 -0.38825461 -0.90173602 -0.19010726 0.00046122202
-79.062004 -32.822163 -38.34977 -0.36817253 -0.92507058 -0.093438707 0.0008663332
-78.723679 -31.488552 -45.381241 -0.40030199 -0.89629418 -0.19097646 0.00091531622
-78.475235 -33.203186 -34.562809 -0.34405428 -0.938766 0.01890165 0.0005523354
-78.049622 -32.276066 -43.64053 -0.39154845 -0.89576465 -0.21051949 0.00034240194
-77.96302 -33.376102 -36.671158 -0.35118088 -0.93549937 -0.040143065 0.00063397584
-77.908279 -33.085644 -40.05648 -0.37080169 -0.91881472 -0.13524479 0.00091776869
-77.865517 -31.523895 -47.248569 -0.39572799 -0.91081798 -0.1175218 0.0019203747
-76.825134 -33.694141 -38.349503 -0.3516804 -0.93302333 -0.076219194 0.00057517784
-76.831299 -32.315155 -45.468384 -0.38262275 -0.90504152 -0.18644191 0.0012882726
-76.726082 -33.269131 -41.778973 -0.36932376 -0.91287756 -0.17401512 0.00070104678
-76.627426 -33.811043 -33.605 -0.32632795 -0.94380695 0.052704349 0.00043222154
-76.136513 -33.051472 -43.716652 -0.37371972 -0.90612489 -0.19819625 0.00033201335
-76.139221 -34.061157 -35.702206 -0.32965371 -0.94415599 0.00040967483 0.00068587868
-75.676224 -33.947952 -40.113125 -0.35149097 -0.92846566 -0.12006971 0.00069120596
-75.056892 -32.778187 -46.715878 -0.36768046 -0.91826439 -0.14742543 0.0012406002
-75.008698 -34.410152 -37.355911 -0.32807994 -0.94394863 -0.036940329 0.00070058194
-74.749573 -33.94429 -42.255348 -0.3544634 -0.91979343 -0.1684684 0.00063784694
-74.741707 -34.404953 -33.023876 -0.31171 -0.94767487 0.069136068 0.00041771945
-74.414787 -33.532135 -44.638897 -0.36362693 -0.91048443 -0.19697104 0.00024140533
-74.252457 -34.665264 -35.099125 -0.31097183 -0.95013016 0.0234679 0.00027131761
-73.866043 -34.707035 -39.073162 -0.32655054 -0.94224179 -0.074608773 0.00050937949
-73.189705 -33.574951 -46.45451 -0.36361161 -0.91878915 -0.15380317 0.0010500393
-73.132935 -35.047401 -36.750511 -0.31091836 -0.95037162 -0.012083821 0.00044447187
-73.030884 -34.427715 -43.185246 -0.34775874 -0.92061669 -0.17774846 0.00062311679
-72.967552 -34.78714 -41.207294 -0.33485389 -0.93346179 -0.12857281 0.00064614293
-72.769066 -35.074585 -33.496483 -0.29595119 -0.95307177 0.063897252 0.00045138766
-71.99588 -35.371437 -38.446587 -0.3111093 -0.9491331 -0.049062014 0.0006850413
-71.80481 -34.481148 -44.966782 -0.35286126 -0.91856104 -0.17830797 0.00062182808
-71.66288 -35.499348 -35.150974 -0.28957576 -0.95667672 0.031552229 0.00045111889
-71.24971 -35.277851 -42.12442 -0.32430327 -0.93612576 -0.13664602 0.00081676181
-70.836449 -35.626339 -40.176712 -0.30719802 -0.94804496 -0.082856551 0.00068806962
-70.540474 -35.875645 -36.814342 -0.28339097 -0.95905834 -0.0011437847 0.00042972731
-70.337845 -34.755123 -46.372257 -0.35348928 -0.92514348 -0.13863444 0.0014548484
-70.164589 -35.854172 -33.554745 -0.25390694 -0.96424687 0.075891189 0.00074831198
-70.041039 -35.386703 -43.889534 -0.32683128 -0.93073148 -0.16410401 0.0005886975
-69.395348 -36.181137 -38.507141 -0.27819452 -0.95995289 -0.033239543 0.00056395313
-69.339783 -35.938946 -41.869438 -0.30280015 -0.94637877 -0.11290465 0.00073325535
-69.055382 -36.266674 -35.188656 -0.24631891 -0.96774834 0.052910164 0.00075260253
-68.613655 -35.258808 -47.263416 -0.34049687 -0.93444967 -0.10546399 0.0015265002
-68.553932 -35.616447 -45.268272 -0.31986666 -0.93539095 -0.15085383 0.00061369431
-68.233093 -36.439392 -40.234631 -0.27379507 -0.9599157 -0.061261598 0.00078055117
-68.193428 -36.286858 -33.379299 -0.24707393 -0.96572751 0.079704471 0.00094364525
-67.91552 -36.592304 -36.876972 -0.24625486 -0.96904761 0.018078199 0.0008875585
-67.871414 -36.229626 -43.234734 -0.29339296 -0.94715363 -0.13008966 0.00079444225
-67.074196 -36.682598 -35.044979 -0.24429768 -0.96845049 0.049738839 0.0010547003
-66.812744 -36.054485 -46.229126 -0.2936469 -0.94804084 -0.12281173 0.0014946337
-66.757957 -36.865448 -38.587955 -0.24330759 -0.96981621 -0.017741479 0.00079571025
-66.490814 -36.8536 -41.141972 -0.25269449 -0.96503401 -0.069705978 0.00082812272
-66.116135 -36.614067 -44.152176 -0.26069933 -0.95686984 -0.12852043 0.00069217035
-65.922417 -36.975414 -36.736805 -0.27253965 -0.96226442 0.0061830124 0.0039522853
-65.881821 -36.761749 -33.229511 -0.34508985 -0.93817538 0.037225515 0.0077400054
-65.329384 -36.311539 -47.571537 -0.28310141 -0.9570263 -0.064358093 0.0024501204
-65.007431 -37.098347 -42.490501 -0.25684416 -0.96089 -0.10376878 0.0018341821
-64.99614 -37.228729 -39.54192 -0.2722308 -0.961393 -0.040321585 0.0024491069
-64.772453 -37.184135 -34.883049 -0.37060478 -0.92903948 -0.0058126538 0.0091945939
-64.593346 -36.74139 -45.558086 -0.25801903 -0.95891088 -0.11808295 0.0012021462
-64.189766 -37.427223 -37.705021 -0.33251804 -0.94326586 -0.032462992 0.0042231269
-63.531998 -37.548599 -40.920586 -0.29799706 -0.95142066 -0.081843957 0.0025294786
-63.486759 -37.236057 -43.902603 -0.26511747 -0.95568478 -0.12798581 0.0010796877
-63.087143 -37.909489 -36.050835 -0.49913594 -0.87554771 -0.077093549 0.0070882137
-62.786259 -36.988617 -46.620358 -0.29261625 -0.95394683 -0.066779271 0.0028066705
-62.397373 -38.63802 -34.279243 -0.64674151 -0.77336299 -0.11157752 0.0050457395
-62.45467 -37.994938 -38.951023 -0.44937649 -0.90164083 -0.097225055 0.0042463685
-62.06356 -37.859303 -42.275093 -0.35011905 -0.93467921 -0.11284214 0.002903231
-61.694782 -37.529629 -44.954323 -0.35881367 -0.9284572 -0.11942564 0.0025890258
-61.484928 -38.90255 -37.107784 -0.74788105 -0.76011664 -0.18339427 0.0043419702
-61.042664 -38.603848 -40.47683 -0.59301293 -0.84366357 -0.16426127 0.0040151859
-60.519203 -37.771648 -46.670151 -0.453711 -0.89768159 -0.054763757 0.0039644591
-60.332333 -38.449596 -43.489346 -0.52962673 -0.87332243 -0.16806148 0.0029993849
-98.984497 -24.093475 -30.108053 -0.4539969 -0.89100301 0.0014680828 0.00071364647
-98.683868 -24.566376 -19.133974 -0.43996331 -0.89126402 -0.11062565 0.0030374015
-98.491661 -24.28784 -32.196655 -0.4681555 -0.88210565 -0.052412577 0.00062892615
-98.430199 -23.959963 -24.398554 -0.43936303 -0.89827532 0.0088349339 0.0016642124
-98.092438 -24.351812 -21.369005 -0.44253346 -0.88967758 -0.11308103 0.0019276539
-97.975555 -24.329649 -26.400423 -0.43257663 -0.9001137 0.052218772 0.0006991229
-97.540558 -24.728308 -28.413174 -0.43374845 -0.89960581 0.050825894 0.00052949641
-97.069931 -25.042067 -30.439695 -0.44378266 -0.8960861 0.0093121314 0.00066622574
-96.968925 -24.702728 -22.997383 -0.43376601 -0.89887047 -0.063686997 0.0027748235
-96.860947 -25.518429 -18.772516 -0.42506817 -0.90332907 -0.057717305 0.0045343051
-96.491615 -24.90921 -25.096457 -0.42538172 -0.90469533 0.026999258 0.0017805273
-96.300377 -25.368902 -21.017874 -0.43569189 -0.89136833 -0.12514378 0.0012669307
-96.059875 -25.293982 -27.12462 -0.41870046 -0.90611809 0.060441762 0.00052146259
-96.019737 -25.556475 -32.077908 -0.4479987 -0.89374614 -0.023447681 0.00073486572
-95.624657 -25.681356 -29.148283 -0.42676482 -0.90317702 0.047409296 0.0005574323
-95.154091 -25.607306 -22.700542 -0.4203229 -0.90299088 -0.090020977 0.0032547903
-94.987221 -26.403004 -18.786253 -0.40453035 -0.9138245 -0.036764238 0.0047266749
-94.645073 -25.730474 -24.810534 -0.40945449 -0.91232705 0.0033748252 0.0023821355
-94.251717 -26.399546 -30.658525 -0.43058369 -0.90222788 0.02441695 0.00047197996
-94.179474 -26.092638 -26.797922 -0.40476486 -0.91188556 0.068423949 0.00057942554
-94.110977 -26.436937 -20.925011 -0.40967673 -0.90486431 -0.11634457 0.0016829871
-94.083618 -26.48172 -32.808651 -0.44156557 -0.89685339 -0.027208237 0.00054009852
-93.447899 -26.664303 -28.755833 -0.41361207 -0.90756708 0.072456203 0.00046251863
-93.26757 -26.417849 -22.772589 -0.40789562 -0.90821588 -0.093683474 0.0026973421
-93.113197 -27.247704 -18.837608 -0.39058983 -0.92034972 -0.020760719 0.0055222581
-92.737 -26.515551 -24.85969 -0.3991439 -0.91707265 0.0055086045 0.003150909
-92.382469 -27.291155 -30.691483 -0.4198207 -0.90686464 0.037230104 0.0005664358
-92.289886 -26.925642 -26.843073 -0.40320688 -0.9119032 0.076893382 0.00078443583
-92.240524 -27.303368 -20.970024 -0.40503129 -0.90767223 -0.11076374 0.0024631089
-91.900436 -27.544834 -32.755512 -0.42623854 -0.90455163 -0.01106935 0.00046764963
-91.569336 -27.521776 -28.798405 -0.40200949 -0.91180867 0.083634578 0.00048217093
-91.381599 -27.278271 -22.788908 -0.40865967 -0.90727651 -0.099874221 0.0026005853
-91.21508 -28.01569 -18.907722 -0.37723336 -0.9261663 0.0020671734 0.0057736705
-90.854904 -27.345745 -24.921766 -0.40246895 -0.91550428 -0.00063333026 0.0033967344
-90.49218 -28.153379 -30.710232 -0.40538487 -0.91271663 0.051774766 0.00079378026
-90.399933 -27.725521 -26.912251 -0.38915119 -0.91798037 0.077685982 0.0013453458
-90.360687 -28.165003 -20.991693 -0.39655128 -0.91309661 -0.095623896 0.0029954098
-89.663383 -28.326399 -28.837137 -0.38846678 -0.91647249 0.095771901 0.00034467247
-89.507538 -28.165827 -22.803286 -0.40677226 -0.90802193 -0.10112421 0.0021313401
-89.31208 -28.781713 -18.967104 -0.37215501 -0.92773497 0.029380482 0.0058645331
-89.123352 -28.82881 -32.266964 -0.40728122 -0.91312397 0.018114256 0.00065875635
-88.962524 -28.175095 -24.958326 -0.3964425 -0.91802776 -0.012614544 0.0042325039
-88.493546 -28.508202 -26.965578 -0.38144282 -0.92126083 0.077089451 0.0016134209
-88.478401 -29.00186 -21.032299 -0.38917902 -0.91791677 -0.077784188 0.0029755819
-88.321564 -29.070034 -30.380623 -0.39262581 -0.91646165 0.077147454 0.00054337957
-87.629234 -29.022575 -22.8405 -0.38901901 -0.91496187 -0.10824301 0.0018919767
-87.411667 -29.525904 -19.055775 -0.35243246 -0.93455511 0.051116634 0.0047463495
-87.230232 -29.67029 -32.295841 -0.39262018 -0.91929471 0.027822061 0.00060155574
-87.147995 -29.27338 -28.481272 -0.37184501 -0.92291582 0.10000052 0.00072366407
-87.068687 -28.9877 -25.009111 -0.38461906 -0.92315888 -0.020256819 0.0038945298
-86.583565 -29.800562 -21.067688 -0.36036205 -0.93108326 -0.057048649 0.00353445
-86.622452 -29.248705 -26.703085 -0.37342131 -0.9255982 0.065640323 0.0023558184
-86.609673 -29.354046 -23.422729 -0.37753761 -0.92151076 -0.092834994 0.0024987645
-85.162598 -30.364307 -30.233583 -0.36802956 -0.92458314 0.098516412 0.00044710361
-85.168015 -29.768723 -25.072775 -0.36547461 -0.93120617 -0.016136471 0.0028153949
-84.835388 -30.228634 -22.351458 -0.35338712 -0.93096071 -0.092198931 0.0013362045
-84.77523 -30.509565 -20.101625 -0.34080651 -0.93992525 0.023931686 0.0053560445
-84.680466 -30.042233 -27.095209 -0.35982487 -0.92982084 0.079622619 0.0021345448
-84.393326 -30.840445 -32.216873 -0.37345633 -0.92632741 0.052245282 0.00070050242
-83.370041 -30.539433 -24.06876 -0.35401523 -0.93276274 -0.068570778 0.0019670057
-83.340157 -30.812428 -28.623623 -0.35375232 -0.92875969 0.11080004 0.00055570278
-83.279396 -30.852934 -18.555626 -0.31610006 -0.93986195 0.12978666 0.0031003952
-83.067665 -31.082653 -21.335045 -0.34239206 -0.9390828 -0.030009879 0.0038241374
-82.91021 -31.263283 -30.611694 -0.35113519 -0.93121958 0.097671524 0.00064716325
-82.848373 -30.658449 -26.180101 -0.3532626 -0.93497294 0.032171734 0.0027464565
-81.615807 -31.611177 -19.678391 -0.32717925 -0.94197392 0.075578496 0.0047853095
-81.592964 -31.394825 -23.009413 -0.3525348 -0.93223476 -0.082219079 0.0012850537
-81.460205 -31.317575 -27.69655 -0.34311125 -0.93431354 0.098227963 0.0017659806
-81.244049 -32.016922 -31.770821 -0.35142827 -0.93285537 0.079378165 0.00052445347
-81.050255 -31.82856 -29.672764 -0.33929163 -0.93281394 0.121424 0.00034114136
-81.011612 -31.313187 -25.194283 -0.34804001 -0.93715239 -0.025551165 0.002858097
-80.523529 -32.040462 -21.308064 -0.33501559 -0.94203871 -0.01848962 0.0032424929
-79.774338 -31.944359 -18.144472 -0.30595794 -0.93339336 0.18763338 0.0013052813
-79.625473 -32.05574 -23.476828 -0.34099877 -0.93648881 -0.082246475 0.0010452553
-79.608696 -31.880346 -26.789743 -0.3429552 -0.93760991 0.058182973 0.0027528284
-79.387321 -32.60038 -30.816816 -0.33675018 -0.93495816 0.11161123 0.0003856039
-79.179405 -32.347507 -28.756805 -0.33423358 -0.93443638 0.12297788 0.00027501522
-78.714417 -32.619774 -20.032652 -0.31427315 -0.94622266 0.077456228 0.003842318
-78.463844 -32.263584 -25.191755 -0.34186819 -0.93907696 -0.03897123 0.003044663
-78.324142 -33.145683 -32.424412 -0.33412811 -0.93958044 0.074504301 0.00047795268
-78.19191 -32.765423 -22.099321 -0.32832664 -0.94397211 -0.03524442 0.0025295338
-77.658257 -32.620255 -27.218996 -0.32734135 -0.9422248 0.07150054 0.0019970587
-77.512611 -33.10326 -29.909821 -0.32512957 -0.93796217 0.12051499 0.0003127383
-77.507126 -32.641991 -18.231409 -0.29162002 -0.93726921 0.19103311 0.00092599133
-77.038002 -32.976067 -23.861092 -0.32729161 -0.94268346 -0.065479048 0.001583636
-76.774208 -33.249836 -20.139898 -0.30832964 -0.94691426 0.09118937 0.003803629
-76.141258 -33.795631 -31.458044 -0.31792864 -0.94259876 0.10234631 0.00047141974
-75.984596 -33.365791 -28.353489 -0.31681594 -0.94325018 0.099756338 0.0015145529
-75.958649 -33.573582 -22.164558 -0.32799166 -0.94444609 -0.02521131 0.0035163753
-75.868835 -33.171829 -25.568901 -0.32614297 -0.94508582 -0.023940366 0.0031350362
-74.874245 -33.763885 -19.596163 -0.30172467 -0.94309366 0.13989063 0.0037361493
-74.779579 -33.735905 -23.887922 -0.33080798 -0.94184864 -0.060122807 0.0016656189
-74.619644 -34.075649 -29.901842 -0.30799928 -0.94291043 0.12671523 0.00019611814
-74.158264 -33.772076 -26.798576 -0.32197413 -0.9463824 0.029192254 0.0031239528
-74.101105 -34.244389 -21.546013 -0.31991914 -0.94775307 0.019811321 0.0043328553
-73.2407 -34.752705 -31.437489 -0.29547009 -0.9497512 0.10365034 0.00035273173
-73.074684 -34.210884 -24.850254 -0.32496396 -0.94356614 -0.063954048 0.0018173091
-72.96347 -34.246677 -19.056299 -0.28834403 -0.93684 0.19804095 0.0011542784
-72.767204 -34.413269 -28.327549 -0.30216861 -0.94922733 0.088922337 0.0016224033
-72.372818 -34.785809 -22.768225 -0.3292481 -0.94374847 -0.032650165 0.0035713995
-71.923141 -34.487862 -26.503023 -0.3136754 -0.94964331 0.0015875588 0.0034438132
-71.612823 -35.002602 -20.553371 -0.30552506 -0.94443798 0.12471449 0.0049031451
-71.389061 -35.089413 -29.863852 -0.27691543 -0.95336568 0.12067903 0.00090456504
-71.264526 -35.408581 -31.920767 -0.26833791 -0.95802939 0.10093846 0.00067839259
-71.196831 -34.95602 -24.514778 -0.3287701 -0.94069886 -0.083729841 0.0018317614
-70.501419 -35.516102 -22.510719 -0.33032656 -0.9438923 -0.0065540923 0.0049501793
-70.381973 -34.940819 -18.785368 -0.27687991 -0.9309876 0.23815955 0.0013154496
-70.216164 -35.115505 -27.704189 -0.28995115 -0.95678604 0.032042731 0.0035777045
-69.675171 -35.638878 -20.672235 -0.30540299 -0.94095898 0.14672735 0.0038773234
-69.418449 -35.519329 -29.69445 -0.26697242 -0.95903593 0.094811484 0.0012000438
-69.430809 -35.378639 -25.805202 -0.33137333 -0.9404726 -0.076863974 0.0035282024
-69.297607 -35.852432 -31.743496 -0.24760547 -0.96310371 0.10565022 0.00065807125
-68.763817 -36.026962 -23.762239 -0.35065216 -0.93484175 -0.058222067 0.004972572
-68.440376 -35.567436 -18.906506 -0.27139696 -0.93019348 0.24774164 0.0020681503
-68.268105 -35.60688 -27.537247 -0.3408975 -0.93995476 -0.016950978 0.0053592809
-67.998665 -36.365707 -21.802124 -0.32287359 -0.94273061 0.084534459 0.0069921161
-67.564209 -36.121269 -25.544569 -0.39546001 -0.91447431 -0.086154632 0.0044475407
-67.447121 -35.94743 -29.558834 -0.34309098 -0.93862104 0.036844391 0.0067089978
-66.97995 -36.306389 -31.573809 -0.32071695 -0.94468701 0.068712078 0.0071633379
-66.896202 -36.798977 -23.446365 -0.37936935 -0.92524445 0.0085322326 0.0083135599
-66.785591 -36.3503 -20.041058 -0.28426749 -0.93046552 0.23120023 0.0025427979
-66.420746 -36.383389 -27.260546 -0.45138791 -0.89028871 -0.060806103 0.005209594
-65.767471 -37.127621 -25.137527 -0.45599681 -0.88926673 -0.035719804 0.0070758248
-65.611374 -36.760231 -29.273607 -0.47374719 -0.88057965 -0.015630765 0.0084675821
-65.513046 -36.151058 -18.316074 -0.24326153 -0.92297089 0.29838324 0.00016990783
-65.459747 -37.182915 -21.526907 -0.3026402 -0.93424857 0.20760596 0.0072247549
-65.102051 -37.031364 -31.307755 -0.46206322 -0.88694733 0.0022762048 0.0095114969
-64.70636 -37.770973 -23.435318 -0.39216712 -0.91426158 0.12235434 0.010710776
-64.65004 -37.697819 -27.054424 -0.54461074 -0.83777642 -0.04405399 0.0039857323
-64.188354 -37.000389 -19.79274 -0.26304978 -0.92058802 0.28991577 0.0012299469
-64.036674 -37.591461 -32.907665 -0.50834668 -0.86166441 -0.036991648 0.0078199077
-63.807762 -38.081028 -29.035233 -0.61820495 -0.78607988 -0.069272578 0.002730255
-63.633469 -38.472683 -25.313545 -0.4563449 -0.89131701 0.084276281 0.0073662582
-63.502647 -37.767769 -21.659121 -0.26259077 -0.92432821 0.31189558 0.0053472612
-63.333248 -38.280262 -31.170553 -0.61488801 -0.78888816 -0.07844469 0.0026646769
-62.871555 -38.966106 -27.30257 -0.48308766 -0.88548172 0.035023786 0.0034642045
-62.498024 -38.638634 -23.483915 -0.29575282 -0.9287073 0.29761097 0.0057800184
-62.125084 -39.490326 -29.282648 -0.59285921 -0.8057431 -0.043378163 0.00047274961
-100.26025 -23.923178 -15.465447 -0.39665407 -0.91491574 0.077466406 0.0030748071
-99.384689 -23.956619 -13.646979 -0.37560353 -0.91521937 0.14594376 0.00027861015
-98.887405 -24.643219 -16.944551 -0.41126919 -0.91141969 0.018366909 0.0043018823
-98.21106 -24.103559 -11.810716 -0.35955682 -0.91817832 0.16638203 0.00012036118
-97.764267 -24.810551 -14.76715 -0.37730712 -0.91672277 0.13143595 0.0010855149
-97.043114 -25.432514 -16.679291 -0.39964151 -0.91509664 0.06351503 0.0051085055
-97.016586 -24.214352 -9.9719152 -0.34289548 -0.91983664 0.19061717 0.00024258322
-96.571861 -24.926567 -12.925274 -0.35812286 -0.91763085 0.17235868 0.00015816884
-95.867409 -25.5833 -14.833702 -0.36783603 -0.91646719 0.15745929 0.00056795659
-95.812408 -24.255522 -8.1695833 -0.32211468 -0.91979837 0.22411348 0.00036277616
-95.389114 -25.052467 -11.090316 -0.34189463 -0.92023015 0.19050537 0.00027631852
-95.140594 -26.243837 -16.706148 -0.38716608 -0.91793042 0.087482736 0.0037724234
-94.66748 -25.679001 -12.995126 -0.34689233 -0.91983044 0.18325521 0.00022347583
-94.585014 -24.200941 -6.4033284 -0.30035841 -0.91694981 0.26266691 0.00038004189
-94.182991 -25.090878 -9.2861357 -0.32168001 -0.92083299 0.22045499 0.00036830438
-93.973991 -26.364511 -14.898705 -0.35600665 -0.91903585 0.1693819 0.00073829253
-93.479668 -25.767544 -11.179583 -0.32654294 -0.92410576 0.19850671 0.00025261918
-93.330734 -24.064363 -4.6603332 -0.27669731 -0.91250116 0.30130711 0.00036331514
-93.254974 -27.02158 -16.787695 -0.36538947 -0.92422104 0.11101548 0.002995688
-92.956306 -25.047876 -7.5122337 -0.29762065 -0.9194091 0.25714776 0.00041561853
-92.758202 -26.405931 -13.075857 -0.33269382 -0.92224211 0.19694176 0.00017469644
-92.262901 -25.772459 -9.3836632 -0.30544591 -0.92342854 0.23234595 0.00026386123
-92.055649 -27.080933 -14.975674 -0.33700112 -0.92379862 0.18181165 0.00045709946
-91.705933 -24.920219 -5.7667828 -0.27564484 -0.9150303 0.29454657 0.00041733056
-91.55616 -26.452524 -11.269403 -0.31453496 -0.92522001 0.21221669 0.00022229081
-91.341133 -27.740728 -16.868387 -0.35002109 -0.92843926 0.12606733 0.0032028246
-91.025772 -25.695065 -7.6198125 -0.28470626 -0.92046446 0.26775885 0.00035866647
-90.846931 -27.100124 -13.180324 -0.32078037 -0.92499137 0.20369758 0.00010613947
-90.755089 -24.502668 -3.7710698 -0.25696835 -0.9087618 0.32883105 0.00032175521
-90.334129 -26.421856 -9.4929457 -0.29656389 -0.92336351 0.24384345 0.00029174791
-90.137199 -27.766649 -15.076199 -0.32766724 -0.92512226 0.19179526 0.00029228197
-89.765144 -25.525059 -5.8909554 -0.26412153 -0.91528523 0.30413321 0.00028106029
-89.634056 -27.115517 -11.380816 -0.30543342 -0.92571604 0.22307673 0.0002485289
-89.436172 -28.458527 -16.97015 -0.339185 -0.92992228 0.14293522 0.0025780133
-89.088615 -26.309797 -7.7428117 -0.2763437 -0.91961414 0.27919728 0.0003081256
-88.919746 -27.781456 -13.266515 -0.31105983 -0.92646861 0.21189214 0.00012144819
-88.806793 -25.079657 -3.9033027 -0.25030416 -0.90784925 0.33639303 0.00015377482
-88.400299 -27.055889 -9.6066084 -0.28801864 -0.92271125 0.25622371 0.00036717681
-88.215828 -28.458691 -15.165708 -0.31878287 -0.9258675 0.20287043 0.00018752241
-87.821159 -25.999073 -5.7055864 -0.26003882 -0.91201639 0.31724316 0.00022813478
-87.70797 -27.779022 -11.484442 -0.29801956 -0.92557508 0.2334564 0.00027379385
-87.509811 -29.137743 -17.060543 -0.32846799 -0.93088156 0.16017725 0.0016704735
-87.155655 -26.822966 -7.5440812 -0.27077532 -0.9165104 0.29443538 0.00033687963
-87.001198 -28.462711 -13.370344 -0.30382225 -0.92706007 0.2196627 0.00016783235
-86.860199 -25.543221 -3.7223651 -0.24527989 -0.9051733 0.3471356 0.0002868445
-86.624863 -28.957493 -14.978949 -0.30408442 -0.92921716 0.20997977 0.0001901622
-86.526909 -26.441368 -5.8932881 -0.25961629 -0.91064048 0.32145944 0.00018127711
-86.468483 -27.69331 -9.7216177 -0.28141114 -0.92256719 0.26397389 0.00020251329
-86.414993 -28.237078 -11.662 -0.29140487 -0.92682046 0.23684505 0.00024489555
-85.075851 -29.004145 -13.165862 -0.28641951 -0.9309144 0.22663288 0.00013149777
-84.682915 -29.578083 -15.088877 -0.29416183 -0.93039668 0.21870759 0.00012921219
-84.619583 -30.078089 -17.05694 -0.30913466 -0.93247581 0.18695925 0.0008055084
-84.584373 -27.044138 -6.0195684 -0.25350773 -0.91022271 0.32748067 0.000255021
-84.591209 -26.217373 -3.8184121 -0.24036935 -0.90241128 0.35761771 0.00026688143
-84.566086 -27.709061 -7.9195666 -0.26218817 -0.917418 0.29934546 0.00028063165
-84.530724 -28.314276 -9.8405981 -0.27035171 -0.92478901 0.26777622 0.00025315114
-83.510689 -29.113228 -11.686296 -0.27861238 -0.92764193 0.24871992 0.00028198454
-83.122665 -29.697014 -13.614812 -0.2879163 -0.92935574 0.23109692 0.00011666305
-82.741692 -30.298681 -15.544708 -0.29863286 -0.92786628 0.22334677 0.0001999954
-82.635635 -26.653376 -3.6466761 -0.2295638 -0.89986098 0.37093771 0.00022644264
-82.63839 -27.393831 -5.5211854 -0.23973638 -0.90839541 0.34260765 0.00019969244
-82.622963 -28.190559 -7.7320018 -0.25329608 -0.91623652 0.31041008 0.00021000896
-82.588821 -28.800354 -9.6507044 -0.26417536 -0.92282546 0.2804389 0.00024201396
-81.579018 -29.63591 -11.485824 -0.27265736 -0.92609423 0.26078868 0.00024750145
-81.411301 -31.114658 -17.022413 -0.3038643 -0.93084013 0.20306285 0.00076946628
-81.201019 -30.260086 -13.395248 -0.28467879 -0.9268676 0.24470614 0.00022938118
-80.676247 -28.535164 -7.2369046 -0.23721616 -0.91458786 0.32750678 0.00023295161
-80.680534 -27.584034 -4.7229438 -0.22207257 -0.90431362 0.36461675 0.00025889452
-80.654747 -29.195189 -9.1403389 -0.25106671 -0.91940665 0.30276021 0.00020935053
-80.176651 -31.046795 -15.249639 -0.29050255 -0.92707872 0.23692507 0.00010698684
-79.651772 -30.054726 -10.962781 -0.26125607 -0.92306101 0.28231934 0.00031328184
-79.284492 -30.714987 -12.862443 -0.2753166 -0.92533946 0.26069495 0.0003541823
-79.046959 -28.422483 -5.8370667 -0.22310145 -0.90802449 0.35456941 0.00021122996
-78.707932 -29.541803 -8.6437502 -0.23954016 -0.91653073 0.32031482 0.0002179118
-78.709061 -27.722282 -3.9452736 -0.20859528 -0.89881212 0.38552257 0.00019459936
-78.534828 -31.862663 -16.371025 -0.28491053 -0.92986679 0.2327555 0.00015027418
-77.951538 -31.517504 -14.352851 -0.27388367 -0.92837304 0.25122237 0.0002053732
-77.709068 -30.42145 -10.46099 -0.2473277 -0.92069322 0.30191916 0.00021256314
-77.408707 -29.250259 -6.9538388 -0.22323568 -0.9096325 0.35034037 0.00029697316
-77.35321 -31.122831 -12.348758 -0.25674251 -0.92516631 0.2795673 0.00020625461
-77.074547 -28.567156 -5.0546627 -0.20885146 -0.90199983 0.377875 0.00025475794
-76.720901 -27.823349 -3.173317 -0.19773979 -0.89326286 0.40371376 0.00019822289
-76.612328 -32.301273 -15.843875 -0.27421141 -0.92992717 0.24506317 0.00016894333
-76.419518 -30.164675 -8.7593365 -0.22795591 -0.91581249 0.33064231 0.00023582758
-76.017479 -31.915714 -13.83625 -0.25998256 -0.92778003 0.26764998 0.00016164118
-75.752419 -30.981865 -10.601938 -0.23700756 -0.92017102 0.31163484 0.00025250961
-75.588684 -33.097565 -17.69776 -0.28225213 -0.93434262 0.2176127 0.00079852651
-75.445381 -29.662218 -6.7923417 -0.21248671 -0.90854788 0.35972789 0.00018180719
-75.107018 -28.967596 -4.8968163 -0.20081429 -0.90005505 0.38680103 0.00029176049
-74.742607 -28.191795 -3.0256946 -0.18607168 -0.890365 0.41548988 0.00028008441
-74.68148 -32.714069 -15.328848 -0.26521164 -0.92814052 0.2611877 0.00014916428
-74.454666 -30.696339 -8.9109621 -0.220341 -0.91396964 0.34075317 0.00022728722
-74.428993 -31.822189 -12.075025 -0.24450548 -0.92201251 0.30018684 0.00027713054
-73.663597 -33.531048 -17.168425 -0.27214131 -0.93025231 0.24611886 0.00033674619
-73.470901 -30.172251 -6.9498458 -0.20478183 -0.90797043 0.36559582 0.00015163717
-73.13829 -31.561987 -10.374866 -0.22751608 -0.91559088 0.33156177 0.00028816974
-73.131485 -29.478388 -5.0524273 -0.18958795 -0.89935106 0.39406335 0.00032298142
-73.096062 -32.632427 -13.560534 -0.24962988 -0.92499405 0.28650182 0.00016905193
-72.766487 -28.684851 -3.193295 -0.17510521 -0.88799816 0.42520434 0.00024518115
-72.408218 -33.388073 -15.425407 -0.25505298 -0.92814243 0.27112758 0.00016816905
-72.150261 -31.033171 -8.4137793 -0.2092322 -0.90913492 0.36014211 0.00014432248
-71.822411 -32.426178 -11.839869 -0.23315383 -0.919164 0.31746411 0.00038485104
-71.718239 -34.13818 -17.291687 -0.2672385 -0.92802036 0.25954971 0.00044659534
-71.484024 -30.282225 -6.1788359 -0.18747585 -0.90211904 0.38864523 0.00033843549
-71.139526 -33.201405 -13.698853 -0.24085376 -0.92485702 0.29433089 0.00014635095
-71.131531 -29.527895 -4.307147 -0.17138666 -0.89321548 0.41568401 0.0003882336
-70.84771 -31.930424 -9.8696575 -0.21806227 -0.91059119 0.35111925 0.00030867173
-70.448944 -33.951241 -15.567451 -0.24935322 -0.92647231 0.28190911 0.0001143734
-70.174255 -31.294138 -7.9481316 -0.1994146 -0.9034214 0.37956938 0.00027063745
-69.860306 -32.975861 -11.985604 -0.22754316 -0.91857332 0.32322598 0.00029388716
-69.496765 -30.624807 -6.0419145 -0.1794783 -0.89710671 0.40376848 0.00028552825
-69.173973 -33.748787 -13.846451 -0.23315394 -0.92438114 0.30198646 0.00015965872
-69.124176 -29.829311 -4.1762257 -0.16166881 -0.88842905 0.42962071 0.00020201472
-69.113899 -34.760983 -17.055954 -0.25282368 -0.92552358 0.28194451 0.00018768088
-68.878876 -32.472923 -10.015903 -0.207839 -0.90870613 0.36202145 0.00030387094
-68.200111 -31.807652 -8.1067438 -0.1921705 -0.9003213 0.39050311 0.00016060626
-67.889267 -33.504932 -12.138906 -0.21519272 -0.91866744 0.33141187 0.00044006834
-67.83828 -34.551727 -15.334742 -0.23634818 -0.92470837 0.29842082 0.00013290696
-67.50724 -31.093763 -6.2147231 -0.169745 -0.89353079 0.41574237 0.00026891765
-67.157501 -35.335159 -17.192095 -0.24658923 -0.92350781 0.29383305 0.00015605488
-67.128281 -30.274891 -4.3579116 -0.15828775 -0.88514835 0.43762591 0.00024375429
-66.897186 -32.710129 -9.5615139 -0.19186074 -0.90603381 0.37728083 0.00028919871
-66.560852 -34.334888 -13.617299 -0.21835877 -0.92230356 0.31888336 0.00035088288
-66.202614 -32.019836 -7.6547227 -0.17366354 -0.89657974 0.40748361 0.00027535847
-65.912308 -33.652931 -11.357368 -0.19777521 -0.91297698 0.35692281 0.00038827388
-65.879387 -35.115944 -15.475229 -0.2278197 -0.92269486 0.31103474 0.00017400044
-65.49839 -31.258865 -5.7818394 -0.16325401 -0.88734329 0.43130961 0.00018893737
-65.100471 -30.396568 -3.9334745 -0.1491968 -0.87999225 0.45109573 0.00010953451
-64.898422 -33.052746 -9.4194117 -0.18281053 -0.90379435 0.38703936 0.00019520048
-64.587662 -34.620182 -13.144265 -0.1904626 -0.92009526 0.34341633 0.00034674705
-64.211533 -32.347195 -7.5272102 -0.18282795 -0.89172029 0.41450146 0.00025861853
-64.22049 -35.897743 -16.614124 -0.20938422 -0.9271602 0.31233999 0.00013095771
-63.922657 -34.005486 -11.216511 -0.19475265 -0.9092896 0.36788428 0.00027261887
-63.251545 -35.424717 -14.63277 -0.17582409 -0.9277814 0.33256286 0.00018631901
-89.457191 -24.198624 -2.0874169 -0.24233107 -0.90347904 0.35356688 0.00016329445
-87.510384 -24.66246 -1.9031445 -0.23689391 -0.89983833 0.36629874 0.00023409502
-86.518715 -24.097466 0.0438191 -0.22026204 -0.89155388 0.39575443 0.00029127096
-84.575851 -25.306845 -1.6497481 -0.2251686 -0.89478076 0.38559273 0.00025937616
-84.54747 -24.480789 0.2011627 -0.20972694 -0.88769895 0.40988591 0.00024943153
-82.615921 -25.854624 -1.7906538 -0.21780059 -0.89240301 0.39521703 0.00012656652
-82.585274 -25.015491 0.051134508 -0.20705144 -0.88415837 0.41880876 0.00015109481
-82.542061 -24.13306 1.88046 -0.19215316 -0.87555707 0.44326454 0.00020606264
-80.662407 -26.664574 -2.5558724 -0.21108572 -0.89526039 0.39240035 0.00015594588
-80.632195 -25.835363 -0.70667315 -0.2035915 -0.8868854 0.41475257 0.00011846721
-80.592644 -24.961521 1.1213813 -0.18954438 -0.87579495 0.44391757 0.00021920774
-80.535782 -24.028282 2.9317241 -0.17689456 -0.86582738 0.46803331 0.00022801016
-78.685844 -26.912479 -2.0932329 -0.19767973 -0.89209282 0.40633497 0.00013979949
-78.651207 -26.06757 -0.24977393 -0.18410525 -0.88286072 0.43205088 0.00021055029
-78.598244 -25.149189 1.564707 -0.17196204 -0.87135756 0.45954007 0.00025112563
-77.854782 -24.261797 3.4093068 -0.15483162 -0.8597334 0.48671436 0.00012346508
-76.689232 -26.978142 -1.3356087 -0.18375903 -0.8847397 0.42837465 0.00026238392
-76.643562 -26.082777 0.48444021 -0.17004253 -0.874789 0.45370811 0.00026107876
-76.233009 -25.156517 2.3151469 -0.15570244 -0.86261898 0.48129922 0.00017144902
-75.818886 -24.191952 4.1204638 -0.14302029 -0.85100347 0.50531358 0.00016955378
-74.69696 -27.314455 -1.1916128 -0.17317177 -0.8809647 0.44035617 0.00028204275
-74.641037 -26.386965 0.61949611 -0.16319752 -0.87063295 0.4640761 0.00026197638
-74.22818 -25.446558 2.4412329 -0.15102422 -0.85745245 0.49192011 0.00024936348
-73.472763 -24.502316 4.2538404 -0.1359404 -0.84609818 0.51542139 0.00025758997
-72.717072 -27.789333 -1.3689142 -0.16201785 -0.87899798 0.4484598 0.0002579221
-72.6576 -26.857365 0.44306821 -0.15019107 -0.87055987 0.46858239 0.00020182607
-72.243385 -25.914663 2.2625806 -0.13980201 -0.85750902 0.49511111 0.00021034485
-71.47654 -24.948217 4.0748568 -0.12843595 -0.84438831 0.52013069 0.00017121875
-70.740646 -28.685232 -2.4506521 -0.15734659 -0.88167095 0.44486102 0.00025172756
-70.679543 -27.747189 -0.64084607 -0.14551482 -0.87337071 0.46481699 0.00019880675
-70.614281 -26.788683 1.1600637 -0.1360646 -0.86402005 0.48473287 0.00021897942
-69.851898 -25.848747 2.9849887 -0.12034741 -0.85234869 0.50896579 0.00020066026
-69.721832 -24.573029 5.0495834 -0.11681677 -0.83710915 0.5344184 0.00014062798
-68.73735 -28.968353 -2.3379557 -0.14864752 -0.87778902 0.45541131 0.00024292036
-68.664497 -28.002491 -0.5335604 -0.13934478 -0.86888844 0.47503939 0.0001367342
-68.579163 -27.008759 1.2696701 -0.12740356 -0.85920197 0.49554241 0.00020338158
-68.104263 -25.477055 3.9460118 -0.11504354 -0.84451568 0.52303696 9.3093055e-05
-67.308159 -24.438442 5.74611 -0.11110591 -0.83221453 0.5432359 8.4158033e-05
-66.851837 -26.689295 2.2386775 -0.12425695 -0.85043627 0.51119459 0.00017501455
-66.737495 -29.407902 -2.5196934 -0.14457878 -0.87598002 0.46019635 0.00016781772
-66.667984 -28.4496 -0.71476215 -0.13630086 -0.86645222 0.48031887 0.00022253534
-66.063339 -25.687727 4.0539451 -0.11749542 -0.84216708 0.52626717 0.00011040436
-65.578979 -27.721399 0.83182818 -0.11435456 -0.85546917 0.50547194 0.00011798032
-65.275055 -24.655628 5.8443089 -0.1124048 -0.83152115 0.54406464 0.00013100871
-64.797966 -26.728554 2.6387651 -0.10467193 -0.84617281 0.5228765 9.4020303e-05
-64.705574 -29.501419 -2.1104221 -0.1186591 -0.87495613 0.47006643 0.00015122013
-166.97221 -10.367794 -51.642456 0.059954029 -0.4632493 0.88593811 0.00020085019
-166.94366 -13.064433 -53.055618 0.07870771 -0.46932787 0.8820886 0.00019844191
-166.93671 -15.846911 -54.455875 0.11262891 -0.43228355 0.90083241 0.00043656604
-166.5587 -23.765152 -58.519085 0.16865563 -0.44659841 0.88718152 0.00062572252
-166.5242 -17.894436 -55.525166 0.091651559 -0.45745647 0.88872528 0.00049753621
-166.48425 -20.516922 -56.895271 0.14121699 -0.45714411 0.88645792 0.00068664789
-165.44904 -9.054884 -51.016235 0.014441407 -0.46689916 0.8845377 0.00024671404
-165.43982 -11.81426 -52.457848 0.014477538 -0.46527806 0.88541365 0.0002339349
-165.42632 -14.53456 -53.913601 0.030840054 -0.45528984 0.89014816 0.0003230607
-165.02036 -22.351091 -57.937317 0.03749682 -0.45601532 0.88968998 0.00060222106
-164.99524 -16.529697 -54.927929 0.021847863 -0.45766976 0.88922685 0.00030512884
-164.98288 -19.249405 -56.32534 0.020979617 -0.46853459 0.88356721 0.00030747059
-163.91197 -10.30364 -51.639141 -0.01691941 -0.46746543 0.88386577 0.00019546908
-163.90382 -13.037918 -53.101368 -0.010538089 -0.46697962 0.88421482 0.00021512322
-163.84491 -20.85183 -57.1964 0.0087081399 -0.4646517 0.88547432 0.00042805492
-163.46729 -15.007834 -54.119133 -0.011302213 -0.4585959 0.88857913 0.00025811794
-163.45929 -17.732527 -55.534161 -0.0065183095 -0.4612146 0.88729197 0.0002704731
-163.33949 -8.3592005 -50.589005 -0.019692089 -0.46633887 0.88438761 0.00020750193
-163.11751 -23.161427 -58.400749 -0.0011488912 -0.46240962 0.88668555 0.00045672691
-162.40814 -11.881789 -52.438774 -0.024009261 -0.46920109 0.8827672 0.00015384011
-162.32642 -19.387049 -56.368523 -0.018131405 -0.46719268 0.88397682 0.00025964045
-161.93398 -16.240681 -54.714401 -0.022882016 -0.4613162 0.88696188 0.00023026743
-161.93248 -21.680511 -57.58231 -0.024885684 -0.46632835 0.88426334 0.00011883764
-161.8575 -10.046807 -51.410133 -0.031912342 -0.46820825 0.88304484 5.5354412e-05
-161.65216 -13.92382 -53.490944 -0.033104174 -0.46678424 0.8837527 6.0851849e-05
-161.15475 -23.582029 -58.56229 -0.029996449 -0.46541268 0.88458538 6.4176253e-05
