# .PCD v0.7 - Point Cloud Data file format
VERSION 0.7
FIELDS x y z normal_x normal_y normal_z curvature
SIZE 4 4 4 4 4 4 4
TYPE F F F F F F F
COUNT 1 1 1 1 1 1 1
WIDTH 609
HEIGHT 1
VIEWPOINT 0 0 0 1 0 0 0
POINTS 609
DATA ascii
17.68716 13.60553 64.734222 -0.015031608 -0.68699342 0.72650909 4.4439712e-05
17.850155 9.2303591 60.456093 -0.012266728 -0.70313209 0.71095455 3.7944341e-05
17.98208 11.53536 62.756348 -0.015062013 -0.69868362 0.71527255 5.9979913e-05
18.24296 19.207821 69.900131 -0.0091619818 -0.67012149 0.74219602 2.4304525e-05
18.632593 20.821625 71.351799 -0.0076147285 -0.66405982 0.74764156 3.1857915e-05
18.753065 14.871527 65.93399 -0.0094459821 -0.68086398 0.73234975 3.7204143e-05
18.805374 16.731468 67.639267 -0.0084620304 -0.67508137 0.73769486 2.6117474e-05
19.23781 10.396474 61.648994 -0.011342183 -0.70304179 0.71105808 4.0209419e-05
19.40428 12.758749 63.965435 -0.010346936 -0.68953854 0.72417539 5.2953466e-05
19.408419 22.472515 72.799911 -0.007803061 -0.6560123 0.7547102 3.0543873e-05
19.552654 8.3964605 59.654881 -0.00829037 -0.70653826 0.70762652 4.2456159e-05
19.868046 18.009754 68.823578 -0.008300297 -0.67412937 0.73856717 2.6680711e-05
20.250446 19.606901 70.268906 -0.008019424 -0.66808569 0.7440412 2.9235065e-05
20.491194 15.838373 66.839706 -0.0058234013 -0.67823702 0.73482043 2.7668089e-05
20.616997 21.197924 71.690323 -0.0069883084 -0.66218191 0.74931115 3.3691394e-05
20.626997 11.571336 62.834972 -0.0087317666 -0.69737023 0.71665853 9.6063304e-05
20.802322 13.976526 65.127861 -0.0067374478 -0.68397135 0.72947884 4.7885827e-05
20.918041 9.541564 60.820072 -0.0085247532 -0.70588189 0.70827961 4.5279117e-05
21.547272 17.108032 68.012733 -0.0058782757 -0.67580634 0.73705602 2.3102815e-05
21.928753 18.690418 69.464935 -0.0057387874 -0.67139882 0.74107563 3.2909058e-05
22.054413 12.808288 64.032547 -0.0041688369 -0.68929666 0.72446793 6.5495966e-05
22.189875 8.4343166 59.716038 -0.0067205084 -0.7075327 0.70664883 5.9255744e-05
22.305086 20.283825 70.89946 -0.0061344006 -0.66581982 0.74608797 2.3716393e-05
22.346422 10.745607 62.047451 -0.0059053558 -0.70117813 0.71296227 6.1418716e-05
22.3972 22.228636 72.621773 -0.0085479254 -0.65856051 0.75247943 5.1692554e-05
22.578949 14.982398 66.066338 -0.0047283419 -0.68023902 0.73297548 3.0256151e-05
23.536005 17.469982 68.369659 -0.0039903265 -0.67410672 0.7386232 3.1324565e-05
23.605814 9.6170177 60.934177 -0.0029353914 -0.70595735 0.70824933 6.4941683e-05
23.749853 11.951495 63.222652 -0.0017723382 -0.69433987 0.7196452 6.1736282e-05
23.805668 13.777614 64.950279 -0.0014273564 -0.68438596 0.72911882 4.5285382e-05
23.904226 19.042032 69.802177 -0.0042836573 -0.67079443 0.74163109 2.8722514e-05
24.069477 21.294342 71.809288 -0.0076081986 -0.6649403 0.74685878 2.6248894e-05
24.32036 15.948647 66.967468 0.0002400064 -0.67873657 0.73438215 3.4896781e-05
24.334375 7.9014034 59.198994 -0.0037591883 -0.70799625 0.70620626 5.6946945e-05
24.990652 10.799253 62.092678 0.0011269563 -0.69876331 0.7153523 3.5148718e-05
25.515375 12.92822 64.154236 0.0023008364 -0.68862712 0.72511208 6.8986308e-05
25.536909 14.7321 65.838509 0.0030914443 -0.68157256 0.73174423 3.612915e-05
25.538393 17.859394 68.719666 -0.00084787473 -0.6754337 0.7374211 3.224851e-05
25.698561 20.080177 70.741104 -0.0033107912 -0.66901124 0.74324507 4.056119e-05
25.759727 9.099165 60.412788 -0.00054873619 -0.70814174 0.70607048 4.997681e-05
26.078964 21.682793 72.172775 -0.0052871327 -0.66387773 0.74782258 3.7288253e-05
26.313745 16.326616 67.308907 0.0019147682 -0.68007594 0.73314011 2.9824072e-05
26.757206 11.764712 63.031429 0.001889699 -0.69478422 0.71921605 5.1965835e-05
27.005701 7.9759183 59.272018 -0.0015235516 -0.70662731 0.70758438 5.3154399e-05
27.175837 10.304962 61.600788 -0.0012566216 -0.69992453 0.71421754 3.915657e-05
27.251196 13.886312 65.041969 0.0046078456 -0.68388224 0.72957802 4.2078485e-05
27.308676 18.866156 69.632629 -0.0024304583 -0.67466778 0.73811752 4.4846129e-05
27.682487 20.440607 71.07338 -0.0037514691 -0.66891509 0.74332958 5.5496181e-05
28.030977 15.479212 66.513046 0.0037716865 -0.68125594 0.73203576 3.9146551e-05
28.074982 22.050716 72.521118 -0.0043903254 -0.66287982 0.74871325 5.1258674e-05
28.089834 17.335976 68.226463 -6.3426385e-05 -0.67804539 0.73502016 4.8699469e-05
28.435553 9.1713848 60.489967 -0.00074352347 -0.70573008 0.70848066 5.5395314e-05
28.5012 12.722716 63.930508 0.0054791304 -0.6868214 0.72680646 5.7263453e-05
28.921598 11.244266 62.519268 0.00089538458 -0.69306082 0.72088432 6.6416804e-05
29.243526 7.749557 59.065506 -0.0008248298 -0.70870757 0.70550233 5.6218323e-05
29.275074 14.30099 65.397728 0.0052417242 -0.68419558 0.72928214 4.7969388e-05
29.305838 19.230108 69.986198 -0.0054219929 -0.67346549 0.7391988 3.6155579e-05
29.711227 20.843781 71.450745 -0.0046294564 -0.66802531 0.74412543 3.9213188e-05
29.783039 16.457859 67.407104 1.3077081e-05 -0.68316072 0.73026961 5.0875642e-05
30.163408 10.081731 61.398792 0.00065135228 -0.70002097 0.71412224 4.674041e-05
30.502665 13.107484 64.268867 0.001967571 -0.6843515 0.72915006 3.3434932e-05
30.541138 18.0077 68.883949 -0.0027566743 -0.67858344 0.73451924 4.8147176e-05
30.775875 22.136486 72.605072 0.00027963554 -0.66006619 0.75120771 5.5845157e-05
30.907349 11.595184 62.861168 0.0036007692 -0.69094086 0.72290254 6.2371284e-05
30.970514 8.6536779 59.974773 0.00095410488 -0.70640063 0.70781177 3.5175086e-05
31.030188 15.275835 66.296715 0.0007983048 -0.68479711 0.72873384 3.2345382e-05
31.295374 19.580891 70.331429 0.00019822373 -0.67250979 0.74008995 6.6844143e-05
31.785048 16.816174 67.770004 -0.0011619374 -0.68538934 0.72817594 3.0296036e-05
32.142769 10.424236 61.734333 0.0057360185 -0.69718748 0.71686614 6.7616165e-05
32.296669 14.11583 65.204483 0.0049953894 -0.68471706 0.72879225 3.798298e-05
32.421707 20.933352 71.546043 0.0076720263 -0.66434985 0.74738252 8.8684297e-05
32.544777 18.374365 69.238174 0.0031520086 -0.67578137 0.73709583 7.7866178e-05
32.685574 12.58254 63.783627 0.0059570218 -0.6867044 0.72691327 6.8659399e-05
32.700905 7.8594065 59.162998 0.0032501288 -0.70656866 0.70763743 3.221885e-05
33.034706 15.641183 66.653214 0.0021918381 -0.68652284 0.7271049 4.1125219e-05
33.446316 9.3404455 60.648331 0.0088789137 -0.70177078 0.7123484 5.2791413e-05
33.497967 22.252493 72.690872 0.01152926 -0.65892416 0.75212425 9.9938989e-05
33.623447 19.675442 70.401482 0.0082124071 -0.66949993 0.7427671 8.3690378e-05
33.786026 17.18663 68.111443 0.005774539 -0.68201619 0.73131502 9.2309208e-05
33.912399 11.39759 62.649052 0.0093460623 -0.6924746 0.72138321 6.8528985e-05
34.265522 14.454588 65.515152 0.0034760421 -0.68691093 0.72673357 4.3696797e-05
34.679989 12.95755 64.106468 0.0086436961 -0.68653733 0.72704339 5.678512e-05
34.683872 8.2045507 59.496563 0.011052044 -0.70428294 0.7098338 4.5698591e-05
34.733715 21.025759 71.577789 0.011328274 -0.66309655 0.74844903 8.3469829e-05
34.886173 18.497889 69.301582 0.0074120872 -0.67421234 0.73850042 7.0268288e-05
35.050613 16.024611 67.007538 0.0035778545 -0.6857723 0.72780746 4.8202488e-05
35.175259 10.2715 61.525806 0.01220824 -0.69782037 0.71616924 4.8681221e-05
35.884975 22.431219 72.781677 0.012353281 -0.65811366 0.75281763 8.9393958e-05
35.937931 11.801372 62.997986 0.013367316 -0.69245803 0.72133547 9.0354406e-05
36.011982 19.849588 70.502052 0.012709929 -0.6665017 0.74539518 7.5101831e-05
36.129585 17.297167 68.189957 0.0068955473 -0.67763102 0.73537171 9.180366e-05
36.315456 14.866658 65.901848 0.007889987 -0.68921137 0.724518 7.9562044e-05
36.451653 9.1676016 60.407154 0.012557433 -0.70210493 0.71196419 3.4577028e-05
36.70974 13.358776 64.463364 0.014234207 -0.69061929 0.72308272 9.6653283e-05
37.085083 21.149345 71.650848 0.012295205 -0.6637094 0.74789 9.292303e-05
37.213436 10.689951 61.878632 0.015674047 -0.69640315 0.71747983 5.8523296e-05
37.21669 18.600767 69.356819 0.010918763 -0.67082757 0.74153364 5.7328383e-05
37.261406 7.7326589 58.99559 0.010195589 -0.70486236 0.70927477 7.3198426e-05
37.74242 16.094353 67.073891 0.010709905 -0.68704337 0.72655213 0.00010853164
37.943176 12.196201 63.312531 0.017101089 -0.69032621 0.72329986 7.3852876e-05
38.065018 17.355049 68.250755 0.0091699967 -0.67673558 0.73617548 0.00013320343
38.080215 14.313993 65.342087 0.01465492 -0.69276953 0.72101235 6.9057343e-05
38.087204 9.5429735 60.74662 0.013827422 -0.6982497 0.71572173 4.4332461e-05
38.091728 20.554548 71.101395 0.013946312 -0.66470194 0.74697924 6.4760752e-05
39.218117 21.908722 72.29763 0.016780205 -0.6626907 0.74870646 6.9591886e-05
39.856766 12.025068 63.103348 0.0124833 -0.69279754 0.72102422 7.248683e-05
40.073402 14.455502 65.422005 0.013049325 -0.69205517 0.72172904 7.0279908e-05
40.083313 9.9112644 61.066147 0.013546586 -0.69784141 0.71612537 4.2197149e-05
40.086365 17.757933 68.579147 0.015729075 -0.6739254 0.73863208 0.00013414142
40.095791 16.212738 67.150963 0.013683534 -0.68651956 0.72698581 0.00010959639
40.145149 19.411205 70.03434 0.016108835 -0.66708386 0.74480891 4.9551199e-05
40.921585 21.03298 71.460388 0.01966946 -0.66347241 0.74794286 6.1854931e-05
41.274071 8.4838877 59.655708 0.017460492 -0.7022959 0.71167147 2.7604137e-05
41.311657 13.281281 64.284119 0.013104266 -0.69167686 0.72208953 6.3362968e-05
41.555882 11.166709 62.273224 0.011971893 -0.69365007 0.72021413 7.6150485e-05
41.826141 15.406568 66.311752 0.014924768 -0.68876684 0.72482979 7.9828962e-05
41.843445 18.529602 69.200089 0.019798599 -0.66875595 0.74321973 4.6446359e-05
42.060867 22.406414 72.656059 0.019753234 -0.66008806 0.75092953 6.2509884e-05
42.223778 16.955791 67.790543 0.019659229 -0.67851108 0.73432875 0.00014399833
42.366364 9.7255173 60.859177 0.015883742 -0.69932252 0.71463144 6.5795204e-05
42.672771 20.205809 70.66684 0.019409664 -0.66625875 0.74546808 4.6760451e-05
43.007008 12.417655 63.445965 0.012834868 -0.69199342 0.72179186 5.6988101e-05
43.030979 7.7172279 58.84285 0.023947347 -0.70678622 0.70702213 3.6741036e-05
43.105232 14.266729 65.208412 0.014776314 -0.68999571 0.72366476 6.8757763e-05
43.788387 21.53734 71.852974 0.020563504 -0.66408962 0.7473706 6.4241773e-05
43.818928 10.966083 62.039974 0.017141638 -0.69708705 0.71678162 5.7969137e-05
43.866451 15.810906 66.663658 0.019732038 -0.68296266 0.73018682 8.6158441e-05
43.911674 18.984997 69.552818 0.021866482 -0.66756713 0.74422896 4.5675508e-05
44.255531 17.375565 68.109436 0.023890372 -0.67564046 0.73684508 7.9994563e-05
44.484264 8.95856 60.018326 0.022254396 -0.70380998 0.71004117 4.0747087e-05
44.806812 13.4079 64.370598 0.020474536 -0.68919367 0.72428966 6.6583882e-05
45.001289 20.297804 70.701866 0.022903334 -0.66687524 0.7448175 4.7241032e-05
45.556297 10.177527 61.204163 0.02100588 -0.70119452 0.71266061 4.3358505e-05
45.605633 14.998294 65.840965 0.024700718 -0.68646467 0.72674513 5.027646e-05
45.636082 11.975734 62.970337 0.021450337 -0.69322503 0.72040278 5.4545519e-05
45.842148 21.977785 72.18605 0.02811992 -0.65963578 0.75106078 7.8596073e-05
45.99897 16.56086 67.291664 0.024449171 -0.67807359 0.73458958 5.0462237e-05
46.013123 18.132494 68.733597 0.024138227 -0.67172104 0.74041241 5.6232358e-05
46.236946 8.1861591 59.196507 0.020965526 -0.70699763 0.7069062 5.1608695e-05
46.86005 13.848895 64.700333 0.024875108 -0.68866825 0.72465032 4.206652e-05
47.009277 20.4491 70.777199 0.029714735 -0.66421741 0.74694896 5.9196729e-05
47.3055 9.3867111 60.389156 0.020552332 -0.70346403 0.71043414 5.8403595e-05
47.352264 11.163195 62.115318 0.023279572 -0.69701326 0.71668094 5.2599571e-05
47.67635 15.450627 66.188538 0.026007969 -0.68334496 0.72963405 4.2419637e-05
47.751167 17.307318 67.910652 0.0278196 -0.67524689 0.73706704 5.4399567e-05
47.777847 18.900547 69.355263 0.030107498 -0.6690914 0.74257046 4.8774651e-05
48.136337 12.719866 63.580421 0.024025977 -0.68995148 0.72345769 4.4850596e-05
48.147511 21.832924 71.942596 0.035673909 -0.65869749 0.75156313 5.3775228e-05
48.939983 14.302212 65.058548 0.024945153 -0.68702573 0.72620487 3.8928465e-05
49.080101 10.347721 61.282955 0.024813708 -0.69894552 0.71474952 6.3685489e-05
49.297787 20.285797 70.520081 0.032790083 -0.66279644 0.74808186 3.5662142e-05
49.445358 8.6321964 59.562664 0.028606435 -0.70568168 0.70795155 7.2224429e-05
49.469395 16.459141 67.074226 0.027228551 -0.67739636 0.73511457 5.190487e-05
49.888794 11.917397 62.770817 0.026950566 -0.69325382 0.72019285 5.5381843e-05
49.900211 18.080385 68.533463 0.029366031 -0.66982555 0.74193758 3.7196136e-05
50.150562 21.993446 71.98793 0.034267809 -0.65644288 0.75359762 4.2230833e-05
50.655556 13.461297 64.217674 0.029673537 -0.68839312 0.72473413 5.951666e-05
50.732704 15.30087 65.94912 0.030532228 -0.68322968 0.72956568 5.313817e-05
50.74807 7.5729342 58.431667 0.03083306 -0.70899808 0.70453662 6.4436725e-05
51.061901 19.470558 69.722374 0.031612061 -0.66527355 0.74593019 1.6735396e-05
51.147598 10.785875 61.62648 0.033065569 -0.6987766 0.71457589 6.4403168e-05
51.467804 9.0286131 59.872196 0.034645341 -0.70506418 0.70829684 6.6890665e-05
51.556053 16.922043 67.428024 0.033736207 -0.67668861 0.73549634 6.2199964e-05
51.889561 21.141325 71.174484 0.034901649 -0.65709525 0.75299937 3.9425322e-05
51.913643 12.320413 63.075947 0.039184675 -0.69145936 0.72135222 6.7575078e-05
52.414368 14.19842 64.841431 0.038916845 -0.68720198 0.72542685 7.3391035e-05
52.683361 18.271269 68.588799 0.037803113 -0.66972744 0.74164462 3.6453021e-05
52.780853 7.9738522 58.749645 0.039014492 -0.70743483 0.70570326 5.0599137e-05
52.809189 15.766836 66.277863 0.039524414 -0.68163079 0.73062813 6.0101327e-05
53.03191 22.535837 72.326424 0.037995134 -0.65349168 0.75597972 3.3962671e-05
53.121532 19.914804 70.041321 0.037478462 -0.66288358 0.74778622 4.3324046e-05
53.22496 11.249701 61.955536 0.044077169 -0.69520038 0.71746373 6.2134372e-05
53.237366 9.7648993 60.505238 0.042206865 -0.70156473 0.71135604 6.3003994e-05
53.673725 13.06752 63.687347 0.041525707 -0.69054222 0.72210062 7.0841787e-05
53.953159 17.111935 67.465462 0.041952286 -0.67542195 0.73623842 5.2346732e-05
54.277477 21.312115 71.209305 0.041077584 -0.6565243 0.75318712 4.8199938e-05
54.509537 14.698214 65.163063 0.045057617 -0.68476617 0.72736919 5.9878679e-05
54.779484 18.760733 68.923126 0.044342615 -0.66783988 0.74298328 6.7756198e-05
54.824867 8.4032679 59.053928 0.041703407 -0.7039057 0.70906943 5.2350595e-05
54.983727 11.995271 62.561836 0.041235551 -0.69428515 0.71851802 6.7049026e-05
55.082752 22.749237 72.391762 0.045061663 -0.65203512 0.75684857 3.1593758e-05
55.312481 10.239064 60.81522 0.043877423 -0.69999146 0.71280229 6.753474e-05
55.644321 16.026278 66.345444 0.046708055 -0.68097413 0.7308169 4.7799149e-05
55.800686 13.58867 64.035919 0.046203703 -0.68840885 0.72385156 8.8525434e-05
55.943111 20.156876 70.099068 0.051429216 -0.66212726 0.74762672 6.5391941e-05
56.057522 17.613138 67.797989 0.050722089 -0.67376649 0.73720264 6.6456261e-05
56.615124 9.1648598 59.685528 0.044225547 -0.70322198 0.70959365 4.2787589e-05
56.809929 21.893736 71.54776 0.052771598 -0.65692288 0.75210893 4.9373983e-05
56.89875 14.879096 65.18911 0.049946312 -0.68328679 0.72844058 7.6045872e-05
57.039841 12.428267 62.876671 0.043776959 -0.69108593 0.72144735 9.6827374e-05
57.209229 18.999887 68.956947 0.054746825 -0.66635519 0.74362254 6.3536754e-05
57.394108 10.687694 61.153706 0.043847285 -0.70040208 0.71240115 7.4405478e-05
57.697155 16.470472 66.642578 0.054637592 -0.6779272 0.73309588 9.5157469e-05
58.057068 20.698847 70.402649 0.056575455 -0.66079485 0.74843156 5.5940989e-05
58.175007 13.754828 64.049271 0.052525062 -0.68499506 0.72665334 0.00010492624
58.367039 8.4127617 58.821438 0.05224267 -0.70542353 0.70685828 6.2959225e-05
58.863792 22.124788 71.587952 0.058242939 -0.65539825 0.75303525 6.4501022e-05
58.893257 17.892859 67.833328 0.058001686 -0.67176193 0.73849404 7.1308481e-05
59.023556 15.397085 65.529022 0.057550579 -0.68053728 0.7304517 8.1301681e-05
59.139137 9.9240208 60.285007 0.055018436 -0.70544595 0.7066291 8.8382381e-05
59.200581 11.685397 62.042435 0.053357251 -0.69425327 0.71775043 0.00011559403
59.364204 19.57428 69.294136 0.059785727 -0.6627261 0.74647164 4.7327201e-05
60.15752 16.744694 66.684471 0.063074537 -0.67645222 0.73378128 8.3801162e-05
60.231083 13.986403 64.089668 0.064031921 -0.68294758 0.72765702 6.8700945e-05
60.39843 8.6050167 58.85865 0.063138917 -0.70585412 0.70554161 0.00010514629
60.522545 20.97418 70.449669 0.059654236 -0.66023904 0.74868524 7.2693561e-05
60.918716 10.672558 60.903763 0.067960538 -0.70127392 0.70964581 0.00013333999
61.006371 12.489684 62.652618 0.068026416 -0.68810022 0.72242689 0.00010955128
61.035374 18.447334 68.161888 0.065137282 -0.67018872 0.73932976 7.9830512e-05
61.386532 15.345775 65.261765 0.069612764 -0.6805346 0.7294029 4.1182135e-05
61.722115 22.428408 71.623756 0.06340678 -0.65342122 0.75433505 6.3253268e-05
62.159241 19.805126 69.295853 0.067484774 -0.6655333 0.74331182 0.0001109711
62.185375 9.3857822 59.454342 0.080314688 -0.70488411 0.70476192 4.7695507e-05
62.195389 16.966944 66.699455 0.070716232 -0.67668599 0.7328679 7.4662486e-05
62.494644 13.595657 63.528374 0.077855416 -0.68390238 0.72540939 7.2218114e-05
62.701351 11.463454 61.487411 0.082519479 -0.69662523 0.71267968 0.0001013045
62.981766 21.224855 70.500961 0.071099192 -0.65998155 0.7479108 0.00015944743
63.388908 18.377594 67.887962 0.07721296 -0.67198956 0.73652482 0.00012582251
63.416706 15.55614 65.272827 0.077721097 -0.68028414 0.72881687 6.2795865e-05
63.983841 10.188938 60.043846 0.091839328 -0.70242828 0.70580494 6.1393577e-05
64.210167 12.577336 62.378819 0.09165623 -0.69039881 0.71760452 0.00010393663
64.250084 20.075867 69.343147 0.079785585 -0.66591734 0.7417469 0.00013514985
64.474098 22.374882 71.355095 0.083011076 -0.65394789 0.75197214 0.00016599998
64.609604 16.967464 66.452179 0.088377006 -0.67579943 0.73176986 8.8405992e-05
64.629379 14.158729 63.824951 0.092499934 -0.68397266 0.72361988 0.00014736889
64.827316 8.848506 58.577633 0.099744551 -0.70502698 0.70213628 7.5660726e-05
65.452003 11.252506 60.918125 0.10555302 -0.69827902 0.70800483 0.00012156587
65.465492 18.661415 67.896408 0.094322756 -0.67151415 0.73496705 0.00014711542
65.75489 21.234905 70.20491 0.095170625 -0.6600703 0.74515086 0.00015531591
65.805283 15.551296 64.989769 0.10088579 -0.68173993 0.7246061 0.0001172686
66.284447 12.877512 62.367928 0.11477419 -0.68998814 0.71466309 0.00012140179
66.579491 22.691528 71.375351 0.10349011 -0.65224463 0.75091207 0.00019995282
66.629471 9.6651039 59.154716 0.12592974 -0.70313907 0.69981438 0.00024351281
66.665588 17.235884 66.441978 0.10951587 -0.67626631 0.72848737 0.00025126166
67.022667 19.861856 68.791451 0.1145271 -0.66716999 0.7360518 0.00025658426
67.155724 14.549147 63.834206 0.12227859 -0.68684214 0.71644753 0.00020715217
67.466492 11.272234 60.617405 0.13690123 -0.69786721 0.7030347 0.0002603782
67.910851 21.613043 70.238579 0.12931946 -0.65878421 0.74114168 0.00039649886
67.987663 16.198158 65.273506 0.13202211 -0.67892933 0.72224134 0.00024623636
68.229507 18.454964 67.32325 0.13440652 -0.66821057 0.73174095 0.00040332574
68.310204 12.929064 62.054062 0.14715944 -0.6901328 0.70861268 0.00017596368
68.72422 10.030765 59.111691 0.16920802 -0.70252919 0.69193828 0.00023006019
69.048363 20.153135 68.717155 0.15318696 -0.66251266 0.7332738 0.00039436092
69.211754 14.636229 63.525108 0.16030879 -0.68635696 0.70958912 0.00018478643
69.54895 17.426453 66.137779 0.16563372 -0.67363733 0.72061622 0.00044478054
69.632248 11.721152 60.589882 0.18428394 -0.69500363 0.69555014 0.00020271598
69.932838 21.681391 69.896324 0.17050092 -0.6574735 0.73399061 0.00035941176
70.213852 9.3140516 57.897556 0.3835161 -0.68728262 0.62465203 0.019054942
70.375954 18.892076 67.284225 0.18874338 -0.66051769 0.72755456 0.00044804771
70.376488 16.069275 64.639214 0.18552287 -0.67878205 0.71113718 0.00022336228
70.45874 13.392035 61.996094 0.19229528 -0.69005698 0.69864243 0.00015544378
70.976486 10.982445 59.283447 0.42757493 -0.67515802 0.60623437 0.017417407
71.262863 20.440763 68.441383 0.21418488 -0.65686184 0.72400153 0.00039827821
71.273201 14.892333 63.115017 0.39900187 -0.67013353 0.62734103 0.018924916
71.665199 17.726603 65.746185 0.40901634 -0.64932328 0.64140701 0.021825453
72.111809 21.989874 69.555222 0.23319028 -0.65606254 0.71918297 0.00028749357
72.453308 19.258072 66.839592 0.44628447 -0.63472205 0.63412297 0.016251439
74.69883 15.827285 59.721588 0.34048057 -0.6741209 0.65648192 0.036302891
75.133041 17.567394 61.092716 0.12130711 -0.68599963 0.72439378 0.00047296874
75.296326 19.413038 62.890865 0.31467086 -0.6886794 0.66220307 0.029370686
75.672981 20.988403 64.336678 0.36073586 -0.66715205 0.65196049 0.033463497
75.93927 14.577339 58.216167 0.029530479 -0.68995309 0.7237559 0.00031985683
76.221458 22.816885 65.780106 0.082294449 -0.66734648 0.74231267 0.00022720787
76.691666 16.084249 59.637054 0.017032485 -0.68244344 0.73101515 0.00040208804
76.983978 18.39147 61.718128 0.02750377 -0.67331266 0.73923761 0.00034980712
77.413109 19.978519 63.176315 0.024465004 -0.67171335 0.7406503 0.00041350152
77.869339 21.625809 64.624779 0.024742823 -0.66301054 0.74841475 0.00036901917
77.959259 14.878335 58.533947 -0.0062747537 -0.68376678 0.72967678 0.00029802026
78.195259 17.097504 60.599476 -0.0037463156 -0.67445481 0.73831511 0.00031167266
79.005074 18.704039 62.016701 -0.0060226335 -0.66735381 0.74472106 0.0002694242
79.350388 22.664543 65.525017 -0.00090866722 -0.66203082 0.74948162 0.0002673218
79.493034 20.349331 63.519932 -0.0062813535 -0.66445142 0.74730575 0.00024615315
79.684402 15.48756 59.151459 -0.01766791 -0.68001854 0.73298293 0.00022867967
80.848305 16.775518 60.370655 -0.020201774 -0.67262155 0.73971421 0.00012099301
80.871819 21.020216 64.146835 -0.020413218 -0.66121173 0.74992752 4.6073666e-05
81.406746 18.727222 62.136433 -0.021973656 -0.66575575 0.74584639 5.5705041e-05
81.444595 14.593676 58.378361 -0.022484243 -0.68145263 0.73151696 8.1778613e-05
82.033539 22.334867 65.345268 -0.025901943 -0.66231221 0.74878341 3.8650498e-05
82.57093 20.044933 63.328209 -0.022381056 -0.66393477 0.7474578 3.921819e-05
82.592049 15.863004 59.582409 -0.021864984 -0.67516619 0.73734176 8.1871178e-05
82.643631 17.462887 61.027763 -0.020129368 -0.67003769 0.74205452 6.0816659e-05
83.699738 14.2627 58.136974 -0.016325904 -0.68170607 0.731444 0.00010247032
83.750175 21.36454 64.549919 -0.026720325 -0.66395098 0.74729902 3.8262093e-05
83.807793 18.762362 62.234818 -0.019934488 -0.66827476 0.74364799 5.6100496e-05
84.586632 22.968182 66.0243 -0.02481297 -0.66214138 0.74896878 6.0872502e-05
84.653534 16.186335 59.929489 -0.015006874 -0.67483538 0.73781812 7.900576e-05
84.956764 20.049377 63.427288 -0.023594141 -0.66707283 0.74461979 5.0614635e-05
85.484955 17.773333 61.393581 -0.016932176 -0.67219609 0.74017966 5.6149012e-05
85.800652 14.619893 58.516956 -0.015656518 -0.68051511 0.73256826 7.7520272e-05
85.83271 21.695181 64.924568 -0.021745563 -0.66309744 0.7482174 5.1471048e-05
86.663879 19.0795 62.615597 -0.016760401 -0.67087388 0.74138242 7.5204654e-05
86.738884 16.5315 60.291199 -0.013212846 -0.67500031 0.73769957 7.4709562e-05
87.009727 23.026312 66.124435 -0.017483467 -0.66131073 0.7499103 4.6019602e-05
87.527214 20.707916 64.100357 -0.014535981 -0.66744423 0.7445181 8.3482577e-05
87.888123 14.973351 58.870285 -0.0082323365 -0.67875046 0.73432285 6.8723974e-05
87.934486 17.863337 61.508644 -0.011466368 -0.67457205 0.73812139 5.9065398e-05
88.721779 22.056828 65.307396 -0.011118777 -0.6616959 0.74969321 6.9803165e-05
88.755623 19.434536 62.971836 -0.011510586 -0.67140198 0.74100685 6.668915e-05
89.050705 16.26544 60.064198 -0.011570542 -0.67639649 0.73644745 7.1545488e-05
89.923744 20.733501 64.178986 -0.0048209764 -0.66431135 0.74744803 0.00010337678
90.025017 18.225357 61.851425 -0.0081734685 -0.67466909 0.73807585 5.803147e-05
90.276237 14.996228 58.942104 -0.0064350576 -0.68046594 0.73275256 0.00012086452
90.534386 22.762997 65.958031 -0.0027003689 -0.65940356 0.75178617 7.7984696e-05
91.165123 16.626865 60.447865 -0.0044214623 -0.67530972 0.73752695 0.00011096339
91.200859 19.523605 63.067505 -0.0034378227 -0.66851413 0.74369287 9.4368726e-05
91.744644 21.468193 64.808998 0.0041573225 -0.66247505 0.74907649 8.1669998e-05
91.938065 13.811377 57.814236 -2.1556889e-06 -0.68406641 0.72942221 8.7587177e-05
92.315636 17.911879 61.626324 -2.5445068e-05 -0.67309362 0.73955828 0.00012215419
92.397171 15.387809 59.300953 0.0020073857 -0.68045485 0.73278773 8.9280977e-05
92.572853 22.851089 66.016548 0.0080531128 -0.65944707 0.75170797 6.3216925e-05
93.205994 19.56971 63.112396 0.0062009254 -0.66545308 0.74641412 9.7199394e-05
93.532051 16.654093 60.467396 0.0036669038 -0.6772787 0.73572016 9.4683441e-05
93.723595 21.27017 64.589211 0.011946814 -0.66209477 0.74932504 3.6224974e-05
94.083656 14.226335 58.184628 0.0070874067 -0.68233109 0.73100936 8.1673512e-05
94.452507 18.319199 61.990734 0.0070277895 -0.67071038 0.74168605 0.00011728001
95.248314 22.335794 65.500633 0.011253251 -0.65961367 0.75152063 3.1512016e-05
95.265434 15.528128 59.38665 0.010838443 -0.68101966 0.73218501 8.9199493e-05
95.337517 19.992542 63.447868 0.011028984 -0.66228241 0.74917316 6.4947235e-05
95.730927 17.119797 60.870583 0.013950529 -0.67761731 0.7352826 0.00010555834
96.594353 18.747772 62.334 0.015949065 -0.66897798 0.74311137 0.00010854288
96.886261 21.074232 64.37764 0.012580811 -0.66211742 0.74929506 4.2630541e-05
96.889702 14.309238 58.223328 0.013445145 -0.68073201 0.73241097 8.1775885e-05
97.370895 15.916103 59.710064 0.017273465 -0.67807454 0.73479021 9.1468879e-05
97.814438 17.501978 61.162304 0.02130189 -0.67376977 0.7386356 7.6795695e-05
98.107597 22.450224 65.583138 0.013936126 -0.66136986 0.74993062 6.6426583e-05
98.114784 19.796867 63.244144 0.018893391 -0.66560745 0.74606532 8.0613667e-05
99.060402 14.74793 58.595322 0.014193256 -0.67936492 0.73366499 6.3832485e-05
99.323868 21.173635 64.420898 0.019618699 -0.66514939 0.74645263 5.8694332e-05
99.388092 18.596062 62.108219 0.020229792 -0.67072773 0.74142838 4.8945756e-05
99.536476 16.363777 60.063889 0.017293327 -0.67459714 0.73798478 5.3071875e-05
100.15466 22.549915 65.624237 0.020120788 -0.66267478 0.74863786 5.9508966e-05
100.59297 19.953688 63.292603 0.022284843 -0.66581815 0.74578226 6.1196253e-05
101.05592 17.408182 60.966042 0.018713813 -0.67199236 0.74032187 5.5820135e-05
101.19036 15.157616 58.926197 0.018538361 -0.67856491 0.73430926 9.1011694e-05
101.42822 21.333679 64.493317 0.02235502 -0.66469157 0.74678332 5.4753214e-05
102.25716 22.713722 65.686165 0.025545809 -0.66191769 0.7491411 4.1299209e-05
102.28297 18.775517 62.169952 0.018417329 -0.66909426 0.74295068 5.7921232e-05
102.71109 16.177805 59.849403 0.016080925 -0.67426413 0.73832279 9.1317335e-05
103.16953 20.42527 63.643658 0.019724671 -0.66337895 0.74802536 6.211346e-05
103.85042 14.628364 58.394051 0.025688326 -0.68356991 0.72943497 9.8783843e-05
103.92426 17.531757 61.03809 0.021717574 -0.6703555 0.74172246 7.6716118e-05
104.09753 22.144423 65.118073 0.026254011 -0.6607964 0.75010633 5.7977661e-05
104.4109 19.169809 62.505157 0.023936842 -0.66695148 0.74471724 7.8664547e-05
105.0582 15.964346 59.585629 0.030495465 -0.67794305 0.73448455 0.000101888
105.24748 20.538671 63.711235 0.028954424 -0.66172445 0.74918902 8.8431989e-05
105.90438 17.328997 60.798683 0.033530764 -0.67320693 0.73869526 0.00010169482
106.17303 22.270399 65.16449 0.034222648 -0.65903795 0.75133139 0.00010118052
106.47481 19.29422 62.536125 0.035713032 -0.66628397 0.74484569 6.6845176e-05
106.88686 15.180107 58.755638 0.041865204 -0.68102521 0.73106432 7.5255419e-05
107.32354 20.685266 63.73465 0.0428834 -0.66051644 0.74958676 6.8172725e-05
107.78635 16.831882 60.228291 0.046065614 -0.67540795 0.73600501 7.6730052e-05
108.18526 22.114803 64.91758 0.044711839 -0.66055804 0.74944276 6.5660068e-05
108.31824 18.510752 61.717018 0.047201533 -0.66922778 0.74155682 4.6690504e-05
108.96331 15.339964 58.76614 0.044791523 -0.68074948 0.7311461 6.3536922e-05
109.25137 20.22637 63.187359 0.048167165 -0.66321212 0.74688107 4.0120241e-05
109.89664 17.023495 60.254745 0.049595892 -0.67408121 0.73699063 4.8003614e-05
110.40163 18.683111 61.720673 0.048458971 -0.66917181 0.74152642 5.383739e-05
110.5004 21.655827 64.355255 0.048024788 -0.66218805 0.74779743 3.6477399e-05
111.11176 15.555069 58.822716 0.048464701 -0.67800784 0.73345625 3.4547607e-05
111.24243 20.066725 62.906166 0.04682561 -0.66441405 0.74589789 5.4482185e-05
112.00575 17.20829 60.280922 0.046363369 -0.67448521 0.73683178 4.6276324e-05
112.53555 18.876514 61.774132 0.044333864 -0.66828078 0.74258763 4.8632955e-05
112.53564 21.519392 64.114059 0.044485576 -0.66138905 0.74872261 2.5132225e-05
113.27308 16.024466 59.113167 0.052940685 -0.68079579 0.73055792 7.1769718e-05
113.77988 20.28266 62.947762 0.047229882 -0.66530514 0.7450763 3.3274457e-05
113.78442 22.931185 65.296593 0.047916971 -0.65986085 0.74985969 5.7332374e-05
114.13402 17.38916 60.333649 0.052401073 -0.67640954 0.7346611 6.4852058e-05
115.03344 19.061098 61.784325 0.052985549 -0.66896284 0.74140507 6.2640858e-05
115.0659 21.7237 64.151558 0.052089121 -0.66034245 0.74915618 5.1864896e-05
115.40768 16.222813 59.154575 0.060878169 -0.68259424 0.72825968 9.0828689e-05
116.32372 17.893339 60.625141 0.062575631 -0.67671967 0.73357725 7.6198332e-05
116.33955 20.509903 63.003361 0.055606496 -0.6645208 0.74519944 9.186635e-05
116.73457 15.130485 57.98114 0.071923025 -0.68728495 0.72281885 5.9417529e-05
117.60246 21.950811 64.168549 0.062810838 -0.65825212 0.75017834 6.1336548e-05
117.6365 19.346603 61.841805 0.063334592 -0.67106968 0.73868507 7.2068091e-05
117.65511 16.793556 59.459118 0.068643071 -0.68379688 0.72643745 5.0059567e-05
118.88173 20.756815 63.006233 0.070911393 -0.66075426 0.74724525 9.491096e-05
118.94079 18.206266 60.670399 0.068228684 -0.67862713 0.73130709 6.2003877e-05
119.00033 15.707426 58.29908 0.075404771 -0.6907357 0.71917295 5.8024812e-05
119.77886 22.213812 64.196472 0.073516391 -0.65718001 0.75014108 6.9573645e-05
120.19633 19.608015 61.852715 0.076076239 -0.66854173 0.73977476 0.00011113106
120.23996 17.076595 59.484024 0.075381517 -0.6857422 0.72393572 8.0838283e-05
121.08019 21.044985 63.037384 0.082702145 -0.66097766 0.74583817 0.00011150125
121.19849 22.735401 64.492294 0.081613109 -0.65770233 0.74884617 8.8940076e-05
121.25793 19.062689 61.260502 0.080959447 -0.67150086 0.73657072 0.00014202822
122.40826 16.075809 58.285149 0.090056926 -0.69154274 0.71670246 8.335321e-05
123.08343 22.013777 63.63242 0.097057194 -0.66046667 0.74456328 9.9610268e-05
123.13302 18.340956 60.394669 0.09675201 -0.67571068 0.73080915 0.00021552003
123.23918 20.002115 61.849888 0.098879829 -0.66449726 0.74073404 0.00010666114
124.29527 16.661005 58.603107 0.10995295 -0.69047618 0.71494997 0.00013601391
124.94316 21.292599 62.735249 0.10783386 -0.66437066 0.73958653 0.0001625982
125.03535 18.995859 60.671406 0.11605761 -0.67073834 0.73256993 0.00018970523
126.23141 17.573624 59.151863 0.12541702 -0.6816119 0.72089529 0.00020831956
126.59803 22.525434 63.609291 0.10816464 -0.66679245 0.73735321 0.00014813033
126.73393 20.288666 61.540947 0.1167834 -0.66587889 0.73686427 0.00016810145
127.88509 18.54648 59.776814 0.13260435 -0.68062657 0.72053063 0.00032384481
128.33064 21.46242 62.390804 0.12027948 -0.67301625 0.7297889 0.00027705907
128.79601 20.000669 60.965462 0.13282268 -0.67527616 0.72550714 0.00033244197
129.17686 17.482544 58.520401 0.15113248 -0.6883257 0.7094931 0.00031083685
130.0041 22.453707 63.029526 0.13083802 -0.67417067 0.72689551 0.0002667348
130.0452 18.889341 59.695766 0.15301022 -0.6830045 0.7142179 0.00037235848
130.73466 20.951752 61.481468 0.14602935 -0.67775321 0.72064453 0.00030566825
131.32571 17.352871 57.903652 0.17285098 -0.69275248 0.7001574 0.00029136782
132.01735 19.391014 59.703659 0.16784967 -0.68767071 0.70636135 0.00029860306
132.1199 22.510708 62.673489 0.15363704 -0.67879832 0.71807307 0.00016569672
132.87819 20.802656 60.870819 0.17038718 -0.68310428 0.71017158 0.00027130634
133.30203 18.140892 58.134796 0.19444399 -0.69722682 0.68997622 0.00018716312
134.20773 19.575266 59.323681 0.19382769 -0.69178909 0.69560683 0.00016705738
134.81268 21.536156 61.104362 0.18964192 -0.68484473 0.70359349 0.00013097907
135.70946 18.755636 58.079121 0.21483722 -0.69996917 0.68109852 0.00031595145
136.14342 22.837873 61.98325 0.2036631 -0.6749326 0.7092244 0.00016182938
136.15315 20.327833 59.55117 0.20975754 -0.69147873 0.69131041 0.00033214933
137.5108 21.642027 60.438381 0.22701697 -0.68488157 0.69239587 0.00028068281
137.72383 19.602249 58.295254 0.25288814 -0.69999164 0.66790503 0.00065619714
139.01622 20.880112 59.146851 0.27868921 -0.6912061 0.66677165 0.0010448125
139.14969 22.730612 60.945511 0.26855806 -0.67790651 0.68434 0.00086173776
140.74805 22.101625 59.638073 0.32627988 -0.67800593 0.6586957 0.00076088612
13.851111 23.021381 73.16552 -0.019152403 -0.65449637 0.7558226 3.1367137e-05
24.866522 22.950377 73.288345 -0.0079440363 -0.65562534 0.75504482 6.3834384e-05
147.72516 24.241472 57.00861 0.51658654 -0.6490975 0.559587 0.00043839132
-1.4704983 23.363289 72.803421 -0.064684868 -0.65183973 0.75563484 3.7072539e-05
60.023972 23.547285 72.73201 0.058465853 -0.65323764 0.75489455 4.9280708e-05
63.234371 23.594992 72.499794 0.070580363 -0.65095258 0.75583017 6.242239e-05
65.306976 23.848053 72.530052 0.086976208 -0.650051 0.75490493 0.00014649337
67.402496 24.171486 72.525055 0.11422031 -0.64790201 0.75311601 0.0001547987
69.140457 23.153181 71.367561 0.14868064 -0.65301079 0.74261868 0.00043354637
69.983505 24.662523 72.517899 0.15376721 -0.65286624 0.74174154 0.00031786889
71.215569 23.303656 71.024841 0.19768201 -0.65851355 0.72705394 0.00038109435
72.083214 24.837301 72.184151 0.20127861 -0.65816337 0.72647244 0.00026090367
73.358856 23.729607 70.595108 0.44513169 -0.6487087 0.61981237 0.013712561
76.474785 24.999067 67.886475 0.3535502 -0.64915776 0.67737031 0.026701102
76.853539 26.65909 69.287392 0.33702129 -0.64567941 0.68719947 0.029646192
76.989067 28.341759 70.789665 0.34021121 -0.65403551 0.67669088 0.026504625
77.113647 30.25729 72.571007 0.38338661 -0.6330781 0.67334473 0.025607478
77.727112 23.928324 66.655334 0.047858786 -0.66426599 0.74685711 0.00047004054
78.587669 25.600061 68.123154 0.031519372 -0.66313607 0.74844283 0.0004961252
78.733261 27.361309 69.614716 0.050557274 -0.66039854 0.75026548 0.00062859635
78.874466 29.346189 71.343735 0.068271488 -0.65736121 0.75204313 0.0010517092
79.344696 31.03949 72.803322 0.060535278 -0.65287203 0.75620049 0.00098054693
80.447556 23.68194 66.456978 -0.016009681 -0.66298479 0.74846542 0.00013419511
81.266289 28.024879 70.232414 -0.013746949 -0.64896578 0.76070487 0.00038984354
81.472549 30.087042 72.00264 -0.012512888 -0.64858735 0.76117009 0.00077335245
81.685188 25.309061 67.943298 -0.031539388 -0.65364975 0.75614136 6.7872897e-05
82.876839 26.663059 69.168686 -0.032998163 -0.65046996 0.75881553 5.746758e-05
82.903282 23.979105 66.84745 -0.028027829 -0.66061062 0.7502085 5.5176184e-05
83.059341 28.697247 70.911003 -0.030031573 -0.64874095 0.76041687 3.1855532e-05
84.073364 25.301071 68.057945 -0.029639188 -0.655752 0.75439614 5.3669733e-05
84.557388 29.731163 71.850105 -0.022061057 -0.64343297 0.76518899 4.9355564e-05
84.661644 27.337963 69.820969 -0.025747349 -0.64884919 0.76048201 5.2806208e-05
85.754959 24.288849 67.225471 -0.019913305 -0.65948856 0.75145298 5.4751985e-05
85.860481 25.981062 68.704842 -0.019666875 -0.65289801 0.75719059 7.2261289e-05
86.156044 28.3717 70.745171 -0.017621236 -0.64516622 0.76383996 5.3307067e-05
86.652603 30.097996 72.200294 -0.013953498 -0.63953048 0.76864022 5.5769542e-05
87.349998 27.009333 69.619614 -0.013164833 -0.64999861 0.75982308 7.6193413e-05
87.590729 25.02051 67.905128 -0.012797035 -0.657058 0.75373352 7.390332e-05
88.202812 28.447792 70.842468 -0.010021923 -0.64406711 0.76490408 5.546477e-05
88.825737 23.74143 66.77755 -0.0078432802 -0.6589306 0.75216323 5.6054439e-05
89.372696 27.062258 69.693474 -0.0065658265 -0.64984006 0.76004565 7.4506963e-05
89.408752 29.853872 72.025581 -0.0044903667 -0.63846654 0.76963687 5.5818218e-05
89.684891 25.387753 68.247116 -0.0045700315 -0.65637696 0.75442058 6.2932289e-05
90.596054 28.482531 70.888069 -0.00034085431 -0.64312983 0.76575738 4.5899436e-05
91.224533 26.464573 69.193909 0.00093407859 -0.65156507 0.75859416 7.8730685e-05
91.246696 30.615652 72.666656 0.00075686967 -0.63316262 0.77401853 7.7529221e-05
91.405724 24.431061 67.419846 0.0031596499 -0.65871483 0.75238752 7.0986505e-05
92.427238 27.860493 70.370506 0.0059888917 -0.6459592 0.76334888 5.8242767e-05
92.961281 25.533798 68.359779 0.0099172909 -0.65664673 0.75413531 4.5424244e-05
92.980278 29.642368 71.861198 0.0064489348 -0.63870037 0.76942879 7.1885479e-05
94.082001 23.909081 66.913742 0.012259187 -0.65893477 0.752101 3.8501435e-05
94.181358 26.944195 69.547134 0.013174018 -0.65049547 0.75939626 1.9997373e-05
94.521919 30.764383 72.758286 0.011601413 -0.63384116 0.77337736 4.3585933e-05
94.698967 28.671919 71.02359 0.012387793 -0.64517045 0.7639389 3.1749889e-05
95.333672 25.335541 68.133682 0.012506496 -0.65547734 0.75511128 3.3709162e-05
96.245865 27.059183 69.610023 0.016811872 -0.6500203 0.75973165 4.909149e-05
96.253876 29.795477 71.938446 0.01877369 -0.63945556 0.76859945 2.8446777e-05
96.446693 23.697241 66.688004 0.0083240615 -0.65809619 0.75288832 2.7905879e-05
97.371048 25.417559 68.181412 0.013335693 -0.65215999 0.75796443 7.1146809e-05
97.485764 28.489544 70.808502 0.02134183 -0.64520574 0.76371223 5.9468395e-05
98.329132 29.932745 71.987953 0.023985332 -0.63929474 0.76859003 6.8004185e-05
98.589729 24.106426 67.049538 0.01432569 -0.65578955 0.75480932 0.00010484937
98.619537 26.862165 69.372124 0.01764049 -0.64588624 0.76323038 5.9861559e-05
99.460548 28.289331 70.557907 0.022903562 -0.64416528 0.76454359 5.1205501e-05
99.835876 25.537586 68.243935 0.01791092 -0.64997393 0.75974864 8.3191087e-05
100.43672 30.103251 72.054497 0.024967475 -0.64051902 0.76753652 5.9650036e-05
100.73582 27.031403 69.456619 0.021873018 -0.6430676 0.76549745 5.0283939e-05
101.05502 24.23514 67.101013 0.022498745 -0.65598279 0.75444108 0.00010079201
101.63873 28.765249 70.899529 0.024407724 -0.64092261 0.76721901 5.6801629e-05
101.90252 25.656109 68.292267 0.024129622 -0.64855194 0.76078892 0.00011099411
102.76149 27.108431 69.472328 0.025842879 -0.64170021 0.76652312 9.0041096e-05
103.15269 24.386833 67.165222 0.028378978 -0.65573841 0.75445759 0.00014179636
103.21239 29.902292 71.815857 0.030565426 -0.63791347 0.76950413 8.8265013e-05
103.99854 25.809393 68.348427 0.030164553 -0.64723659 0.76169735 0.00013283633
104.3746 28.289619 70.404091 0.032919388 -0.64151382 0.76640534 8.7937384e-05
104.95493 23.54488 66.335136 0.033538822 -0.65826273 0.75204092 9.8528195e-05
105.21904 29.731077 71.574417 0.037237421 -0.63899958 0.76830524 6.8251029e-05
105.57939 26.965816 69.243858 0.037728824 -0.64400303 0.76409239 0.00011724445
105.85614 25.251171 67.787193 0.038573507 -0.64979494 0.7591325 9.8085584e-05
106.10003 31.225182 72.755096 0.040332995 -0.63329697 0.77285779 5.3443346e-05
106.45067 28.440104 70.419319 0.042926382 -0.64209324 0.76542407 6.1769744e-05
107.02807 23.681604 66.363411 0.037984826 -0.6555388 0.75420582 8.6531698e-05
107.35252 29.928926 71.635506 0.043074898 -0.63890511 0.76807886 9.667089e-05
107.514 26.482121 68.727409 0.044143081 -0.644701 0.76316106 9.3914299e-05
108.19617 31.388628 72.784889 0.041163135 -0.63289785 0.77314085 4.8535931e-05
108.36964 27.946762 69.881729 0.045885261 -0.64070392 0.76641583 7.1508875e-05
108.58409 24.796833 67.248947 0.044463824 -0.64872903 0.75971955 0.00011200125
109.19867 29.363682 71.044708 0.045064468 -0.64155978 0.76574987 6.0422644e-05
109.48399 26.296043 68.433228 0.046776287 -0.64416903 0.76345342 0.00010239547
109.80238 23.277914 65.846581 0.045808386 -0.6569795 0.75251788 7.7135519e-05
110.11604 30.882599 72.252754 0.04331401 -0.6380204 0.76880109 5.4625772e-05
110.40438 27.810884 69.639 0.045677625 -0.64158219 0.76569426 6.229346e-05
110.71851 25.006035 67.291687 0.044219691 -0.64767796 0.76063484 0.00011697412
111.24389 29.235163 70.808037 0.045659579 -0.64186102 0.76546055 6.0477061e-05
111.62095 26.498077 68.484642 0.042598978 -0.64389008 0.76393473 0.00010833747
111.87926 23.433712 65.84938 0.045756102 -0.65838683 0.7512877 4.5097881e-05
112.49738 27.968168 69.660912 0.047444697 -0.64027756 0.76668161 8.286869e-05
112.73675 24.847322 67.043358 0.046080165 -0.64979327 0.75871402 0.00011953591
112.87251 30.438772 71.723076 0.049765624 -0.64193934 0.76513928 6.6121938e-05
113.60971 26.299723 68.225319 0.049115155 -0.64228404 0.76489639 8.405267e-05
114.09265 29.143173 70.544167 0.051399659 -0.64075553 0.76602393 7.6266893e-05
114.48157 31.627169 72.619415 0.052035138 -0.63833588 0.76799786 6.6806177e-05
114.65789 24.353336 66.502449 0.052968096 -0.65381688 0.754798 0.00010180845
115.26161 27.532503 69.134636 0.054503139 -0.64020663 0.76626867 7.5460208e-05
115.48841 25.771597 67.647255 0.057585955 -0.64607269 0.76110053 6.7682471e-05
115.76022 30.384233 71.47628 0.057179648 -0.64103192 0.76538187 4.7767684e-05
115.90788 23.125998 65.323029 0.055713605 -0.65711039 0.75173277 5.8305432e-05
116.64336 31.864384 72.658623 0.059187286 -0.64031726 0.76582801 6.7538007e-05
116.79642 24.579775 66.516991 0.062009491 -0.65124941 0.75632679 5.0369825e-05
116.93079 28.795534 70.037956 0.062208112 -0.6397723 0.76604348 5.3542899e-05
117.16518 27.028837 68.564301 0.063561417 -0.6418469 0.76419485 6.2482606e-05
117.79211 30.255798 71.198784 0.063261114 -0.64111048 0.76483798 3.9827282e-05
118.44263 25.797874 67.419243 0.066759266 -0.64520222 0.76109058 5.9186848e-05
118.52757 23.436687 65.378326 0.06858103 -0.65475565 0.75272316 6.8952424e-05
118.68402 31.746979 72.38018 0.064090677 -0.64119494 0.76469702 3.0186828e-05
118.7989 28.260523 69.437889 0.068563357 -0.63971752 0.76554638 5.2997701e-05
119.73794 29.791321 70.644592 0.067250766 -0.64183301 0.76389027 4.3203665e-05
120.07637 27.017693 68.299393 0.073338337 -0.64009798 0.76478887 6.7958012e-05
120.1264 24.614716 66.24295 0.073875107 -0.65264177 0.75405753 5.1652398e-05
120.64349 31.291941 71.833023 0.066521749 -0.64229465 0.76356578 3.7853119e-05
121.00246 28.546675 69.480995 0.071730755 -0.643152 0.76237202 5.6206583e-05
121.23267 25.424866 66.853783 0.077225745 -0.64856434 0.75723571 8.3511717e-05
121.39507 27.196077 68.311287 0.076416112 -0.64133406 0.76344866 9.7224023e-05
122.50619 24.217794 65.68 0.086323485 -0.65577477 0.75000691 9.9780293e-05
122.8815 30.500957 70.955673 0.071045339 -0.64395958 0.76175493 3.406826e-05
123.09055 28.488901 69.208031 0.075732157 -0.64518434 0.76026475 7.4898388e-05
123.1805 32.654175 72.739479 0.071121201 -0.63731742 0.76731271 2.4622719e-05
123.22418 26.390682 67.442703 0.081973851 -0.6451475 0.75966668 0.00011132032
124.38816 23.515757 64.792015 0.094894379 -0.65919459 0.74596334 6.0140595e-05
124.48314 25.172495 66.254425 0.090023652 -0.65489084 0.75034338 0.00013828906
124.72299 29.685928 70.104424 0.075056605 -0.64646614 0.75924182 8.1201222e-05
124.8796 31.439871 71.585503 0.075425781 -0.64192224 0.76305163 6.806368e-05
124.91309 27.667238 68.338753 0.082211249 -0.6496492 0.75578177 9.7416261e-05
126.11802 26.140636 66.890572 0.091164246 -0.65386558 0.75110006 0.00010885276
126.30769 24.151417 65.112137 0.098594837 -0.66241288 0.74262297 0.00015980966
126.55408 32.719379 72.465698 0.091490291 -0.63501608 0.76706284 5.9704642e-05
126.56905 28.889046 69.23954 0.08693216 -0.64968085 0.75522906 0.00011150899
126.69604 30.612846 70.701881 0.088976897 -0.64239562 0.76119369 0.00011124575
127.7083 27.315844 67.738274 0.097492553 -0.65389729 0.75027609 0.00013649212
127.92538 25.346079 65.976074 0.10466497 -0.66249925 0.74171734 0.00015600442
128.26891 23.766403 64.496178 0.1102723 -0.66634041 0.73745173 0.00012022913
128.46332 31.988199 71.617363 0.10258302 -0.63636279 0.76453948 6.319661e-05
128.56339 29.859999 69.819412 0.10289846 -0.64442289 0.75771517 8.6353153e-05
129.34499 28.286993 68.369408 0.11132416 -0.65047747 0.75132406 0.00018352419
129.64656 26.640156 66.8843 0.11512905 -0.65735507 0.7447381 0.00018542273
129.92604 24.998798 65.372871 0.12056648 -0.66323346 0.73864579 0.00020174558
130.17462 33.337494 72.476173 0.11086117 -0.63274491 0.76638412 5.2022915e-05
130.19777 30.862978 70.421005 0.11654877 -0.6404531 0.75910378 5.3382708e-05
131.26553 28.969482 68.640381 0.12779395 -0.65017569 0.74896437 0.00012728083
131.32518 23.972475 64.187683 0.14228545 -0.66824293 0.73020977 0.00015106425
131.55368 27.320494 67.13868 0.13781992 -0.65473169 0.74319416 0.00010034309
131.89903 25.721457 65.669418 0.14362402 -0.66234845 0.73530042 0.00011950787
131.91273 32.203388 71.287682 0.12460821 -0.63782716 0.76003337 9.8781151e-05
132.18904 30.496189 69.80983 0.13126457 -0.64469081 0.75309002 0.00014455186
133.23807 33.52877 72.181938 0.1304404 -0.63780117 0.75907516 0.00014748366
133.24037 24.661608 64.440346 0.16242453 -0.66659319 0.72751391 0.00023464944
133.31525 28.6922 68.024414 0.14624867 -0.65449417 0.74179113 0.00011195429
133.66878 27.119228 66.536247 0.15441841 -0.6604439 0.73482645 0.00013718862
133.83971 31.537565 70.389893 0.14069881 -0.64275432 0.75304151 9.9595418e-05
134.11172 23.276775 62.943802 0.17626026 -0.67242604 0.71887451 0.00021265385
134.6097 29.984131 68.896263 0.15398343 -0.65118891 0.74313164 0.00016076065
134.90831 25.727999 65.003998 0.17688705 -0.66726589 0.7235139 0.00019052466
135.13261 32.84589 71.252411 0.15201247 -0.6390177 0.75402647 0.00012168561
135.3922 28.468639 67.390373 0.16750978 -0.65842009 0.73377442 0.00015720251
135.74521 24.323788 63.481495 0.19303828 -0.66966265 0.71715981 0.00018160671
135.96973 31.341425 69.7911 0.1681975 -0.64651453 0.74413186 0.00021555065
136.14149 34.486897 72.4356 0.15810749 -0.63943303 0.75241494 0.00019582563
136.24315 27.046356 65.887726 0.18381117 -0.66616029 0.72280324 0.00021072665
137.02774 29.504812 67.94677 0.18614689 -0.653799 0.73343265 0.00029381126
137.07919 25.653893 64.349159 0.19921273 -0.67238128 0.71290272 0.00021568153
137.35443 33.005646 70.919655 0.17781208 -0.64110458 0.7465713 0.00022382115
137.83296 23.9559 62.517929 0.2198599 -0.67359537 0.70565099 0.00014536057
138.0325 31.136139 69.117355 0.20113176 -0.64864862 0.73404139 0.00046756188
138.19339 27.816566 66.109604 0.21258487 -0.66124141 0.71942556 0.0003720675
138.73875 34.423454 71.795288 0.20152903 -0.64020711 0.74129927 0.00040116729
139.12289 26.496393 64.603973 0.24457182 -0.66975796 0.70114946 0.00092573033
139.25279 29.479719 67.302895 0.23853414 -0.6513657 0.72030783 0.00098467572
139.40364 32.536674 69.984489 0.22432108 -0.64496237 0.73055655 0.00056804734
139.53886 25.071941 63.067726 0.26493439 -0.6720041 0.69161218 0.00089797395
140.10391 35.861248 72.634232 0.22774473 -0.63635421 0.73702908 0.00048188877
140.27118 31.155159 68.449493 0.25604945 -0.64657187 0.71864194 0.00079673482
140.4297 27.850227 65.430649 0.28068659 -0.65719503 0.69951898 0.0011940197
140.76402 33.975578 70.812172 0.25102904 -0.6393618 0.72686577 0.00052634435
140.93642 23.990808 61.458397 0.31638047 -0.66946572 0.67232138 0.0011136554
141.17239 26.222212 63.534996 0.31317869 -0.66308904 0.67993408 0.00094317994
141.52551 29.638857 66.559875 0.30526981 -0.64903462 0.69686729 0.00080723898
141.60294 32.579056 69.259117 0.28418255 -0.64573443 0.70871371 0.0006212939
142.21471 35.524845 71.649429 0.2909784 -0.62842607 0.72152197 0.0009008458
142.4158 28.372974 64.973221 0.33593011 -0.64997005 0.68168622 0.00059337536
142.52779 23.218435 59.797688 0.37972119 -0.66823632 0.63975483 0.00063179177
142.59595 31.378643 67.705643 0.31941253 -0.64484769 0.69438905 0.00072649028
142.68956 34.074776 70.154678 0.30695686 -0.63510853 0.70885736 0.00069996651
