93.677604 188.450958 15.600778
88.533727 194.573229 -1.058965
70.137659 195.895984 -2.143810
63.239206 190.300147 14.589647
63.575405 193.579479 4.996846
51.627477 191.582817 12.339136
52.030499 196.453636 -1.926674
49.857998 194.468492 4.243830
48.731509 192.592889 9.817403
44.758043 194.470759 4.873272
32.749453 194.441514 6.601083
29.461490 197.068280 -0.643636
13.931498 193.950216 10.505600
4.490752 195.282093 7.907381
-12.733893 197.803693 2.731674
-24.287624 200.518689 -3.658529
-25.071252 199.162440 0.327840
-35.548925 197.804039 5.759034
-36.821137 200.721170 -2.494664
-54.631062 201.309407 -1.926724
-76.456523 202.662132 -2.773827
-67.278200 204.336147 -7.900126
-78.333890 204.186138 -7.276465
-92.051830 202.835241 -0.242843
-113.333629 205.959425 -7.678312
-114.297321 204.231381 -2.266560
-141.920064 207.128455 -7.676529
100.577646 181.785667 33.494020
90.889016 186.936068 20.301125
87.072960 182.871304 32.479953
83.851503 185.572701 25.140842
69.671473 186.876308 23.374168
54.850902 188.631352 20.478683
50.066289 189.970578 17.272893
47.096502 188.264763 22.524433
38.264176 186.068230 29.947907
39.358125 191.587531 14.062221
23.174338 192.057123 14.769641
21.036855 192.822798 12.919773
6.390217 191.971475 17.083204
-21.279171 194.346058 14.069448
-23.901131 190.227604 26.099738
-27.763054 190.502763 25.700988
-26.715984 194.758165 13.536252
-30.136272 196.199512 9.759643
-34.572942 196.725767 8.712512
-61.056486 193.463600 21.700702
-64.486751 198.879177 6.519000
-71.455289 193.268630 23.562492
-73.862534 195.833473 16.603329
-81.196721 196.592833 15.352549
-87.440346 196.280636 17.073309
-107.478010 200.887017 6.732671
-112.245577 201.712679 5.265013
-117.571192 199.486060 12.282665
-120.250287 197.205554 18.688278
-120.482559 199.684015 11.935342
-122.810810 200.995649 7.998523
-134.796008 199.895150 12.681588
-136.353455 204.271666 0.195615
101.005539 164.461975 42.151458
98.880533 180.246835 38.180344
97.022045 174.923985 45.565935
95.615556 166.176853 42.314028
94.274167 180.591617 37.773973
92.871055 177.880601 45.459464
91.857678 175.798921 45.495462
91.613911 171.171833 43.776408
91.964557 178.955769 43.001618
86.609923 167.796128 42.214400
86.295003 179.378567 42.515338
86.441376 180.114154 40.426661
85.095996 170.888313 43.181374
84.380707 178.511163 44.738119
83.872801 168.467179 42.275396
82.443770 171.962382 43.358995
83.130759 180.737934 39.089485
77.922980 171.076399 42.690744
77.956597 181.685068 37.036774
76.104595 177.595267 44.925043
74.680733 176.036070 44.265547
74.425807 180.648936 40.472135
72.820710 165.969448 40.496965
72.771491 181.545185 38.277410
68.783689 179.252302 44.330485
69.096302 181.979867 37.340901
67.980133 181.150525 39.972557
66.423392 169.943538 41.439141
66.114025 173.387634 42.660096
65.585713 167.866834 40.617851
65.261539 176.016565 43.552185
63.190061 180.755205 41.663400
62.692642 177.505975 43.873736
61.733665 168.620687 40.587155
61.454247 178.454146 44.101356
59.843962 179.972775 43.733811
58.517882 168.922914 40.519564
56.153351 168.253135 40.074400
55.818535 177.697929 43.453506
53.216664 181.130155 41.883446
51.070748 177.704788 43.134783
46.552151 168.204722 39.326214
47.601391 184.035354 34.568902
46.083020 170.835184 40.235551
45.803872 180.826568 43.061684
45.680251 182.458674 39.155298
44.247358 178.316119 42.868835
43.749852 168.870647 39.341199
41.633164 178.137064 42.652021
40.133393 183.069845 38.164312
40.566696 184.756803 33.415729
38.833337 178.789093 42.622883
38.251950 182.471416 40.178484
36.798119 175.113888 41.155472
35.641497 177.813245 42.098060
35.001752 170.953077 39.518240
34.102714 168.866587 38.711712
34.233885 182.785251 39.873276
33.654952 175.840441 41.236876
33.836159 183.750775 37.141758
31.187847 184.147779 36.401292
29.812791 181.825734 42.229289
30.434191 185.174209 33.702174
28.306242 178.072026 41.749012
27.132112 170.784589 38.924675
27.072906 173.404499 39.895754
27.138227 184.462569 36.080398
24.939282 176.631261 40.942149
24.323689 171.474736 38.998306
25.589655 185.497433 33.153921
24.270332 174.094883 39.970980
23.094555 178.099971 41.369823
21.516379 172.169672 39.084398
20.609263 183.809125 38.719649
20.168718 184.772207 35.943896
19.448284 185.580223 33.700268
17.800895 183.619454 39.488376
15.982498 173.954938 39.323924
15.696492 181.289009 41.856810
15.883489 183.978828 38.866135
14.038543 182.811089 41.425512
14.911365 186.136162 32.828563
13.488554 178.541248 40.882322
14.032871 184.860708 36.512749
13.052824 174.226718 39.247105
12.179466 185.753770 34.169415
11.700407 185.215908 35.742672
9.557349 180.627431 41.374559
8.923253 185.074608 36.670205
8.369768 186.253320 33.358382
7.255313 179.109148 40.671600
6.698347 186.015895 34.351082
4.664662 180.636876 41.035132
4.901009 185.180788 36.847689
3.242352 172.917054 38.099924
4.232808 186.549919 32.952427
1.762000 175.692835 39.058509
1.462686 183.540075 40.844497
1.510509 184.647188 38.632668
-0.104295 173.199297 37.937744
-4.544402 181.480457 40.726453
-4.473834 183.743578 40.738774
-6.255899 176.858301 38.959108
-6.599064 180.843593 40.464482
-7.449850 183.993699 40.569209
-8.847508 178.408893 39.363430
-10.201042 178.975359 39.496732
-14.956353 178.487790 38.890894
-14.412323 186.806435 34.597054
-30.490261 186.060361 38.535800
-16.300806 179.067748 39.061875
-18.616103 189.229661 28.180003
-19.838143 186.082434 37.432633
-19.919583 186.813091 35.140266
-20.326667 187.628418 32.976616
-22.970951 182.316546 39.844223
-21.912386 188.503461 30.607618
-28.275487 178.847959 38.206352
-28.272891 187.472229 34.512855
-30.126042 186.841711 36.523180
-30.363681 188.586494 31.583305
-32.021611 179.199513 38.113999
-32.091610 187.766796 34.205996
-44.466216 187.539029 36.408936
-33.053167 188.787323 31.343107
-33.830342 186.934721 36.770943
-35.876729 183.024236 39.148817
-37.244945 187.759903 34.827086
-38.814614 187.307016 36.343568
-38.971100 188.857617 31.955535
-40.162798 188.369693 33.499362
-42.244470 183.643628 39.037130
-43.022266 181.122706 38.185341
-45.885203 181.849531 38.320497
-51.617118 186.775935 38.650863
-55.074272 187.054866 38.420367
-59.362160 184.853259 38.532198
-65.350416 189.430654 33.359833
-52.794928 189.698494 31.284493
-70.524741 190.057126 32.491576
-73.632896 189.144860 35.573875
-75.869436 188.207787 37.728362
-78.939055 188.497515 37.643317
-81.265856 186.840338 38.823414
-67.500273 191.793829 27.266698
-83.403085 191.428236 30.312391
-84.638942 189.984464 34.685222
-92.775345 191.959255 30.116936
-96.245258 192.624363 28.737337
-100.513895 192.740425 28.896982
-93.499593 192.993588 27.266260
-106.370824 191.427173 33.419969
-115.169444 191.485295 34.295344
-123.330398 192.675587 31.914286
-123.143500 193.460651 29.734433
-123.917741 191.926171 34.061537
-125.849353 193.450293 30.013123
-128.422609 190.605330 37.844481
-130.213614 192.558033 32.875235
-131.160855 194.832689 26.735711
-134.044064 196.042547 23.658726
-119.558131 195.740626 22.675346
-127.718866 196.031571 23.287237
-139.118285 190.722579 33.952041
-140.068605 193.915657 30.444617
-141.561779 189.954002 34.400688
-143.374213 192.497863 33.264669
-142.441658 195.866757 25.143759
-147.833499 196.259422 24.631378
-136.643315 197.827727 18.848260
89.287639 159.853771 39.538299
88.759073 157.299425 38.556958
88.427216 150.372649 36.040261
101.370461 136.620469 32.157619
99.010589 130.082272 29.572483
98.483529 136.816045 31.950424
94.707379 136.208124 31.426862
95.635261 124.027927 27.156631
83.498279 156.433904 37.847712
81.891917 153.969435 36.869003
52.951028 159.387589 36.598841
52.788458 152.371345 34.072000
59.908256 137.952509 29.354666
57.261577 129.553002 26.161903
56.279871 131.890343 26.897676
51.992960 156.859301 35.668201
50.207524 158.749308 36.187110
47.677409 149.687668 32.740737
42.899155 153.177995 33.634088
40.173187 154.288760 33.837596
39.206951 150.362456 32.339387
35.675173 149.767369 31.893601
50.262235 143.215999 30.571036
47.639208 132.085909 26.322939
46.581943 140.360871 29.281995
43.930152 132.390452 26.210165
43.393178 136.517962 27.627442
43.300311 139.260884 28.643336
39.920156 144.034631 30.108536
35.071981 139.481334 32.175945
19.316262 166.692843 36.971603
33.593433 149.022265 31.431128
32.562144 150.909826 32.071431
31.565001 146.659943 30.807249
31.439162 159.881719 35.233551
30.584213 150.601365 31.766184
28.675865 159.278236 34.927494
28.391735 155.281048 33.390251
27.687878 150.644286 32.151202
27.015051 152.767844 32.490302
24.313941 156.987684 33.794614
24.175759 162.293693 35.666337
22.435330 150.610562 40.802519
22.137058 152.557431 37.780859
21.950264 154.655290 35.152150
20.796886 150.942930 43.248587
21.764724 160.289418 34.769963
21.559282 163.831595 36.020961
19.815837 156.322026 35.957552
17.664113 169.010195 37.653635
17.232790 165.980573 36.534875
10.770060 157.173260 47.987139
7.620937 162.403709 39.765032
5.436616 160.068763 48.218583
5.276907 165.110435 37.142880
4.034410 161.870166 45.556961
0.903966 165.305128 40.628244
16.189948 162.093417 35.037933
-0.407503 169.326765 36.645911
-2.540271 164.001007 47.472929
-2.723188 167.496840 39.367510
-5.776305 165.565150 46.724057
-6.872486 167.015940 44.181388
-9.282011 165.187373 50.886116
-13.378922 169.570931 43.135953
-14.860408 171.078492 40.590050
-16.591575 170.604435 42.991799
-16.577610 172.474930 38.697613
-26.226241 169.675967 51.275721
-26.407608 173.262549 42.329289
-29.176443 174.556520 40.909126
-32.083085 175.220344 40.870115
-43.466626 172.877850 53.215487
-44.026999 172.001279 55.823209
-45.562585 173.215016 53.559646
-47.466529 175.839035 47.739115
-48.864362 175.237936 49.881450
-50.362135 176.517292 47.748000
-35.349857 175.119945 42.841757
-36.726513 174.556937 45.110550
-44.264371 176.726187 43.718521
-47.288890 179.584316 39.097797
-49.044212 177.888902 43.472203
-53.745418 177.438269 47.237860
-55.040103 178.854442 44.451629
-57.697439 175.513081 54.427808
-60.415485 175.735627 55.323291
-59.969579 178.803513 47.151022
-60.592397 180.095781 44.198632
-62.654115 175.710683 56.707256
-63.267869 181.496048 41.998298
-64.829113 179.918570 46.751616
-66.137986 181.923806 42.369475
-71.081581 182.434215 43.448447
-73.475412 180.577653 49.309783
-74.783472 183.188180 43.419864
-78.911145 183.366600 44.877882
-81.818363 183.772056 45.176480
-85.476207 185.445882 42.354086
-91.475493 184.656671 47.021934
-94.768179 180.940785 58.013760
-95.187188 182.130209 54.883861
-101.094707 186.175890 46.364516
-105.439322 185.590249 48.855638
-106.954619 183.019181 56.163154
-112.484159 187.420788 45.503716
-121.336682 189.932757 39.115823
-123.302510 185.672242 51.523926
-124.510861 189.567026 40.449265
-128.146191 188.855468 43.940369
-136.889624 186.596331 34.086012
-140.126223 187.802093 34.315141
-142.234716 185.708637 33.389038
-144.762605 185.526079 33.261550
-142.878398 179.882671 31.389294
-145.005709 177.758786 30.453388
-146.301516 179.713936 31.069151
-146.987891 182.086530 31.915772
-152.305590 168.146728 27.519464
102.437327 117.161294 25.192683
101.194899 114.494918 24.122063
99.968238 117.784330 25.207992
96.084750 93.373549 16.112382
93.485954 91.624490 15.254026
90.901898 105.484313 20.085830
71.270686 116.121666 22.380171
71.124566 110.090814 20.208735
82.346047 92.797667 14.792956
80.409379 101.959312 17.996687
79.554963 97.758308 16.411731
64.961989 111.430925 20.181771
61.977135 116.801024 21.966169
60.056182 125.222138 24.800829
59.352490 116.968040 21.788473
59.280113 113.237302 20.421290
57.914097 115.657128 21.172233
56.529202 112.922109 20.018429
56.002632 127.349189 25.250419
53.106487 122.958571 23.443537
51.831305 111.995334 26.335030
67.847630 94.675332 14.343631
65.703987 97.202560 15.089558
65.704167 104.322809 17.656056
65.094366 94.365556 14.006037
63.372304 105.890572 18.033317
61.901954 107.880760 18.651808
32.754133 130.201990 47.214134
41.033242 128.992607 31.730175
37.434256 125.997436 42.739498
37.927796 135.365463 31.308759
50.397562 110.200117 28.376984
47.554810 116.842312 29.441651
29.679371 133.595085 49.154598
28.300323 141.645678 40.979373
20.419953 143.516761 54.488461
19.686392 141.781189 57.616154
18.448180 150.401934 48.194310
32.527481 139.980550 35.799769
14.405029 150.644693 54.675327
13.547130 147.770694 59.724321
14.503622 153.850635 49.217336
12.639012 151.927268 55.578493
10.210462 148.538220 63.728903
11.938964 155.997961 49.198409
10.396035 152.705217 57.993402
8.620185 151.548292 62.341234
4.284331 154.597869 63.275286
2.318325 154.623136 65.750274
1.230304 156.283660 62.973820
1.157566 158.193993 58.124920
-5.953773 157.760973 66.931281
-6.615563 157.176753 69.127117
-7.928763 156.735920 71.516605
-8.607783 159.309857 65.413334
-9.626167 158.031217 69.613830
-3.393970 157.120487 65.918454
-12.507589 162.422468 60.754568
-23.534409 161.273451 71.617194
-28.568601 167.020882 59.763472
-29.055604 165.966948 62.840032
-30.166673 163.544192 70.006554
-30.364856 164.704929 67.102613
-31.189652 162.944742 72.090039
-32.934962 164.741042 68.509428
-34.153176 166.094333 65.828896
-38.268873 163.927241 73.835086
-52.939016 167.922223 71.736723
-53.299639 172.516644 59.820034
-59.733128 171.242762 66.823710
-59.569466 172.155253 64.272841
-64.125743 170.401585 71.427911
-85.737771 173.712053 73.584211
-87.566380 175.621329 69.158972
-92.139144 176.597077 68.538433
-96.242442 176.738963 69.856621
-98.569458 177.202908 69.472152
-102.017547 177.199738 70.579284
-104.061784 177.562188 70.001107
-97.486446 180.863933 59.139222
-129.739655 180.454836 66.915860
99.753855 80.688286 11.792198
93.334199 82.951229 12.002539
101.914878 61.072494 5.040564
101.801535 66.916085 6.971150
95.841291 55.309706 2.300232
90.281022 56.610806 2.340694
89.977852 61.137979 3.971232
86.633713 53.770653 1.003414
97.805645 51.214660 1.029573
79.297024 77.546035 9.081645
74.780429 72.392934 6.837992
73.637066 74.409222 7.440133
70.362449 80.995067 9.609961
69.258713 77.599203 8.226700
79.890928 55.150035 1.004481
75.234483 55.362391 0.658970
75.252704 57.392536 1.417087
80.945314 52.562472 0.142403
73.612644 53.296215 -0.439322
50.537076 98.587341 35.647718
61.680377 86.445992 19.348999
59.532234 92.382298 21.380938
59.148208 87.267576 21.639279
57.513166 96.930076 23.097897
67.654647 78.889962 8.975116
67.064307 85.549438 10.952517
64.863441 89.618824 12.370205
62.612055 77.802606 19.330997
61.015501 78.208448 20.841404
60.659073 81.571284 20.087882
32.160136 128.458889 49.436135
39.631703 110.032695 47.075886
33.738639 114.289340 54.853040
44.399756 103.127822 43.014106
43.306134 107.326977 43.371241
17.475903 139.497173 62.780207
27.569907 118.235627 60.967211
26.627106 120.792670 61.324419
27.141777 127.489220 58.102507
26.596525 123.851400 60.338321
27.316821 131.755319 53.558103
25.222278 129.425282 59.561214
25.888280 133.595426 53.970390
23.406319 128.399876 62.235025
21.296211 123.841877 66.464572
20.369480 130.880708 64.761687
19.674836 128.991613 66.502332
20.251339 134.368752 62.998451
18.757901 133.235631 65.473514
17.660256 129.614921 68.464527
-1.421733 152.287541 73.230909
-2.217532 148.993302 77.016715
-2.857217 151.435230 75.463364
-3.574044 153.506874 73.895119
11.972473 136.993755 71.210066
11.149253 145.971821 65.115830
4.180471 150.509621 69.150861
2.795869 149.732763 71.599421
-0.103128 148.017163 76.020070
-6.824080 152.942982 77.360314
-8.252954 147.802997 82.877287
-10.431170 146.689367 85.163544
-10.357799 149.053553 83.626403
-11.280732 155.182906 78.163677
-15.830619 157.914483 75.460201
-18.377283 151.601355 87.139843
-17.155552 157.438405 77.730956
-23.137990 152.740568 88.857019
-23.301463 156.456811 84.144934
-23.376835 158.149030 79.930617
-27.489519 155.779081 87.987390
-28.921341 154.881975 90.052404
-28.350326 158.807314 81.349845
-30.477821 154.427671 91.334460
-30.005031 156.867625 87.328694
-36.904619 158.400576 87.683092
-36.778126 159.477248 84.799826
-40.652849 158.978388 88.250841
-48.326496 159.280592 91.863313
-41.552903 161.484630 82.123886
-41.482030 163.314434 77.256837
-46.005091 164.753018 75.981627
-57.145225 162.493050 88.501086
-71.089409 163.646578 92.795243
-62.717102 167.785971 77.714730
-94.228373 169.273348 89.202090
-95.071958 168.436374 91.635379
-97.094098 167.941080 93.689000
-100.656120 168.950975 92.552026
-112.726706 174.862894 79.633210
-122.525909 170.453214 93.062339
-126.582053 174.748277 81.788641
100.727249 23.876659 -8.559547
88.490357 17.483081 -11.942399
69.390025 49.079520 6.884841
80.752182 49.544489 -0.934548
79.144292 37.272476 -5.560094
79.182986 45.532630 -2.525307
75.893495 50.782361 -0.915913
75.142770 37.270116 -6.204376
83.549926 29.284721 -8.066959
81.078466 22.555135 -10.706031
79.600728 25.248776 -9.861146
58.359877 77.003420 26.687091
56.923040 77.681074 28.804556
51.877328 77.452803 37.129026
50.680720 83.446883 37.660895
49.767281 78.547290 39.129647
35.416119 99.862028 55.336742
33.758646 103.748332 56.686538
32.590100 101.742862 58.134072
32.892738 111.905190 56.382119
30.287655 105.218871 60.221343
45.786180 83.864875 45.604241
43.061660 78.638680 47.715916
41.646500 88.095928 49.738032
41.024305 90.404283 50.321415
40.291614 96.615391 50.760758
36.001508 90.587526 55.045780
45.670752 78.923612 45.321189
28.146047 115.128488 61.070814
24.231902 114.990299 65.326911
19.751502 115.668549 69.539526
15.829697 120.753572 72.473679
15.738899 125.071369 71.788702
13.687401 118.700019 74.396932
29.912696 114.903745 59.111506
28.321987 108.868879 61.914164
28.407950 112.116275 61.344498
26.718229 95.943339 63.370498
26.524637 104.795645 63.827270
-4.979251 140.255239 84.446399
7.243446 121.640861 78.980113
7.033521 124.354215 79.018188
5.720857 133.411683 78.549534
4.674523 127.463096 80.437727
3.518171 126.036778 81.315751
2.181263 127.625422 82.076427
-1.817657 119.344577 84.197528
-2.262658 133.896317 84.277286
-3.259040 131.345344 85.197757
-2.932834 138.919655 83.498331
9.779402 110.460668 76.825013
7.476084 113.725612 78.510406
-7.456324 143.970422 84.693698
-8.672140 140.486454 86.902120
-9.086511 142.889731 86.261250
-10.385553 139.309492 88.215817
-14.933338 144.287954 89.249274
-17.089075 141.903344 91.163042
-17.496578 144.304765 90.533802
-19.696456 130.121388 93.092414
-19.833187 132.847233 93.234520
-21.758921 131.425329 93.936226
-22.294065 139.422056 93.980507
-22.269655 141.872502 93.556731
-7.057473 131.476347 87.375117
-11.970622 125.995119 89.521805
-39.411055 149.752849 97.952765
-24.130216 149.493740 91.656359
-25.889849 134.009517 95.576686
-26.253410 139.315298 95.558621
-26.736164 148.880302 93.217161
-27.248858 143.762054 95.201919
-26.917743 152.816482 90.934850
-28.444045 147.697696 94.500675
-30.900748 141.145081 97.123000
-30.620230 148.839784 94.973806
-31.735440 153.305064 92.871550
-41.190556 148.492674 99.028696
-45.129399 148.957460 100.186363
-46.872222 146.194506 101.260801
-46.491678 152.418030 99.226978
-47.428943 154.089265 98.549322
-48.562311 144.057972 102.062984
-49.817270 149.166759 101.467342
-50.744038 145.189216 102.503374
-50.089855 153.980008 99.505518
-53.649099 146.378570 102.931522
-53.565598 152.115464 101.452822
-56.168336 157.541191 98.650339
-58.113016 151.219185 102.804123
-41.520078 145.864534 99.833087
-45.122128 142.329790 101.365470
-61.259307 150.735053 103.655317
-61.348834 153.042660 102.891254
-63.109989 161.210811 95.090282
-66.965701 157.256016 101.912670
-66.729867 159.718966 99.779499
-68.719065 158.629042 101.230812
-70.359692 150.106811 105.577234
-72.933475 161.698325 98.654820
-75.777693 155.094415 104.697224
-76.002650 157.573331 103.408044
-77.555072 163.866164 95.563552
-79.886494 159.777983 102.455309
-80.781900 154.163937 105.879575
-81.768326 151.963622 106.686403
-84.505554 159.427150 103.309295
-86.019773 154.841317 106.377387
-85.306553 165.145058 96.016275
-86.337628 160.460558 102.685213
-90.480615 154.282007 106.782271
-91.254417 157.867917 105.310386
-90.117767 166.135893 95.499983
-92.976272 166.473180 95.675343
-96.321127 157.492637 106.019649
-98.133511 159.139179 105.069123
-97.093342 166.530513 96.730849
-100.705813 158.778445 105.452553
-99.590613 167.689086 95.292673
-102.413508 166.910437 97.377115
-104.723959 156.807057 107.079201
-108.871304 164.439841 100.950075
-122.561365 160.379669 105.479058
-124.513698 158.988701 106.262540
-124.777589 164.142561 102.200709
-126.676075 160.133013 105.816422
-125.625050 170.064394 94.205614
-127.292297 165.630043 100.651131
94.951271 9.207316 -14.449271
91.047312 -1.439923 -18.599336
85.821888 13.849388 -13.495930
85.330177 4.717741 -16.863125
99.219968 -12.161077 -21.873202
95.827898 -13.131988 -22.462949
90.420632 -18.515327 -24.851620
89.019311 -21.819759 -26.149299
82.843889 12.897076 -14.082062
76.918073 2.862623 -18.204844
76.696750 -0.411238 -19.425556
80.702605 -13.740837 -23.880680
78.908563 -5.926717 -21.174969
77.957260 -15.323743 -24.674786
76.768738 -10.812762 -23.097089
52.970063 51.430708 29.987011
51.994786 48.789040 31.233001
48.261976 47.552723 37.424145
62.430830 44.585719 16.542672
64.051351 29.957770 11.175470
63.405725 26.560938 10.274393
62.471630 12.074255 5.417602
31.376584 76.663685 56.920236
30.381589 69.817482 55.918244
30.200856 74.010142 57.063167
46.141452 69.690315 43.814181
46.258559 74.399118 44.370422
44.497476 71.477636 45.602099
43.293123 58.424306 44.522447
40.767162 72.529024 48.909651
36.396157 64.185688 51.092390
34.812848 62.429111 52.251798
45.667593 49.599915 40.331582
24.958958 89.594651 63.848878
21.240842 88.973820 66.127388
20.476415 98.704994 68.298605
20.301919 101.284231 68.771059
18.721560 89.545139 67.768052
18.466221 93.171330 68.730980
18.223780 102.176744 70.359692
15.998145 82.915139 67.554014
13.566767 95.028387 71.887296
26.356771 79.753118 60.915132
25.470296 83.687276 62.339675
19.872848 75.909953 63.553413
16.564715 80.868681 66.694931
7.958439 107.796558 77.455838
-16.248763 126.009759 91.322652
-18.920761 125.925650 92.343708
-22.564408 121.561115 92.994419
-24.402372 111.291207 91.205131
-8.835603 109.774213 85.591697
-12.167259 102.826907 85.091517
-29.127217 129.702741 96.355284
-33.056901 127.352460 97.163519
-40.792013 136.625954 100.373237
-28.722489 122.662147 95.158154
-57.867635 143.886217 104.144816
-59.175529 142.319888 104.613869
-45.592799 130.791131 100.815060
-47.695724 132.029702 101.495385
-49.660922 136.800004 102.487646
-56.817678 129.149727 102.700738
-58.626410 135.628455 104.108847
-64.943312 143.218507 105.533569
-65.113335 140.653518 105.675207
-67.198609 140.926352 105.889102
-73.026922 148.760954 106.274840
-75.747774 137.898082 106.814029
-60.617970 137.539319 104.623269
-60.843339 139.535190 104.819800
-61.547064 120.043808 101.189710
-67.125811 138.211387 105.749789
-70.505141 134.724384 105.795913
-76.975473 140.062604 107.186270
-80.007959 149.361385 107.123068
-85.465323 142.004036 108.228137
-86.348434 149.833841 107.805442
-88.027941 140.401426 108.399694
-88.689768 150.825778 107.881693
-90.989405 146.428019 108.598939
-78.151908 135.471641 106.882527
-92.325684 134.084813 107.947948
-95.602585 152.977377 107.962308
-97.777899 153.189366 108.008703
-103.354635 150.340939 109.034477
-106.462601 146.253998 109.480807
-108.811390 144.224594 109.597339
-108.517467 155.864893 107.622845
-109.808250 141.666067 109.655013
-110.245156 151.334195 109.061998
-95.187399 131.919485 107.712583
-97.857734 131.469985 107.927128
-111.819933 148.986184 109.456414
-115.270996 143.739048 109.838672
-117.104546 137.183959 109.386538
-117.395577 147.637654 109.617826
-119.703299 147.172353 109.842056
-122.610822 157.967860 106.942697
-124.501390 143.064732 109.995450
-126.765682 157.686688 107.196410
-128.325712 141.490582 110.039330
-128.481099 146.845770 109.988041
-128.900847 143.806872 109.961028
-130.551827 139.542303 109.559663
91.066176 -45.198002 -34.424999
80.070614 -23.791064 -27.563496
78.606515 -31.703403 -30.573709
74.632418 -28.697855 -29.728777
72.592502 -26.372844 -29.054826
77.186243 -53.044482 -38.379638
67.682084 -41.192946 -34.887236
48.154309 23.554305 29.834947
48.673446 6.958149 22.807043
48.562452 16.891318 26.928147
47.930002 18.903039 28.237630
47.448077 11.139987 25.648973
46.347262 14.134389 27.919629
62.383535 6.282574 2.644091
55.679566 6.797287 15.216765
66.431651 -45.384542 -36.728051
30.438120 53.111635 53.414280
29.562466 59.057718 55.371045
43.356100 36.942479 38.817792
36.895849 48.471506 47.553143
30.081411 41.185830 50.187772
43.196671 32.544617 37.576901
41.324166 28.059864 37.611427
40.215757 29.256705 38.958799
45.247494 15.429936 29.421612
20.548210 69.572248 61.369328
19.061849 63.859924 62.690721
11.945887 63.812920 66.443005
10.100739 63.109867 67.200900
10.564412 75.414396 67.700595
26.872184 62.510245 57.838760
13.844163 58.107225 64.241735
8.225198 80.018492 70.240308
2.948973 77.955517 71.752334
-4.792633 86.987509 77.712745
-5.421331 77.624260 74.706991
-6.460787 80.346321 76.036418
6.165662 68.597800 68.714236
4.546880 62.721770 69.670661
5.008880 70.351923 68.826170
2.470747 64.289265 70.883421
2.256670 56.971590 69.224729
-0.749226 67.326114 72.450379
-1.326880 62.715727 72.042930
-3.421822 71.146585 72.441014
-6.137024 61.384307 73.543793
9.282458 55.997680 65.876588
-16.608397 90.733099 82.814418
-17.330566 93.264030 83.872838
-25.002731 98.399829 87.647671
-13.280068 87.510923 80.748012
-14.016853 78.089642 77.616215
-14.392563 73.886116 76.348073
-16.022389 81.062767 79.307728
-16.352503 77.236414 77.969561
-18.571882 70.880120 78.591948
-19.031063 76.452644 78.415484
-19.331754 73.480240 78.042982
-24.027758 72.000397 80.041436
-23.776523 77.164322 79.960759
-9.883375 64.781510 75.730387
-13.742350 66.266142 77.326245
-29.037140 100.252854 89.245316
-29.866090 102.297945 90.131796
-35.079295 96.087085 89.390819
-42.975226 85.909057 87.546527
-25.737420 74.902553 79.963627
-29.045754 74.046579 80.990707
-29.176305 72.710078 81.520103
-30.801953 76.006794 81.441481
-33.931106 76.257793 82.294989
-35.505657 78.440244 83.227918
-40.123749 83.397406 86.105854
-47.192594 103.209574 94.152444
-56.855831 106.790352 96.826436
-60.068448 110.489178 98.359057
-43.779897 94.161103 90.550455
-45.245487 85.446148 87.881249
-48.602638 94.687891 91.699618
-48.886341 82.825287 87.680624
-51.479983 88.617931 90.161926
-54.887565 94.023298 92.604473
-55.228577 84.545491 89.409786
-57.225681 83.948160 89.519691
-65.547018 114.979386 100.396117
-68.741573 111.503768 99.890463
-70.395062 109.560907 99.622774
-74.186026 113.740841 101.257026
-75.176312 102.489921 97.967933
-65.975024 87.440341 92.054189
-73.838466 93.923531 95.162217
-78.393726 120.122645 103.427868
-85.279540 120.231925 104.137882
-88.431023 124.169460 105.422857
-83.091969 98.518891 97.476820
-85.669175 109.933790 101.185945
-92.713921 108.956297 101.270098
-96.500926 117.627573 104.116411
-99.723521 129.115067 107.481423
-102.694789 127.151470 106.868678
-107.794668 115.619932 103.750351
-103.515697 108.301137 101.435310
-109.974566 111.682024 102.524011
-114.051308 133.589927 108.800799
-120.306207 135.423748 109.154357
-122.748621 135.146018 108.942049
-114.714678 130.594873 108.027002
-115.774763 125.401174 106.644609
-117.219930 129.958665 107.875822
-117.260539 132.108895 108.348632
-120.984861 120.499362 105.253893
-123.039365 115.100889 103.431124
-127.080498 121.889258 105.513216
-112.728128 101.073425 98.932089
-131.292077 116.145058 103.433812
91.988531 -66.386057 -42.103492
96.512377 -79.536816 -46.347872
94.307675 -85.093511 -48.703937
86.589115 -78.267094 -46.793175
68.373586 -57.534471 -40.646739
79.754038 -61.991038 -41.473725
67.185485 -61.629830 -42.171357
81.306664 -84.252096 -49.349083
80.529980 -93.512681 -52.827403
69.159105 -85.289004 -50.645117
67.495858 -80.375893 -49.006696
66.403005 -90.854173 -52.944312
53.839210 -8.002396 10.223815
51.913074 -6.313739 11.485320
47.031776 -3.149042 19.987116
47.058393 -34.189335 2.519755
57.355077 -79.574327 -49.453830
56.501519 -90.689596 -53.595112
53.345948 -84.549857 -51.731951
44.045052 10.914665 28.848251
41.860493 6.832157 29.002331
33.593627 -3.124340 31.244436
44.646631 -3.095414 22.216694
42.167758 -3.541555 24.312658
41.434202 -15.467476 19.330379
21.167266 24.983440 50.046161
11.427443 20.628831 53.349902
11.175275 38.143549 59.445561
24.965808 8.801862 41.773319
21.170780 12.259320 45.325255
17.990920 20.073369 49.959752
20.481007 4.385582 42.616818
1.647121 54.299764 68.701381
-6.743393 58.752784 73.077342
6.222536 42.436998 63.054615
5.594088 36.653955 61.437909
8.830927 26.279869 56.486148
7.537396 22.131835 55.672269
-11.291894 54.349729 73.412847
-16.388903 66.951099 78.309718
-18.547600 66.640380 78.989122
-11.618355 47.165663 71.380714
-18.056927 38.497238 70.599397
-21.249135 41.400813 72.545067
-32.561571 70.589475 83.232078
-35.961132 69.326173 84.244223
-36.444201 67.236104 84.038107
-38.107185 69.323048 84.733881
-39.241718 73.616438 84.289556
-43.637301 62.826374 84.736001
-43.901951 67.453031 85.815696
-47.654642 74.108320 86.470121
-49.222514 76.088907 86.178170
-51.219301 74.020863 87.390197
-53.617494 72.242121 88.322282
-57.010304 78.618170 87.694955
-57.722322 67.294599 88.368183
-60.354135 61.701384 87.424965
-60.982608 67.404390 88.930751
-67.444079 80.435172 89.819212
-68.001458 86.819464 92.109658
-70.810479 87.258992 92.580369
-73.225433 86.657843 92.620629
-74.766956 85.398052 92.271043
-62.572471 61.630839 87.783705
-63.597335 75.316345 89.804047
-64.620611 67.543718 89.500303
-67.581810 60.992458 88.256887
-68.315543 67.619732 89.939398
-73.451182 66.537657 90.307909
-80.036378 77.641697 92.086761
-86.708529 75.480136 93.275775
-87.114766 79.940382 92.435529
-88.116368 88.128265 94.187798
-88.861786 83.797572 92.635644
-91.669448 83.237964 92.721269
-92.941086 85.235118 93.309473
-80.863281 64.282381 90.486267
-81.266997 74.791096 92.675561
-85.214044 71.316610 92.478555
-85.420350 66.740991 91.475707
-87.870779 72.560291 92.958667
-93.502394 72.764277 93.383668
-93.683717 69.586278 92.723555
-101.300791 76.247481 94.359187
-101.440754 81.583277 93.659528
-101.447844 83.799607 93.236230
-102.624991 86.189447 93.809297
-105.779639 79.949795 94.630210
-108.630819 85.737460 93.645412
-109.639708 76.648520 94.795196
-110.872966 73.995170 94.220298
-110.375476 90.689037 95.240764
-111.560752 92.744550 95.971876
-112.782326 79.444831 95.058463
-106.380436 72.208967 93.734306
-113.083185 71.906263 93.834484
-121.787582 95.915601 96.793552
-126.437293 99.489371 97.648375
-127.522149 95.683259 96.267013
-114.060426 94.414810 96.543488
-114.354701 91.526505 95.528281
-115.381722 77.090016 94.870491
-115.620400 87.173898 93.884389
-117.389864 73.172416 94.125495
-118.930101 84.953292 93.826515
-122.937717 92.020021 95.244680
-124.050129 81.476352 95.080746
-124.194377 86.087423 93.708705
-125.120893 75.056553 94.357582
-125.254026 91.187213 94.847943
-126.441362 81.270904 95.144662
-127.891737 92.745831 95.156145
-129.231751 81.085208 95.192882
-130.730346 96.787087 96.388306
-132.356132 101.749338 98.081974
-131.674737 82.757787 94.929285
87.786200 -96.078974 -53.201583
82.972471 -129.629451 -65.730415
78.571312 -107.201404 -57.898876
75.301211 -130.922722 -66.804752
74.026438 -123.163180 -64.107871
73.752907 -117.327614 -61.942133
67.976625 -127.619727 -66.126311
59.293024 -105.745643 -58.818920
55.148697 -100.018245 -57.044748
49.455005 -106.871080 -59.905296
65.694275 -113.524592 -61.284528
61.567589 -128.907965 -67.091545
58.915230 -121.769623 -64.714849
58.529732 -119.149676 -63.745729
54.229908 -125.588735 -66.395146
53.320012 -121.053819 -64.827831
38.684149 -21.961713 18.523227
27.162030 -29.237088 23.364830
43.529870 -37.940677 4.328594
30.611286 -50.966379 7.375046
46.758366 -113.892184 -62.680504
40.050716 -116.443409 -64.142441
21.580142 -9.719785 36.110803
17.487626 -8.873739 38.734689
24.851442 -28.406540 25.355396
20.592248 -29.709627 27.323878
23.333711 -46.110475 14.951223
3.533895 14.109206 54.495954
-1.560631 7.831502 54.168687
-2.710023 1.640260 52.203293
-7.027869 9.127310 56.672419
3.782546 -10.420323 44.612717
2.703449 -16.375883 42.529120
-3.237844 -4.911886 49.748397
-5.285480 -5.850449 50.182852
-14.098153 27.153869 65.519403
-20.951472 10.172591 61.646483
-24.199490 24.334660 67.680538
-26.787055 25.551943 68.839478
-20.756034 5.250190 59.780281
-37.910352 45.099583 78.226646
-33.008447 40.429909 75.507234
-33.346996 28.276669 71.534048
-36.948042 41.906224 77.014067
-33.171725 9.771673 64.980062
-50.082485 43.271013 80.297732
-50.134833 18.124133 71.977935
-65.796773 56.882004 86.893262
-65.531266 41.143899 82.229186
-66.172168 49.175657 84.738335
-72.968884 45.281214 84.386171
-78.293430 44.024651 84.510607
-64.600661 30.307345 78.608820
-69.051195 35.647603 80.941382
-70.882181 33.365858 80.402319
-81.233049 60.534923 89.534292
-90.387944 65.438914 91.462429
-85.085098 35.801113 82.467910
-89.300314 49.339097 86.883365
-89.459067 51.307259 87.437749
-107.513793 63.843171 91.686978
-107.582830 69.570214 93.214786
-108.855552 66.852059 92.550716
-109.807679 68.789992 92.996123
-112.865887 64.287453 91.846555
-99.342324 51.879623 88.082293
-116.579305 59.218127 90.384365
-118.694507 70.449571 93.440274
-119.507524 58.890227 90.182038
-120.828379 60.898501 90.675233
-121.966446 70.190942 93.300675
-128.351141 71.485967 93.366819
-129.332614 56.386659 88.952762
-130.293307 70.606106 92.999770
-115.389123 50.130655 87.549031
-118.219751 48.853001 87.172397
-132.368400 71.641489 93.132901
-135.419426 71.624755 93.494718
-131.537244 60.434717 90.021047
-134.285909 69.771077 92.452572
-136.438785 52.057622 87.831875
-131.609414 46.881044 85.830794
-133.412352 44.333260 84.819343
54.802280 -129.555872 -67.859867
16.162174 -42.185956 23.267169
10.177182 -56.215709 16.817467
18.240582 -69.281649 5.099999
17.033903 -65.252400 8.566360
31.276353 -128.843797 -69.395967
-2.569042 -18.441006 43.777780
5.597688 -28.457466 35.718540
-3.809759 -33.682152 37.369322
6.959739 -45.203806 26.528159
-8.387746 -49.877766 31.068325
0.321212 -54.625375 21.667164
-10.312296 -15.595723 47.944038
-13.674399 -18.572908 47.803662
-21.336076 -16.638512 51.155095
-22.826845 -13.845730 52.790171
-23.134468 -26.163910 47.581786
-14.235447 -27.910257 43.923972
-15.767537 -35.256548 41.207272
-18.283731 -36.237955 41.601432
-26.216315 -30.621208 46.561162
-40.661605 6.780082 65.750067
-38.472404 -5.461220 60.472581
-41.685463 -7.510858 60.391598
-43.803094 -3.027818 62.661646
-35.365680 -17.231444 54.860560
-39.515068 -23.856498 53.013424
-50.025110 13.282518 70.208845
-54.541033 9.363343 69.639516
-56.107466 1.435285 66.945782
-56.636989 8.681052 69.739659
-60.058641 16.347765 73.082515
-60.189000 18.487390 73.838298
-48.039163 -15.167581 58.711192
-52.751995 -12.968016 60.523017
-57.664378 -16.574058 59.945704
-58.562157 -4.249858 65.152747
-74.118847 7.894090 71.894257
-75.794892 3.759857 70.565787
-65.701663 -7.464535 64.970004
-80.957049 28.062640 79.621230
-85.408782 28.650041 80.193242
-90.849661 21.434637 78.132310
-91.517422 30.339624 81.040816
-81.630986 16.050136 75.624404
-82.079522 13.417198 74.726375
-85.910658 0.228778 70.264813
-101.079001 24.020976 79.372910
-101.179504 33.329511 82.313389
-102.675649 8.606879 74.094991
-105.646297 1.114364 71.425568
-123.337316 32.213229 81.698691
-127.281017 20.211083 77.511214
-128.961161 18.027528 76.545392
-126.922104 10.975198 74.315786
-130.680337 9.942180 73.671101
-132.034257 13.186759 74.618303
-5.767121 -79.508224 12.523850
0.525823 -87.927122 4.852577
-7.812669 -93.585231 5.882998
-23.881918 -38.755327 42.177796
-27.373207 -43.233006 41.208220
-26.944986 -55.296504 34.935477
-10.304087 -57.507064 24.381018
-21.609657 -67.310499 24.131731
-22.402217 -74.857957 20.974041
-25.113858 -61.225378 27.686848
-26.594307 -71.480602 23.811056
-17.695261 -85.324920 14.446500
-19.083097 -78.650876 18.174657
-32.183096 -46.793828 40.934069
-40.180357 -45.104324 43.801030
-36.304528 -63.633425 29.681953
-39.502222 -68.312985 28.665850
-41.679595 -64.643659 30.644035
-27.814875 -77.611602 21.438394
-46.515901 -25.647674 53.874919
-53.927260 -22.110513 56.922003
-57.553149 -30.334817 54.060663
-58.807802 -31.900059 53.593720
-58.805811 -51.291623 44.905093
-52.792851 -66.204671 32.546614
-66.412391 -17.251722 61.009733
-63.251267 -28.552012 55.796101
-75.537460 -32.461004 55.745507
-79.529911 -27.562465 58.303858
-79.931651 -26.318668 58.844173
-75.318585 -38.020357 53.320596
-81.252707 -7.245041 66.905456
-84.619019 -7.903863 66.974034
-90.915807 -6.522285 68.000309
-91.715113 -4.140027 68.989239
-91.827941 -9.271775 66.992386
-98.434226 -9.743270 67.096879
-100.037942 -14.321000 65.220614
-104.938725 -10.907263 66.795850
-104.197296 -35.648978 56.389343
-104.542943 -29.524663 58.957724
-104.886808 -24.643913 61.024732
-106.508963 -26.916116 60.115937
-111.608104 -29.576416 59.044309
-122.020887 2.582877 71.647887
-127.256535 2.116850 71.108768
-115.832207 -5.604052 68.790624
-117.946533 -13.660708 65.511169
-125.241773 -11.700035 65.913057
-120.136141 -32.190859 57.798019
-138.462646 -2.790668 68.487615
-133.238784 -18.096843 62.774476
-137.616116 -11.264277 64.797603
-138.557244 -19.403218 61.648960
-138.624475 -8.646788 66.103565
-137.096033 -24.696786 59.761824
-139.648009 -28.130075 58.400548
-16.853248 -97.064425 8.079331
-42.469409 -77.763542 25.377535
-39.502381 -96.051779 16.361531
-40.161579 -82.382029 22.736441
-43.409791 -92.790731 18.924680
-36.759930 -111.870193 7.143786
-41.023552 -110.040732 9.669122
-50.716737 -78.782774 26.917638
-49.617700 -86.300389 23.400175
-50.676231 -90.049158 21.956233
-57.097943 -98.466496 19.685208
-45.676404 -112.172108 9.862622
-63.772531 -59.512855 41.696376
-69.093436 -61.103281 41.732357
-73.130263 -56.226660 44.783655
-75.031285 -54.599649 45.768710
-70.457299 -68.842452 34.526149
-79.344689 -69.861212 35.264779
-75.187079 -95.791092 24.143470
-83.807976 -49.277489 49.221700
-83.989230 -47.351523 50.090409
-87.021198 -54.007977 47.313569
-94.273000 -49.903970 49.654278
-95.554746 -44.024657 52.361692
-97.606718 -54.745691 47.584062
-82.695468 -64.141098 41.857004
-104.459861 -59.987636 45.424456
-99.035594 -83.021077 31.195666
-116.433395 -54.484363 48.127019
-118.077178 -47.331435 51.277226
-117.452363 -63.036309 44.149037
-130.201209 -61.241642 44.616333
-125.448735 -77.113927 32.698130
-126.158814 -81.631630 30.863678
-130.849435 -74.667276 33.165450
-133.629604 -33.783571 56.363552
-132.514627 -46.843355 50.991105
-140.942860 -55.087156 46.908738
-67.628589 -107.777130 17.442044
-76.231684 -107.364937 19.040803
-78.205055 -105.608200 20.105156
-108.946362 -93.470882 27.115224
-114.197708 -93.353490 26.977344
-111.180974 -118.203426 16.382234
-121.936810 -87.426992 28.895820
-115.508441 -95.937784 25.926159
-122.395574 -93.929032 26.348219
-123.543838 -99.852605 23.962096
-125.813288 -97.272381 24.771532
-126.729318 -101.223012 23.189192
-131.425675 -90.144392 27.119937
-122.760500 -109.267756 20.207458
-125.500570 -117.998549 15.930462
-125.503748 -110.651072 19.468192
-126.432429 -115.688468 17.091382
-129.794856 -117.301011 15.998322
-129.817567 -110.015002 19.441689
-140.473782 -88.598023 26.693928
-133.977151 -93.480126 25.593005
-134.492008 -97.455785 23.982210
-137.498089 -93.030998 25.320007
