-54.998328 28.251555 71.728720
-59.523268 28.944042 71.744422
-65.659612 29.539984 71.348587
-56.585477 29.315787 72.462372
-68.132200 30.619761 71.848183
-53.664960 29.691095 73.174642
-70.860591 31.159704 71.836394
-61.594540 30.818219 73.014306
-59.466715 30.792110 73.316993
-64.089995 31.553395 73.303683
-66.150520 31.887513 73.235059
-55.212822 31.099667 74.120121
-72.218248 19.371139 61.035195
-75.685811 20.147203 61.019534
-78.452111 21.054632 61.173017
-74.007059 21.724241 62.846770
-70.989614 21.717416 63.408306
-76.685247 22.565868 63.046229
-78.931457 23.014660 62.883720
-72.909091 23.809549 64.960792
-75.585813 24.656822 65.163569
-70.926228 24.718899 66.160389
-78.092579 25.733189 65.654510
-71.700665 26.175261 67.324058
-74.469588 26.731207 67.288491
-77.073150 27.895202 67.732374
-72.360917 27.912740 68.742715
-74.988077 28.727082 68.978537
-77.594925 29.896523 69.426344
-72.891075 29.918666 70.424717
-75.445872 31.051640 70.897369
-73.517664 32.009228 72.061109
-94.414293 22.917580 55.809878
-89.962712 23.646211 56.872987
-92.543047 25.155230 58.139947
-88.246754 25.618175 58.924700
-90.288538 27.040689 60.067172
-88.266974 28.350433 61.480589
-89.083688 29.845350 62.649827
-29.767882 29.514566 75.853443
-32.054473 30.145388 76.191968
-30.256768 31.468390 77.489916
-32.573376 32.499765 78.004465
-28.420440 33.122522 78.994715
-30.777479 33.825501 79.300035
-31.557820 35.303826 80.414587
-27.027146 35.559145 81.025292
-29.286759 36.552937 81.570975
-33.392239 37.766681 82.132440
-25.669022 38.025371 83.036680
-31.074506 38.978339 83.309799
-28.281423 39.733934 84.161430
-23.907454 39.734062 84.499162
-33.084864 41.236216 84.754551
-29.803864 41.164742 85.090965
-26.575747 41.501954 85.594120
-34.676272 42.351335 85.469831
-21.357379 41.813833 86.362758
-31.373521 42.638940 86.001037
-23.710690 42.544566 86.672501
-39.199472 30.384429 75.569796
-45.010286 30.843154 75.274994
-52.257597 31.437128 74.848926
-41.142027 30.670846 75.528994
-34.963461 30.972562 76.595687
-47.963095 32.043467 75.876715
-45.069501 32.406660 76.581579
-37.284623 31.995806 77.116228
-50.247499 33.005439 76.443593
-42.255643 32.829386 77.248117
-40.849166 33.037341 77.582306
-34.912247 33.174630 78.325749
-38.087890 33.491149 78.226029
-43.879946 33.950189 77.949054
-48.423848 34.356824 77.750319
-46.417319 34.400395 78.000420
-52.351146 34.930035 77.683863
-41.636986 34.519097 78.706409
-43.986589 35.557362 79.232004
-34.334397 34.889489 79.757284
-37.484742 35.188180 79.673186
-50.519638 36.280074 78.993139
-48.422524 36.246612 79.285064
-39.863489 35.890167 79.987442
-53.008261 37.047117 79.276538
-45.644485 36.708966 79.922526
-50.536467 38.189550 80.522628
-38.124542 37.287208 81.250091
-36.135686 37.318444 81.498673
-41.948160 37.820736 81.219104
-40.503232 37.990455 81.569231
-47.710153 38.614643 81.179234
-52.240762 39.376242 81.204197
-44.268015 38.837080 81.766942
-38.166986 39.209695 82.751925
-45.981205 40.042181 82.434605
-50.482107 40.789767 82.473906
-42.523403 40.241107 83.030530
-48.423178 40.785669 82.740367
-35.364539 39.983668 83.599900
-39.774899 40.704786 83.654294
-42.172750 41.425810 83.972570
-36.930500 41.070805 84.330182
-52.665071 42.422546 83.498081
-46.662026 42.186065 84.011010
-44.627417 42.192866 84.267601
-50.514409 42.717167 83.998907
-39.049957 43.048208 85.548022
-42.871641 43.587427 85.535193
-48.812492 44.176542 85.238524
-41.511721 43.832518 85.836717
-52.672451 44.708541 85.232804
-68.707105 32.665032 73.503666
-71.415387 33.189319 73.507028
-57.552825 32.092183 74.670404
-60.052426 32.843541 74.952972
-66.747966 33.952920 74.877376
-62.554760 33.592179 75.240156
-69.437163 34.468737 74.889682
-54.209231 33.597434 76.360220
-56.692786 34.346222 76.647875
-64.786829 35.232253 76.251324
-59.176151 35.089197 76.941373
-61.824936 35.594347 76.963655
-68.640529 36.804641 76.848154
-54.861267 35.708938 77.957035
-57.325671 36.442437 78.259495
-59.975161 36.955598 78.280773
-63.982781 37.552376 78.208900
-66.680123 38.089269 78.219345
-55.531486 37.839258 79.548328
-58.120116 38.306493 79.599894
-62.072307 38.866381 79.555129
-64.795196 39.433333 79.552160
-67.227316 40.497027 80.090100
-56.266156 39.652620 80.917923
-60.232103 40.235655 80.865320
-62.776749 41.032317 81.145452
-65.481346 41.584702 81.156963
-54.463744 41.038586 82.209195
-58.425483 41.629195 82.158092
-60.970805 42.433440 82.437161
-63.657231 42.977342 82.457217
-56.647156 43.042318 83.435996
-59.167000 43.831194 83.727275
-61.707096 44.632371 84.014495
-54.750164 44.722588 84.966508
-57.401024 45.257232 84.997985
-72.087974 35.322577 75.121794
-14.836561 53.566925 95.315050
-14.951093 56.307144 97.140746
-28.579536 43.391916 86.847696
-25.322288 43.694186 87.363938
-20.852274 43.580807 87.748932
-33.435519 44.576387 87.238316
-31.432683 44.576357 87.490327
-22.491779 44.762254 88.422697
-27.344351 45.607210 88.609566
-21.370038 46.321484 89.746784
-32.719673 47.294362 89.312700
-30.133898 47.115816 89.476234
-25.079971 46.844136 89.755688
-18.621719 47.449216 90.763481
-25.988141 48.457646 90.810872
-20.966461 48.187059 91.082407
-30.977528 49.043051 90.762011
-28.368897 49.210986 91.126587
-23.301387 48.910590 91.411965
-34.093443 49.721246 90.908546
-18.164118 49.260948 92.125169
-24.192174 50.511209 92.475904
-29.827184 51.347344 92.483394
-32.281308 51.785971 92.583329
-27.775408 51.662140 92.945966
-19.575944 51.363504 93.484534
-35.287211 53.116513 93.176480
-16.984716 51.881525 94.040611
-22.477758 52.261455 93.909684
-30.568219 53.561489 94.016671
-28.029709 53.412815 94.149503
-25.524475 53.287596 94.269556
-19.754997 53.414571 94.905203
-33.033258 54.388311 94.307133
-22.699153 54.355438 95.313486
-25.780181 55.040339 95.471131
-28.360072 55.236986 95.316426
-17.535283 55.041469 96.214566
-19.993212 55.524738 96.297948
-34.562142 56.595590 95.647367
-32.012216 56.445516 95.775365
-26.690149 57.042966 96.726838
-36.747286 44.290681 86.709618
-46.437644 45.386823 86.430481
-44.440350 45.423822 86.664546
-39.201064 45.075983 87.000404
-50.832176 46.427082 86.733806
-53.414601 46.914901 86.796033
-35.045013 45.711930 87.949687
-41.959854 46.898655 88.102696
-48.522127 47.701977 87.890137
-38.549264 47.489078 88.858818
-45.661908 48.456033 88.744134
-43.028320 48.273758 88.910181
-36.450052 48.162964 89.532041
-52.861438 49.445194 88.622103
-50.833329 49.466809 88.859981
-48.656293 49.726524 89.367575
-45.891943 50.188760 89.977851
-39.273416 49.681843 90.410361
-41.249756 50.019592 90.378340
-53.035049 51.131415 89.892862
-43.719612 50.815803 90.679535
-47.587505 51.391194 90.674369
-36.491549 50.847355 91.423470
-50.239231 51.958520 90.705401
-45.296095 52.670597 91.818941
-40.629376 52.847999 92.418545
-47.113330 53.609760 92.264299
-43.194684 53.359554 92.483257
-38.513998 53.132826 92.901319
-49.647596 54.454105 92.550522
-52.236869 54.962614 92.620977
-36.233407 54.768515 94.235280
-47.360779 55.743689 93.689395
-43.989705 55.626832 94.015559
-40.048105 55.336894 94.248296
-42.600378 55.841490 94.322589
-53.941491 56.931092 93.720980
-49.070420 56.964622 94.389621
-51.780208 57.208007 94.209431
-37.830279 56.657831 95.356703
-40.367370 57.156855 95.437186
-45.654920 57.571148 95.119909
-43.543981 58.250127 95.784191
-59.943343 46.067309 85.283459
-62.481200 46.867850 85.577214
-58.153652 47.474187 86.564813
-56.050946 47.443980 86.836524
-61.434938 48.200052 86.683119
-58.322107 49.536346 88.037368
-55.527833 50.006551 88.651148
-60.162824 50.468543 88.486075
-57.189111 51.163203 89.379911
-56.665207 53.731578 91.199224
-54.623234 53.746324 91.434801
-56.020130 56.573040 93.274625
-54.927301 58.996610 94.988483
-15.210087 58.438821 98.519439
-14.222095 60.870487 100.150366
-16.392231 62.979427 101.329502
-13.220689 63.289728 101.788412
-15.442164 65.455960 102.944473
-13.030154 65.369197 103.019056
-15.144637 68.193284 104.612602
-12.087533 68.227532 104.818415
-9.675814 68.128110 104.894150
-16.656106 70.810321 106.139052
-13.647735 70.895918 106.313443
-29.793091 57.738288 96.887596
-24.695643 57.399568 97.157421
-17.844511 57.220659 97.569811
-22.722342 57.770866 97.578854
-32.750180 59.043110 97.512714
-19.496579 58.437585 98.252414
-35.253914 59.908271 97.797577
-27.612785 59.438288 98.171439
-30.064339 59.890872 98.281894
-21.703120 60.188059 99.231063
-24.806402 60.529505 99.196652
-17.372744 60.156417 99.510407
-33.678541 61.445618 98.968643
-19.768619 60.586899 99.632925
-31.730174 61.862531 99.365771
-27.899587 61.606950 99.556756
-29.518626 63.540212 100.662540
-32.666377 63.898314 100.627628
-23.753309 63.300451 101.059484
-26.313525 63.494297 100.924179
-21.259636 63.162400 101.165653
-19.239649 64.610862 102.178729
-33.853842 65.794997 101.577226
-25.395105 65.264231 102.148756
-22.258775 65.265617 102.380482
-31.166610 65.882220 101.953166
-35.569082 67.057227 102.267426
-28.467106 66.707890 102.723067
-17.160335 66.374031 103.411678
-23.312514 67.044876 103.381534
-32.786876 68.201008 103.265414
-20.726511 67.570888 103.910931
-30.788605 68.564534 103.681726
-26.327316 68.444492 103.983070
-28.870475 68.999557 104.060196
-35.290687 69.842796 103.954054
-18.131549 68.837069 104.828595
-23.051882 69.831294 105.043348
-19.857535 69.761521 105.300466
-31.270300 70.553697 104.792628
-24.844556 70.812269 105.491088
-33.123557 71.577588 105.224453
-27.902860 71.493449 105.697253
-35.624709 72.075531 105.338211
-52.726515 59.238421 95.492880
-42.172593 58.479409 96.080841
-50.634157 59.573251 95.946103
-48.033075 59.423315 96.071108
-44.493127 59.907577 96.860034
-39.936407 59.790175 97.195387
-37.352349 59.621665 97.327456
-41.910811 60.134997 97.177928
-51.657051 61.678299 97.193876
-46.911298 61.804183 97.793999
-49.577611 62.020535 97.639273
-43.602285 61.734105 98.078863
-37.696487 61.469424 98.504935
-42.234098 61.965086 98.371591
-52.793709 63.126998 97.998970
-40.134238 62.262366 98.835415
-50.511322 64.429896 99.127969
-48.483895 64.433670 99.350922
-45.907463 64.294388 99.459641
-35.962882 63.624808 100.139981
-43.886040 64.292258 99.684773
-38.598046 64.230684 100.180526
-51.701111 65.932330 99.909275
-43.024628 65.385935 100.500646
-40.997083 65.750840 100.924798
-44.315119 66.227040 100.833385
-46.949332 66.427355 100.697053
-49.501971 67.308650 100.996735
-37.585424 66.697193 101.845017
-51.997836 68.131417 101.329598
-44.659441 68.085275 102.025565
-47.305910 68.680711 102.082719
-39.977738 68.217995 102.595266
-42.593210 68.416785 102.464557
-49.189719 69.315459 102.324985
-37.983661 68.604937 103.003202
-43.725278 70.260799 103.463323
-46.400186 70.505645 103.312671
-40.406353 70.157217 103.743327
-49.080236 71.130340 103.360598
-43.636523 71.708974 104.289071
-37.689095 71.381108 104.702546
-46.223923 72.256879 104.378712
-40.200551 71.874838 104.818476
-55.004500 61.750611 96.904730
-11.104823 71.807097 107.018285
-14.676547 73.046147 107.511508
-14.535813 74.808798 108.535441
-12.154102 74.741576 108.583997
-9.086521 75.507063 109.169794
-14.451556 77.010867 109.724032
-8.985773 77.308616 110.170886
-11.452580 77.853681 110.269651
-13.099790 79.105031 110.973290
-15.589241 79.280000 110.878771
-10.118112 79.959172 111.509733
-7.743193 79.881139 111.554975
-11.876540 82.091650 112.542362
-9.459846 81.975546 112.602930
-13.735925 82.794937 112.764462
-16.096147 83.224954 112.931216
-7.015155 83.734019 113.635192
-9.463201 83.890945 113.557703
-14.848396 85.434684 114.131540
-12.411143 85.304642 114.193602
-22.202239 72.047903 106.425930
-17.812581 72.323063 106.896558
-27.762027 73.264423 106.731522
-34.176453 74.123124 106.639872
-19.569186 73.282477 107.357464
-24.515936 73.922603 107.384874
-29.651185 74.333706 107.144180
-32.199080 74.507855 107.039551
-26.430933 74.642866 107.587502
-21.932127 75.214013 108.288530
-16.965712 74.916686 108.466910
-23.818613 75.913938 108.503180
-33.983579 76.618386 108.095814
-30.722836 76.904758 108.548352
-25.703312 76.608463 108.722195
-28.239811 76.786682 108.620340
-19.313167 77.224600 109.594890
-16.907298 77.146204 109.645362
-33.877392 78.433618 109.121962
-31.349844 78.664247 109.403514
-21.722864 78.828783 110.317695
-26.826623 79.237112 110.097443
-24.346608 79.107570 110.170592
-18.669062 79.264601 110.685622
-29.898890 80.704407 110.706004
-32.485201 80.921394 110.592102
-35.117338 81.174252 110.460331
-21.708593 80.728642 111.290051
-24.253689 80.931998 111.183705
-26.119621 81.612756 111.418597
-18.034931 81.316549 111.772172
-28.624148 82.146906 111.534091
-30.493583 82.822842 111.774769
-34.321695 83.480213 111.831479
-20.389381 82.876862 112.526484
-24.773159 83.745668 112.669680
-22.286343 83.598931 112.743264
-27.314028 83.937564 112.573889
-19.192763 84.378911 113.316707
-33.023365 85.682083 113.062712
-35.558119 85.843221 112.984670
-28.507220 86.265229 113.735734
-26.035671 86.143441 113.793309
-23.554825 86.004934 113.859184
-31.091346 86.489779 113.628191
-21.627573 86.406515 114.234385
-19.181169 86.287843 114.289608
-16.750928 86.177983 114.340926
-38.800550 73.213815 105.707523
-41.404022 73.410576 105.588111
-44.101871 73.688451 105.427769
-48.724990 74.253467 105.302894
-45.936178 75.057147 106.089110
-36.709798 74.651680 106.743706
-39.240699 75.170928 106.853725
-43.892100 75.793638 106.706464
-42.555375 76.434181 107.171516
-40.530829 76.795434 107.584805
-36.587004 76.834161 107.974078
-43.756011 77.586654 107.754601
-46.375030 77.786694 107.641318
-48.912863 79.058449 108.164236
-38.997828 78.778526 108.928724
-36.533592 78.702512 108.977304
-44.265694 79.617339 108.878781
-42.974673 80.302288 109.320401
-46.187037 80.691825 109.310544
-37.722649 80.238237 109.757209
-40.891496 80.991745 109.954591
-44.168794 82.224589 110.306418
-37.019391 81.866447 110.693076
-46.113629 82.938905 110.532575
-42.803380 83.224293 110.979853
-39.502280 83.503976 111.427653
-44.074634 84.065836 111.339546
-36.926441 83.703265 111.719145
-45.949461 84.715349 111.600614
-41.465598 85.407525 112.232809
-45.991867 87.079783 112.771756
-38.112147 86.788199 113.295647
-43.880618 87.362004 113.213563
-40.085314 87.548754 113.505650
-10.051466 86.778759 114.988902
-7.757397 86.778167 114.986310
-13.086600 88.284068 115.589756
-10.170354 88.819136 115.891652
-7.326152 89.032265 115.970308
-15.716705 90.148452 116.212647
-12.675890 90.182242 116.375967
-6.683253 91.072949 117.058729
-9.190832 91.297269 116.960780
-12.185286 91.994165 117.772123
-14.645321 92.153299 117.707370
-35.595485 88.198322 114.147656
-26.000935 88.035802 114.785001
-28.545349 88.231265 114.695085
-31.098141 88.426673 114.605019
-33.667040 88.629874 114.511480
-20.461518 88.714743 115.398274
-18.017187 88.592788 115.451482
-22.383632 89.468148 115.610102
-26.708252 90.279615 115.803344
-24.278117 90.190404 115.838745
-35.005798 91.104794 115.623236
-30.653908 91.470717 116.007440
-19.965467 90.920790 116.424638
-28.746110 92.296370 116.559632
-23.863816 92.098742 116.634437
-26.264742 92.935130 117.006106
-17.919890 92.350005 117.438827
-32.550325 93.341434 116.840136
-20.945466 92.668163 117.490338
-35.646400 93.674234 116.886987
-42.018328 88.266748 113.738338
-37.497280 89.283811 114.586924
-45.907746 90.103240 114.402396
-39.396755 89.976815 114.833867
-44.064120 91.031914 114.915849
-45.979306 92.116399 115.365653
-40.947996 91.879626 115.462424
-42.836562 92.556918 115.721800
-38.204045 92.302165 116.019362
-44.062575 93.363698 116.111268
-38.604110 94.248315 117.203231
-46.086578 94.947287 116.713921
-41.822682 94.679083 117.206323
-120.435476 8.510627 36.416469
-116.026631 8.716890 37.662149
-118.028223 9.242186 37.845733
-117.527142 10.800317 39.708467
-119.729213 11.099087 39.594494
-134.187546 3.579429 25.314421
-131.853863 4.080112 27.127562
-129.524101 4.148940 28.122666
-136.158060 5.238136 26.747411
-127.224007 4.233531 29.103042
-133.812845 5.733220 28.562722
-131.155732 5.939967 29.924441
-128.392209 5.631238 30.529235
-136.812879 7.017723 28.860033
-126.103974 5.719018 31.500463
-123.766681 6.144727 32.697527
-130.569332 7.072254 31.646129
-134.954357 7.922809 31.033666
-128.068675 7.384461 32.923830
-122.160127 6.782688 33.923483
-132.346971 8.166397 32.363343
-125.695310 7.785576 34.135473
-123.135904 7.613065 34.634475
-137.267244 9.460904 32.098415
-133.751695 9.361252 33.479104
-130.986835 9.861547 35.087620
-129.026038 9.815788 35.678471
-136.095047 10.926820 34.529315
-124.641857 9.697472 36.692817
-127.421944 10.463296 36.898077
-133.225830 11.352797 36.186941
-122.151511 10.376493 38.161468
-138.235863 12.723398 35.893936
-136.052564 12.520472 36.589272
-124.774486 11.411879 38.645562
-130.858128 12.576637 38.400645
-133.338200 13.061037 38.163536
-139.420263 11.263045 33.455998
-141.356528 13.288131 35.135831
-103.085117 18.021359 49.836248
-101.372229 19.656197 51.697555
-103.942160 20.332301 51.991658
-99.664938 21.289682 53.554273
-101.740444 21.541112 53.500909
-97.455224 22.477783 55.067607
-99.544337 22.746467 55.006334
-101.610974 22.992773 54.959512
-115.940952 11.816313 41.117032
-111.755789 12.165971 42.242554
-118.251086 13.006672 41.953370
-113.703542 12.661583 42.454158
-120.563825 14.196988 42.795400
-109.348186 13.244957 43.867078
-116.018190 13.860830 43.285575
-111.768988 14.155368 44.437681
-118.278242 15.015299 44.151885
-107.152712 14.102091 45.182897
-122.489123 15.850144 44.243319
-114.057739 15.340133 45.281612
-109.612756 15.049411 45.730917
-116.043616 15.865612 45.481833
-111.850596 16.199276 46.598570
-120.031782 16.920597 45.884356
-107.365237 16.244538 47.269007
-115.636201 17.493473 47.294210
-109.702470 17.097687 47.884802
-117.659492 18.048211 47.481005
-105.229797 17.140216 48.550451
-121.868551 18.892447 47.581997
-113.521219 18.427377 48.560464
-107.630331 18.049253 49.131633
-117.440223 19.443788 48.999589
-119.654259 19.764542 48.894696
-111.333773 19.296920 49.863176
-105.386394 19.237826 50.664364
-121.991413 20.982530 49.740959
-115.121314 20.602372 50.566208
-109.923958 20.432036 51.173485
-107.007701 20.255820 51.442771
-117.821883 21.350331 50.820438
-112.873998 21.808890 52.095564
-120.106336 22.532654 51.692774
-115.508845 22.512651 52.381519
-122.180826 23.126273 51.868209
-108.682447 22.495964 53.398509
-105.764163 22.311000 53.666441
-117.997154 23.478691 52.948296
-111.105483 23.424418 53.985252
-113.760214 24.151129 54.261539
-121.891076 24.856265 53.629258
-115.858527 24.394493 54.218058
-128.519580 13.003917 39.582514
-122.094122 12.324042 40.408697
-124.884870 13.109603 40.610457
-137.716238 14.728060 38.605695
-127.005367 13.716219 40.752259
-135.455289 14.846344 39.539098
-131.024465 14.323907 40.346513
-124.061815 14.005717 41.834704
-133.716593 15.399961 40.820947
-128.808028 15.651664 42.477045
-136.273161 16.753941 41.574412
-138.604695 17.505165 41.631097
-125.671316 16.177622 43.852790
-132.689836 17.347938 43.370438
-128.257761 17.187802 44.375414
-130.614823 17.591939 44.207304
-135.159238 18.640673 44.170281
-139.814083 19.329071 43.275241
-137.714056 19.182607 43.914265
-125.715575 18.209994 46.056071
-124.151936 18.066665 46.234007
-137.396359 20.525358 45.501905
-133.002370 20.022505 46.265454
-130.458588 19.860549 46.722466
-135.404869 20.454986 46.085844
-139.951261 21.065010 45.252377
-127.976483 19.739963 47.151445
-124.242825 20.133986 48.412161
-132.763323 21.420099 47.809225
-140.631385 22.444369 46.551844
-135.113581 21.815155 47.658043
-137.607289 22.315879 47.439213
-126.866708 21.183627 48.922125
-129.624931 21.948555 49.169317
-134.941104 23.266995 49.171168
-124.423394 22.272804 50.546923
-137.320278 23.682020 49.011622
-141.626878 24.496535 48.517244
-139.586503 24.392463 49.116379
-128.752586 23.194803 50.618948
-131.774865 23.778419 50.539356
-136.907510 25.337427 50.850493
-139.411372 25.847660 50.636046
-141.964397 26.390476 50.401404
-125.906392 24.741479 52.845814
-127.483869 24.899370 52.670416
-133.905231 25.593638 51.927558
-140.183284 14.760049 37.568661
-142.769117 16.509363 38.521784
-143.060650 17.978452 40.220722
-140.805308 17.723485 40.938835
-144.789199 20.240700 42.230986
-142.175034 20.099504 43.327044
-145.149275 21.764801 43.900445
-142.757943 22.609404 45.907360
-145.243022 23.474068 45.908417
-144.916260 24.819587 47.508528
-147.411696 26.901121 48.748201
-144.099832 26.564979 49.760292
-79.788628 28.771025 67.931581
-80.350255 30.808166 69.610830
-78.230671 31.996462 71.065787
-80.925388 32.859032 71.286346
-103.599047 23.552979 55.154268
-97.948555 24.463875 56.803525
-103.357654 25.298151 56.870960
-100.308107 25.366589 57.406324
-105.287079 25.810734 57.101176
-95.881606 25.379949 58.043241
-98.167024 26.608827 58.879661
-95.229306 26.748920 59.363022
-102.018921 27.647623 59.337188
-104.061757 27.875190 59.312681
-106.189768 28.167900 59.248424
-92.298421 27.265015 60.044086
-100.062890 28.662684 60.515859
-95.061892 28.545670 61.034395
-97.098110 28.783724 61.006224
-102.474402 29.609792 61.104507
-105.994118 29.955084 60.946870
-91.959791 29.298228 61.996845
-98.909492 30.772819 62.686364
-104.391787 31.681911 62.745768
-95.892143 31.224915 63.399018
-101.420994 31.807674 63.227132
-93.822624 31.335421 63.640187
-90.844422 31.801347 64.338924
-88.835926 31.950711 64.553974
-106.258695 33.714450 64.420784
-97.860404 33.348542 65.002886
-103.326887 33.875323 64.876105
-100.406662 34.035860 65.329705
-92.831014 33.565274 65.724270
-95.329392 34.225474 66.066361
-89.295543 33.913342 66.302914
-107.119801 35.248261 65.598653
-104.130913 35.362789 66.078354
-97.898199 34.938979 66.379120
-100.250334 35.851432 67.004979
-102.177235 36.380160 67.247852
-91.360235 35.747795 67.649762
-124.080186 25.155028 53.551349
-107.433611 24.550615 55.625562
-119.675412 25.720683 54.934408
-109.866997 25.493157 56.208888
-112.511160 26.218032 56.492637
-117.598477 26.687952 56.170130
-123.416786 27.362869 55.905449
-120.413740 27.147126 56.182781
-107.845403 26.478084 57.420301
-114.960648 27.165556 57.080661
-110.281836 27.425617 58.006792
-124.192230 28.819989 57.141965
-117.138684 28.661425 58.213415
-114.264655 28.527356 58.433470
-122.145651 29.435928 58.154991
-119.141727 29.211905 58.430189
-108.115884 28.676107 59.488238
-112.270891 29.160480 59.425341
-122.917013 30.891811 59.394037
-108.077818 30.210291 60.910183
-115.989213 30.815944 60.397192
-113.069111 30.637941 60.637481
-110.136477 30.441117 60.888729
-120.967633 31.579947 60.357404
-118.316389 32.050729 61.263342
-125.039706 32.723935 60.781298
-107.881685 32.000104 62.611950
-109.950067 32.241249 62.588095
-114.832566 32.962061 62.583317
-111.911305 32.775946 62.821583
-120.644587 33.669853 62.339521
-117.622121 33.418892 62.617158
-122.802154 33.957739 62.289594
-114.162248 34.344570 63.923310
-125.134796 35.576342 63.376969
-109.681336 34.359456 64.530122
-122.785845 35.524565 63.718442
-111.681049 34.928493 64.747439
-119.463952 35.807984 64.541342
-116.534462 35.624678 64.770830
-113.552357 35.775366 65.233507
-125.011482 37.447276 65.065222
-121.644799 37.699842 65.902950
-111.398099 37.038907 66.700010
-113.526478 37.327404 66.658444
-130.355226 25.758230 52.871268
-139.165799 27.248346 52.190397
-141.741507 27.811835 51.947382
-136.192679 27.531691 53.247254
-127.714758 27.083948 54.789111
-126.150176 26.934344 54.955371
-132.483652 27.576865 54.261348
-129.440310 28.167358 55.561183
-138.349164 29.368263 54.639815
-134.719415 29.480068 55.607562
-132.219108 29.341595 56.023000
-128.225289 30.300337 57.788843
-132.748596 30.994379 57.597916
-126.290146 30.627349 58.539924
-130.833583 31.347111 58.335981
-128.453667 32.487151 59.914216
-126.928097 32.364807 60.054776
-131.458238 33.075936 59.864583
-129.268789 33.980214 61.143483
-127.265701 34.638795 62.126981
-129.326646 36.810431 63.766410
-127.472984 37.198532 64.469863
-71.083493 37.864065 77.382739
-69.282890 38.915646 78.477884
-71.760613 40.007092 79.000626
-69.852849 41.345490 80.342945
-67.954684 42.686204 81.679886
-70.607299 43.559982 81.924913
-66.093363 44.053181 82.997833
-68.750338 44.938441 83.240125
-71.377346 45.791388 83.503476
-64.291158 45.466607 84.285942
-76.041128 33.117718 72.555087
-78.790064 34.034365 72.747044
-81.670967 35.056616 72.880135
-74.018120 34.372843 73.959739
-76.728697 35.264925 74.169941
-79.503082 36.205406 74.355119
-74.628235 36.454879 75.611610
-77.333811 37.344764 75.829719
-80.152797 38.325517 75.998473
-73.722752 38.709538 77.630613
-76.537463 39.699635 77.797706
-79.276012 40.618289 78.009609
-74.468408 40.913439 79.220003
-77.223581 41.854328 79.422553
-81.729288 42.429900 78.962244
-72.567728 42.265657 80.558026
-75.264964 43.164524 80.788455
-79.612881 43.999067 80.602702
-73.321639 44.481610 82.146132
-82.292731 45.630009 81.254694
-77.564148 45.237901 82.011223
-75.683821 46.615868 83.336614
-80.144830 47.172870 82.908585
-89.233003 35.795104 67.918917
-93.767758 36.338766 68.038338
-106.100871 37.486456 67.709235
-99.641831 37.264178 68.306219
-96.733737 37.417992 68.752674
-91.241709 37.586068 69.297273
-104.142670 38.503834 68.878457
-106.898888 38.972134 68.921906
-99.100796 38.732740 69.574056
-94.175080 38.646853 70.024546
-101.510308 39.695843 70.181031
-89.283004 38.945493 70.670179
-96.552576 39.977359 70.838030
-91.690435 39.928589 71.260118
-105.976365 41.290472 70.985950
-103.844641 41.362888 71.234195
-98.157674 41.016942 71.640448
-100.688200 42.086766 72.190988
-93.771467 41.783793 72.616248
-89.703869 42.030660 73.043280
-96.263217 42.448286 72.978249
-105.987778 43.255362 72.590439
-102.944141 43.694056 73.285257
-91.329981 43.098729 73.827631
-100.089578 43.894827 73.689908
-93.745916 43.706913 74.224627
-107.634222 44.707657 73.594543
-97.633125 44.447077 74.500922
-95.603716 44.582930 74.704088
-101.785548 45.010497 74.459067
-108.544811 46.293519 74.762814
-104.304631 46.069131 75.029823
-89.930040 45.339269 75.716712
-93.747090 46.038421 76.021779
-99.903775 46.461534 75.788024
-97.728699 46.477939 76.057081
-106.834212 47.132455 75.602296
-91.695996 46.145702 76.237680
-102.429395 47.532373 76.354868
-105.070568 48.309365 76.670242
-107.855383 48.813851 76.719657
-95.923664 47.982511 77.348521
-99.877798 48.779552 77.609208
-93.064889 48.536657 77.958641
-102.577120 49.614047 77.894514
-90.213308 49.086696 78.567952
-107.368117 50.342193 77.969818
-109.040935 37.328393 67.260207
-118.459382 38.085695 66.656739
-115.503936 37.874862 66.896016
-125.829432 38.947453 66.293671
-123.917089 39.665943 67.229586
-111.329370 38.940266 68.346844
-113.445977 39.221466 68.313646
-120.670627 40.007741 68.006284
-115.443994 39.788063 68.543973
-117.429859 40.341634 68.783586
-109.424898 40.014827 69.487240
-124.819882 41.236654 68.418393
-113.393571 41.139704 69.956417
-122.895418 41.941115 69.358261
-115.498873 41.409819 69.934161
-119.691810 42.310594 70.111399
-111.391304 42.524193 71.344699
-108.494287 42.332463 71.557978
-113.993650 43.238777 71.684970
-117.649705 43.680086 71.517372
-121.951846 44.278264 71.449267
-119.986391 45.327983 72.611980
-110.490452 44.871839 73.403824
-116.123266 45.497020 73.278650
-113.170220 45.656299 73.710153
-118.410498 47.498582 74.602576
-112.725201 47.224698 74.942723
-115.376808 47.983907 75.270520
-110.781173 48.265984 76.095239
-113.384061 49.379389 76.649447
-110.333860 49.830966 77.328178
-66.887389 46.305865 84.557614
-69.528026 47.178291 84.813619
-66.212653 48.752156 86.458635
-71.883732 49.319709 86.004467
-64.108384 48.739927 86.720862
-68.807807 49.971529 86.937318
-66.339244 51.165498 88.160035
-71.216439 51.785419 87.909415
-63.495942 51.238746 88.589909
-68.807652 53.040024 89.100208
-61.748748 52.693271 89.847779
-65.845277 53.776525 89.975668
-59.346705 53.920459 91.038833
-71.158407 55.191359 90.304690
-64.081701 55.223050 91.240486
-68.229152 55.582361 90.961097
-61.706775 56.481965 92.415243
-66.402998 57.361923 92.452956
-70.610128 57.767221 92.155437
-64.315598 57.357342 92.696429
-57.998960 56.881206 93.270591
-59.943326 57.917211 93.679142
-73.256843 59.037243 92.635754
-68.872144 59.250205 93.406375
-62.605332 58.847582 93.934138
-65.214752 59.724807 94.220993
-57.613302 59.201737 94.831824
-59.660878 59.570986 94.799493
-71.559545 60.563902 93.866854
-73.737463 47.930393 84.693458
-78.069102 48.770421 84.526099
-82.649234 49.423514 84.052129
-80.700516 50.373405 85.209023
-76.149789 50.115191 85.868403
-81.898412 51.838021 86.009614
-74.263944 51.483249 87.193819
-78.643130 51.988180 86.815961
-76.676842 53.675540 88.377797
-81.246961 54.339906 87.919906
-73.641290 53.994959 89.081225
-79.354408 55.332648 89.046642
-76.061320 56.200374 90.266102
-73.817659 56.083024 90.576147
-80.629925 56.873063 89.814735
-78.789078 57.908678 90.915212
-76.474480 58.118147 91.453712
-82.962958 60.151407 91.666420
-80.589147 60.318898 92.226821
-75.826795 60.619027 93.360132
-92.033698 49.943563 79.068106
-98.114080 50.324637 78.879629
-95.235664 50.481547 79.291693
-104.779881 51.961035 79.439690
-100.554437 51.720278 79.693691
-91.037136 51.378699 80.160646
-96.258567 52.172958 80.395449
-93.457759 52.388014 80.769897
-98.099489 53.041181 80.898880
-107.195870 53.713204 80.486125
-102.974453 53.483552 80.728598
-90.628724 52.955442 81.362600
-95.232023 53.590378 81.503406
-92.379327 54.142213 82.103633
-97.782587 54.705020 82.062821
-105.448225 55.290997 81.746957
-100.446368 55.136857 82.168909
-103.163718 55.607459 82.254799
-90.577611 55.635056 83.390566
-94.556165 56.490764 83.645822
-107.030354 57.484019 83.208128
-102.871598 57.299556 83.412064
-97.220820 57.322215 83.952399
-99.896609 57.769360 84.056158
-92.938844 58.148574 84.843904
-109.467244 59.260238 84.260976
-105.303346 59.079142 84.457950
-102.313544 59.931752 85.307782
-95.478442 59.654588 85.615609
-91.310470 59.793520 86.046992
-107.736931 60.859279 85.511894
-99.444967 60.488236 85.898599
-97.258925 60.869108 86.359902
-104.804368 61.768069 86.330213
-93.132481 61.050486 86.765311
-107.396086 62.518445 86.697930
-101.925428 62.712107 87.125374
-99.758306 62.725083 87.369073
-96.962566 62.555906 87.517417
-104.488330 63.446249 87.503021
-94.802945 63.729278 88.373420
-98.160133 64.414119 88.557197
-115.738216 51.447966 77.943687
-112.685061 51.903264 78.617807
-109.670711 52.379589 79.276597
-111.992261 54.433348 80.584110
-109.545053 55.796921 81.777802
-111.910202 57.894501 83.071985
-54.526502 65.135945 99.101015
-54.179452 67.497325 100.646262
-51.705392 71.312047 103.242892
-54.332179 71.871611 103.326227
-64.927714 61.381570 95.348672
-67.755726 61.685190 95.142446
-73.371812 62.229907 94.763260
-62.053808 61.409993 95.779173
-57.249956 61.162698 96.186896
-59.974462 61.398136 96.018564
-70.297387 62.875927 95.674965
-66.023169 63.165539 96.389483
-68.695942 64.096916 96.660014
-58.299240 63.291793 97.435233
-71.606460 64.465755 96.424887
-60.993925 63.882413 97.483862
-63.727905 64.117274 97.320666
-55.388678 63.643021 98.086130
-57.380222 64.737066 98.478296
-64.922300 65.611717 98.117664
-72.746302 66.290212 97.458821
-70.445007 66.871728 98.186596
-62.012851 66.370738 98.955109
-67.621842 66.959442 98.577337
-59.819098 66.633643 99.441639
-56.473276 66.576173 99.712769
-73.089277 68.542958 98.886299
-68.766085 68.408844 99.406703
-64.551500 68.351251 99.884955
-62.415578 68.288282 100.140968
-60.247692 68.574456 100.612702
-67.124788 69.590390 100.408793
-58.194395 68.960190 101.031738
-70.008239 69.948244 100.193441
-64.890233 70.599027 101.305505
-72.663106 71.249442 100.692522
-55.940334 69.922700 101.943150
-68.373695 71.525259 101.391930
-62.042893 71.026378 101.908560
-59.268469 71.124948 102.281137
-66.194650 72.202128 102.060536
-73.856148 73.132258 101.712607
-71.010687 73.204808 102.100316
-61.856137 72.782051 102.992605
-68.751735 73.815494 102.802891
-56.953263 73.188745 103.814426
-64.637156 73.840734 103.222303
-78.702123 61.697771 93.547603
-81.692059 62.484903 93.487021
-75.531021 62.279747 94.500479
-79.889519 63.555791 94.566025
-77.446626 64.034842 95.358132
-82.788968 65.035424 94.956890
-74.470616 64.783684 96.216709
-80.124297 66.485055 96.453891
-77.032948 66.753094 97.159750
-83.098665 67.649546 96.614311
-75.308210 67.880298 98.200620
-79.704484 69.205926 98.263964
-82.616171 70.321229 98.458324
-77.254294 70.060449 99.255111
-78.519337 72.002653 100.246912
-75.519063 71.953011 100.702461
-81.471332 72.774656 100.223204
-79.720891 74.278649 101.475580
-84.234995 74.926387 101.106431
-76.705497 74.216888 101.932993
-81.195015 75.636618 101.974777
-92.006103 64.319782 88.934582
-106.989976 65.685558 88.738650
-100.750819 65.574153 89.123205
-93.900841 65.256495 89.422830
-103.471271 66.060800 89.225234
-96.450276 66.782253 90.205858
-98.471771 67.044172 90.235502
-104.655550 67.517768 90.079842
-101.133980 67.488663 90.363153
-106.623187 68.499581 90.557568
-92.209265 68.018573 91.265168
-102.347039 68.974433 91.203172
-98.277574 69.217062 91.554976
-94.150628 69.000567 91.737133
-105.060823 70.238633 91.729009
-100.866687 70.774802 92.336337
-95.385968 70.513332 92.558987
-103.544036 72.014210 92.879169
-92.635972 71.532870 93.293891
-97.973681 72.078914 93.337393
-100.668773 72.559825 93.456761
-106.164893 73.592820 93.662335
-95.110331 73.398217 94.325841
-97.865140 73.941375 94.415161
-100.555578 74.420765 94.539298
-103.309185 74.948496 94.639632
-93.047684 75.434253 95.541245
-96.344566 75.699015 95.566108
-103.842851 77.400960 96.030566
-101.797426 77.513508 96.201002
-98.944689 78.069101 96.763752
-103.094776 79.086161 97.015550
-93.460875 78.562459 97.384172
-96.158663 79.066537 97.504791
-51.375165 74.078364 104.979626
-54.043345 74.681268 105.047329
-50.436584 77.040004 106.822324
-53.103011 77.648233 106.894050
-54.374298 79.243541 107.657155
-51.575082 80.056542 108.437274
-53.578566 81.194170 108.842315
-48.815924 80.896547 109.200534
-48.757362 83.160146 110.418425
-51.383683 83.356427 110.316687
-54.090103 84.395908 110.581101
-50.011102 84.751604 111.190578
-52.000665 85.110612 111.207426
-54.658241 86.493155 111.698726
-48.651728 86.933146 112.456522
-51.901856 87.345146 112.451206
-59.605721 74.530208 104.295532
-66.526387 75.223711 103.891751
-72.959217 75.792992 103.356855
-62.344642 75.173564 104.344219
-56.756992 74.933427 104.900301
-70.655033 76.367202 104.076872
-64.917186 76.816948 105.077407
-67.718091 77.116146 104.908568
-55.305825 76.262790 105.812073
-62.838302 77.187122 105.496932
-57.960367 76.843860 105.896223
-70.501752 78.167009 105.155741
-73.329477 78.473880 104.984884
-60.697730 77.881059 106.146530
-65.474704 78.892250 106.205357
-68.242632 79.161841 106.055840
-56.474658 78.530885 107.023011
-72.447800 79.987316 106.017628
-59.146852 79.514776 107.304193
-61.866764 80.149015 107.369107
-64.631030 80.428669 107.218004
-70.284959 81.076929 106.871221
-68.084054 81.735418 107.540635
-56.988598 80.954991 108.362148
-72.304525 82.581225 107.501221
-63.830679 82.004834 108.210481
-59.610257 82.669847 109.072671
-56.229782 82.558866 109.332460
-61.741334 83.136582 109.032916
-70.813005 83.911623 108.429611
-73.569260 84.158669 108.300426
-66.548620 83.793259 108.893259
-64.425928 83.734641 109.124059
-68.585292 84.935613 109.311122
-71.366430 85.604559 109.372017
-74.216194 85.937817 109.203520
-56.832338 84.685666 110.434841
-60.154880 85.130897 110.407351
-64.324976 85.976040 110.380542
-67.887552 86.617408 110.259576
-73.472569 87.585880 110.175453
-62.215628 87.090716 111.209674
-70.575626 87.985736 110.770490
-66.304843 88.244047 111.431512
-64.342401 88.722162 111.786841
-59.474937 88.375382 112.148721
-56.730365 88.477265 112.487659
-68.545181 89.975402 111.966072
-72.632859 90.320061 111.802968
-78.733079 76.093318 102.761816
-74.945721 76.475979 103.593418
-83.120529 77.415819 102.860729
-77.164936 77.366906 103.726473
-79.988739 78.036200 103.768914
-76.178435 79.180081 105.011633
-82.211351 80.091322 104.521643
-79.062587 80.690266 105.435143
-74.563039 81.573468 106.605879
-77.393908 81.873813 106.444553
-80.441160 82.753051 106.393504
-83.426425 83.175243 106.172062
-78.064218 83.670643 107.339013
-76.517603 84.964189 108.291990
-79.412768 85.712406 108.313845
-82.479338 86.216706 108.059124
-77.108840 86.692822 109.224436
-83.105083 88.371175 109.189432
-80.883639 88.653779 109.648855
-77.807665 88.915417 110.315521
-74.852617 89.276629 110.930480
-101.615366 80.501668 97.941039
-97.490663 80.677610 98.297741
-93.503035 80.563481 98.393681
-104.409474 81.859122 98.450172
-100.192121 82.358562 99.048232
-95.999816 82.465150 99.434946
-93.389621 82.428119 99.475689
-102.964545 83.308966 99.359552
-98.056521 84.350568 100.294390
-102.222504 85.398917 100.551580
-94.008163 84.967759 100.822945
-95.973402 85.595035 101.102306
-100.137169 85.862387 100.942156
-93.295587 86.677851 101.790133
-99.430303 87.586603 101.909589
-96.706442 88.639434 102.613605
-93.995172 88.903455 102.898693
-101.550043 89.532850 102.755997
-98.905264 91.060234 103.629520
-96.742501 91.047250 103.845028
-94.010164 91.290806 104.136986
-100.940341 92.143771 104.100052
-96.779250 93.459920 105.078540
-94.096102 93.349909 105.137422
-98.892639 93.827029 105.096215
-52.597289 89.180060 113.310307
-54.620965 89.569376 113.319310
-49.961470 89.361705 113.606675
-47.983056 89.781952 113.981336
-50.614691 91.159745 114.484999
-52.695069 91.999990 114.668338
-48.657566 91.991136 115.047861
-50.159882 94.226885 115.916987
-48.078674 94.156700 116.135120
-54.842815 94.853998 115.831343
-52.724102 95.541239 116.463535
-62.088584 89.700820 112.680629
-66.259554 90.546185 112.668459
-70.513286 91.058582 112.426779
-57.322165 90.603988 113.602533
-60.118576 90.941193 113.445109
-64.197281 92.102673 113.675539
-69.008237 92.767380 113.563603
-71.852182 93.112077 113.404889
-56.014487 92.078322 114.446007
-59.332509 92.532535 114.432020
-66.242326 93.662325 114.301336
-62.072677 93.594471 114.711050
-71.255684 94.901476 114.312083
-56.772872 93.979701 115.286195
-64.237695 95.274867 115.281295
-73.431425 96.574311 114.895530
-60.159597 95.673697 115.852987
-68.312389 96.815471 115.738243
-57.268784 96.023506 116.450878
-62.684885 96.533375 116.235714
-65.674665 97.047958 116.593232
-70.969587 97.778535 116.077596
-77.010535 90.914403 111.518858
-79.919101 91.682525 111.545322
-82.322791 92.359835 111.418421
-74.752392 92.321527 112.611321
-77.664276 93.102378 112.634963
-80.038656 94.154667 112.726129
-82.398896 95.583676 113.034697
-75.621617 95.500567 114.040230
-79.351552 95.871566 113.678073
-83.055361 97.387092 113.955032
-77.036827 96.840345 114.586974
-81.485672 98.675788 114.915416
-75.465975 98.113045 115.548232
-78.334715 98.465302 115.395381
-101.705435 94.835353 105.406035
-96.857313 95.914059 106.295789
-100.388625 96.402484 106.257765
-94.274209 97.086081 106.932555
-98.334308 98.479003 107.465335
-96.427865 99.091893 107.769959
-93.769779 98.999157 107.811472
-99.199894 100.477736 108.311614
-94.511607 101.285968 108.916491
-101.410920 102.133735 108.928386
-97.159696 102.567062 109.512724
-94.337390 103.520124 110.249956
-99.021163 104.310698 110.492794
-141.524867 30.443555 54.722047
-136.891196 31.333585 56.993546
-142.101268 32.137809 56.288466
-140.010404 32.373699 57.105846
-134.983206 32.902569 58.952621
-143.952636 34.906806 58.471864
-139.381971 34.642869 59.466142
-141.812691 35.105412 59.307951
-137.354609 34.918872 60.250727
-133.706163 35.000196 61.214613
-131.795143 35.354109 61.945528
-143.307302 37.171416 60.846353
-137.949172 36.629082 61.806592
-141.188432 37.382207 61.669386
-135.973616 36.940259 62.564321
-131.316292 37.726300 64.223556
-141.983058 39.253573 63.138409
-136.677594 38.738253 64.068049
-134.211742 38.618477 64.448562
-139.923432 39.504988 63.930966
-146.568367 28.630820 51.015874
-144.370282 28.410602 51.682532
-149.229022 30.845141 52.189044
-146.928354 30.548838 52.899983
-144.143624 30.650863 54.260544
-149.472889 32.677367 54.134901
-144.076601 32.196371 55.734606
-146.748889 32.830965 55.460984
-148.291437 34.928975 56.981806
-146.201546 34.787178 57.584300
-151.040441 37.223468 58.133907
-148.673870 37.261126 59.071749
-145.976999 37.815347 60.583852
-149.499709 39.158378 60.536926
-147.295492 40.528949 62.635912
-123.766389 43.488558 70.563350
-126.239551 45.236627 71.606116
-124.116977 46.558072 73.047235
-121.832100 46.542282 73.342919
-126.393576 48.930693 74.603158
-120.972303 48.948159 75.394884
-123.924260 49.545897 75.392753
-117.629740 49.962839 76.613853
-126.375007 51.287233 76.459261
-120.185211 51.413512 77.412617
-129.972184 38.948300 65.494077
-145.010328 40.614894 63.531031
-128.201843 39.014762 65.949489
-134.924053 40.424415 65.947697
-132.439136 40.282511 66.336212
-140.735197 41.392040 65.392548
-138.133311 41.171305 65.829115
-128.169618 40.576092 67.394063
-143.652062 42.674177 65.840155
-130.352744 41.265452 67.557524
-138.831543 42.969313 67.343192
-136.274685 42.776941 67.757588
-132.073639 42.748997 68.563942
-134.393735 43.153246 68.464026
-127.233734 42.930478 69.486464
-130.167178 43.484870 69.491278
-143.193352 45.088285 68.129158
-137.092031 44.671211 69.214856
-132.130433 44.387252 69.972557
-141.240044 45.420944 68.864129
-145.680937 45.995071 68.177305
-134.843659 45.924315 70.714630
-137.194062 46.350877 70.608804
-129.183027 45.805934 71.609255
-130.764172 45.981129 71.458008
-145.810543 47.704600 69.568742
-139.480156 47.112631 70.745282
-143.819274 47.618457 70.107721
-132.615796 47.186120 72.203831
-134.952603 47.608663 72.103853
-137.125951 48.286419 72.291870
-142.098681 49.348226 71.970894
-128.275402 48.187890 73.690979
-132.831999 48.956676 73.541675
-134.935099 49.583585 73.761513
-130.964068 49.330733 74.237456
-139.754482 50.537013 73.510630
-142.206507 51.039991 73.370896
-144.541289 51.836876 73.499030
-132.863602 50.970081 75.174862
-128.913665 50.722890 75.641355
-137.502164 51.791354 75.006789
-139.826899 52.199103 74.925075
-142.184827 53.021771 75.041738
-131.604853 52.261861 76.401132
-149.801103 41.432172 62.671172
-145.851379 42.527049 64.987783
-149.097415 44.057782 65.293353
-147.044397 43.934660 65.864318
-147.648047 46.055922 67.648379
-150.619609 48.160817 68.515355
-148.178918 48.515271 69.679974
-150.478443 50.449425 70.460694
-146.319925 50.147005 71.608915
-148.428828 51.935706 72.477499
-149.522729 54.063278 73.837691
-146.800514 53.751757 74.299345
-109.867688 65.115620 88.158802
-123.038617 51.936772 77.460176
-118.355250 52.567005 78.506738
-125.580628 53.759222 78.487432
-121.006027 53.709565 79.061105
-128.247731 54.900547 79.050085
-123.829995 54.600544 79.335211
-115.062217 53.997525 79.905199
-117.740007 55.173070 80.443589
-124.789927 56.234577 80.514389
-120.293201 56.240425 81.046974
-123.029750 57.064868 81.364977
-127.562103 57.468817 81.032216
-114.387430 56.549153 81.866997
-116.366506 57.508655 82.338002
-121.374425 58.369446 82.374707
-125.689775 58.995770 82.349283
-118.970430 58.625439 82.919892
-114.551399 59.053627 83.628882
-123.170994 59.950872 83.358347
-128.308808 60.498596 83.153184
-118.545566 60.224687 84.151775
-112.134132 60.059233 84.597833
-125.848418 61.117106 83.923754
-121.299294 61.074586 84.466191
-116.880621 61.510476 85.165158
-124.041515 62.693843 85.209421
-128.479511 63.026860 84.936408
-111.817642 62.133916 85.981817
-114.542605 62.588762 86.093893
-119.466163 63.009194 85.971678
-110.159461 63.019161 86.786015
-126.685549 64.228269 86.006248
-122.272924 63.905657 86.268581
-115.633328 64.345933 87.209566
-112.889692 64.267004 87.308371
-123.474655 65.361353 87.137961
-127.908275 65.698756 86.872191
-118.401305 65.614479 87.727883
-129.086566 52.458702 76.997820
-135.326807 53.100213 76.466430
-137.743856 53.589537 76.341861
-139.934656 54.283790 76.534641
-144.396096 54.904208 75.862448
-130.111369 54.141918 78.151807
-133.241341 54.475099 77.883780
-135.525869 54.863672 77.819854
-141.941780 56.007222 77.446937
-139.350412 56.169849 78.062861
-146.370909 56.991322 77.009317
-131.186328 55.476162 79.077524
-136.710630 56.285381 78.702933
-129.307006 56.615483 80.190095
-144.008585 58.173728 78.550085
-132.350910 57.277311 80.174372
-141.267510 58.218299 79.229220
-138.683735 57.989049 79.628830
-134.688187 57.714586 80.089341
-146.068004 60.336105 79.664577
-143.395888 60.045574 80.096221
-136.652297 59.415987 81.018339
-140.675316 60.102367 80.763785
-130.131683 59.316520 82.068486
-131.643547 59.444744 81.963003
-134.033622 59.929967 81.856395
-138.456343 61.381156 82.236928
-145.268417 62.852009 81.721864
-142.630737 62.583423 82.134794
-136.696474 62.241153 83.080308
-134.256183 62.111851 83.413444
-130.331327 61.868878 83.839905
-131.912317 62.055766 83.705447
-131.514497 63.301134 84.725633
-145.637687 64.769604 83.017894
-141.087305 64.452347 83.912552
-138.616456 64.306588 84.251958
-134.534959 63.948353 84.736739
-129.660322 64.459796 85.822092
-146.189401 66.441925 84.021976
-132.679367 65.113381 85.833229
-135.827219 65.470758 85.581486
-144.234471 66.761941 84.734913
-140.588181 66.812311 85.620018
-148.721748 55.791082 75.472741
-148.361440 59.092947 78.156920
-147.608680 61.650873 80.195217
-109.429890 67.872162 90.013353
-107.724180 70.669885 91.871386
-109.774795 70.936587 91.905233
-108.878662 74.068860 93.788577
-105.986660 76.582647 95.402279
-108.646431 78.198040 96.181642
-106.614457 78.332738 96.340530
-121.135238 66.456651 88.060568
-114.016118 66.057674 88.407404
-126.242295 67.005669 87.883121
-123.888881 67.703269 88.599980
-112.370855 66.957992 89.202941
-116.720172 67.278929 88.954682
-128.272616 68.396069 88.573476
-119.382204 68.067179 89.320082
-125.086542 69.553408 89.687642
-122.206014 69.380507 89.827661
-113.618394 68.856271 90.249535
-111.406878 69.638583 90.909253
-116.307339 70.070743 90.808386
-123.415834 70.849953 90.699650
-127.914920 71.253749 90.417606
-119.079867 70.958055 91.127661
-121.226455 72.071212 91.550844
-114.046120 71.603676 91.904129
-126.322334 72.623188 91.393980
-124.026940 72.972345 91.869624
-116.832106 72.511125 92.216154
-111.089970 72.508175 92.714794
-128.357265 74.026489 92.091231
-119.588281 73.781501 92.757476
-113.826803 73.382672 93.045293
-116.710522 74.377409 93.316000
-122.336221 75.040094 93.310038
-125.266429 75.261870 93.156711
-111.652672 74.590077 93.892632
-114.410191 75.089830 94.009401
-120.794667 76.441605 94.263173
-118.590512 76.456610 94.489155
-128.063566 77.343940 94.124210
-111.465888 76.398061 95.019061
-123.656911 77.403597 94.561335
-114.305413 77.366330 95.310620
-126.480018 78.326071 94.883592
-117.141401 77.929920 95.400637
-121.407669 78.573916 95.435202
-111.433678 78.342249 96.076923
-124.222265 79.893628 95.970561
-128.644170 80.245502 95.745049
-114.205130 79.650014 96.611710
-138.703800 67.572491 86.515194
-144.746966 68.404111 85.756761
-142.061172 68.086461 86.183093
-130.733989 67.382059 87.601154
-134.470460 67.872109 87.482857
-132.244938 67.909284 87.714299
-146.272654 69.719381 86.303371
-131.261436 69.035127 88.602984
-140.679014 70.088207 87.888599
-143.405527 70.446238 87.445903
-137.454895 70.072507 88.371488
-135.060497 69.974107 88.672913
-129.615550 69.971770 89.392717
-146.767038 71.748380 87.551898
-141.299204 72.219860 89.075503
-144.741574 73.201198 88.932192
-132.330175 72.358741 90.606743
-139.458341 73.015807 89.947739
-134.595836 72.755355 90.574576
-142.696637 73.835793 89.892936
-146.292133 74.543892 89.474019
-130.668821 73.284234 91.401585
-137.603935 74.192894 91.038834
-140.908419 75.076329 90.954258
-131.335495 75.061729 92.347130
-144.267717 76.394993 91.067021
-133.560996 75.429722 92.334960
-142.349250 76.733154 91.756117
-129.676164 75.986558 93.140201
-136.535719 76.847514 92.817121
-139.617249 77.552845 92.833650
-144.842374 78.898358 92.499927
-132.510869 77.694741 93.890129
-137.944068 78.483839 93.629786
-141.183361 78.920772 93.368317
-134.774309 78.492982 94.078869
-142.810408 80.339673 93.880002
-130.840693 79.407558 95.111263
-132.370671 79.564003 95.014764
-137.821941 80.373970 94.751551
-135.369843 81.014081 95.492229
-140.224946 81.681380 95.104559
-133.030315 81.343839 95.971692
-108.543019 80.080275 97.270355
-105.832955 79.993453 97.342112
