-36.4821889 39.4473076 83.6331099
-37.3688936 30.1853456 80.6209072
-36.4775807 48.3238474 86.3244385
-37.8163792 36.7629901 82.6427042
-37.2891463 46.0274257 85.5440199
-38.8088040 33.9373946 81.6455483
-38.9614217 43.5056426 84.5815763
-39.2594635 40.4508226 83.5916921
-40.1637852 31.1991405 80.5834830
-39.3819660 47.8193052 85.8200416
-40.6009480 37.7641432 82.5909376
-41.6016020 34.9342376 81.5794244
-42.0673490 30.2696005 80.0344944
-41.8320671 39.8235992 83.1138417
-41.8658443 41.9322699 83.7392136
-42.9588221 32.2091132 80.5391371
-42.0844480 44.6123034 84.4952539
-42.1148837 46.7152148 85.1337910
-44.3873741 35.9484628 81.5501437
-44.8677950 31.2721096 79.9725279
-44.4125608 38.0840153 82.2100565
-44.4398932 40.2068831 82.8546882
-44.5282497 46.5185642 84.7358257
-44.5644967 48.5911183 85.3181407
-44.9993163 43.0245772 83.6184844
-45.7637161 33.1875794 80.4305300
-46.8291529 35.7203558 81.0989663
-46.8512326 37.8562845 81.7570239
-47.5782417 41.3010158 82.7336535
-47.4545173 44.9077561 83.8019699
-47.4735163 47.0230766 84.4649971
-49.9732606 34.6449390 80.2475959
-50.0094257 38.9161408 81.5586224
-50.0351526 41.0208516 82.1662620
-50.0410609 43.1743562 82.8877240
-50.0692688 45.2599972 83.4771767
-50.6963953 37.0134898 80.8472484
-50.1013510 48.4049469 84.4170004
-34.7131528 26.4886692 79.7286183
-35.9737203 29.6701584 80.6230158
-37.8425233 27.7014989 79.8272789
-39.2627791 29.2763431 80.1163986
-39.9322584 27.3651984 79.4293657
-42.9203101 28.9703682 79.5257315
-53.2019697 68.5602799 89.2688632
-55.2651212 68.2229027 88.8087824
-55.6468070 70.3163743 89.2673954
-58.2670420 71.5995729 89.0557989
-58.9095913 68.8556656 88.2709771
-61.0168912 70.4812109 88.2537439
-61.2460189 72.9614869 88.7406617
-62.4910481 74.7964457 88.9213458
-64.8619235 70.6048682 87.4191150
-64.7452548 74.9930590 88.5239840
-65.0785938 73.1041282 87.9454091
-49.7095622 66.4863288 89.4027203
-51.0448664 54.3822087 85.9787390
-51.0789268 56.4172752 86.5171850
-51.5335090 50.9122387 84.8488137
-52.1968901 49.0964390 84.2638090
-51.4939912 60.5842918 87.5616819
-52.1556772 58.7861873 86.9687721
-52.5736213 62.9251227 87.9749358
-52.4544455 65.3487518 88.5764509
-53.5133742 56.1576374 85.9705806
-53.9896339 52.7425259 84.9456489
-54.1034639 60.8910099 87.1376693
-55.3557947 50.0936992 83.9483887
-55.4520786 58.3006665 86.2091705
-55.1820099 63.2286221 87.5428095
-55.2362129 66.2181824 88.2792100
-56.4587936 54.5284487 84.9518105
-56.4795882 56.5817170 85.5264813
-56.8848066 60.7432984 86.5527391
-57.8183644 49.7974269 83.3321735
-57.8224733 51.9027822 83.9935243
-57.8109249 64.5265654 87.3480886
-58.5966185 58.2432002 85.5488330
-58.5327074 66.7539239 87.8040045
-59.3295917 60.4653209 85.9585851
-59.3462847 62.5044554 86.5312591
-59.9789061 55.5876754 84.5012069
-60.4877397 53.1743765 83.7138891
-61.5177974 50.4125766 82.7495828
-60.4323857 64.8066178 86.8621469
-61.0461906 57.9667836 84.9619955
-61.1598380 68.0434033 87.5961185
-61.7978610 62.2133985 85.9050602
-63.6493117 52.0724356 82.7430785
-63.6605471 54.1358814 83.3217055
-63.6752620 56.1847389 83.8793516
-63.5242686 59.7065203 84.8798603
-64.3461123 50.2157100 82.0717365
-63.2446706 65.6241551 86.4442065
-64.6151081 63.0348995 85.4925886
-66.3057715 52.3348972 82.2202712
-65.0133118 68.1598485 86.7485479
-65.5230209 65.7946765 85.9917030
-66.3310364 57.4692003 83.6323351
-66.3496926 60.5248958 84.4570622
-67.7182451 49.6389680 81.1349750
-67.3747361 54.7133908 82.6549381
-52.6363254 39.2708667 81.2377855
-53.3219948 35.2082476 79.8242688
-52.6962504 46.6577113 83.4565982
-53.2012545 44.2001633 82.6250464
-53.7099428 41.7286530 81.7801505
-55.2639738 37.4679342 80.2084431
-55.6307025 39.7044718 80.8126479
-55.3359576 48.0165705 83.3552405
-55.8512844 45.5470160 82.4916735
-56.5422252 43.6667651 81.7977116
-57.7471554 39.3125042 80.2814811
-57.5894155 41.8895967 81.0606703
-57.7951446 47.7358662 82.7756077
-59.8933697 43.1263857 80.9566155
-59.7256571 45.7085557 81.7693248
-60.5906397 41.2414670 80.2670941
-60.4372956 48.0323024 82.3292062
-61.8477203 45.3004502 81.1937228
-63.4471923 43.1271493 80.1658258
-63.6339635 47.9109474 81.5439597
-64.6909475 45.0868607 80.4880336
-65.7502934 47.5254916 81.0124427
-67.3599169 43.2446785 79.3493837
-67.3634261 45.3410186 79.9495429
-65.9903735 75.8076161 88.3845240
-67.2963336 68.3163777 86.2630084
-67.1534166 70.7344487 86.8713930
-68.0727437 74.4387135 87.5654891
-70.1517686 72.0776096 86.5035728
-70.6430748 69.7819814 85.8831033
-70.0432062 77.4170533 87.7824277
-70.3542158 74.5902508 87.0636925
-71.9629899 76.4872581 87.0990679
-72.8139281 73.2853785 86.1128047
-73.1662735 71.3716075 85.4935870
-72.6894066 78.6368027 87.4289349
-73.1733888 75.3780082 86.5801647
-74.1975754 68.7069148 84.6231133
-74.4237155 76.1875808 86.4251778
-74.2945746 80.5259198 87.4602869
-75.2986297 73.9463568 85.6229439
-76.1497691 70.7514659 84.6792832
-76.0192275 78.1075805 86.5153670
-77.0560130 75.4579455 85.6324658
-76.5900165 80.6496367 86.8875533
-78.4796476 72.8342906 84.5443457
-78.3253387 76.2303695 85.3901953
-79.1929737 70.0172558 83.6089998
-78.5193369 79.7201470 86.1954167
-79.4052854 75.4880533 84.8490298
-79.2505965 81.8405673 86.4670873
-80.8137134 75.8958533 84.6359208
-81.3333392 73.5803619 83.9580595
-81.1722726 77.9684931 85.0628391
-82.2225884 71.3283718 83.1544325
-81.9102973 83.0351859 86.0544890
-82.2487622 80.2069604 85.3063464
-67.4409270 63.8403073 85.0434899
-67.9316521 59.4603047 83.8089436
-68.0050179 66.4688274 85.5321884
-69.5017129 52.2252060 81.4515725
-69.3439618 56.7856990 82.7189311
-69.1762567 61.3448098 84.0366036
-70.5799386 49.3905880 80.3462341
-70.3960359 54.0234596 81.7356706
-71.6676712 55.8652654 81.8444937
-70.9854215 65.8442155 84.7222358
-71.6722384 59.9662364 82.9820707
-72.3556280 53.0288704 80.9857547
-72.0220953 58.0269359 82.3736489
-71.6789737 63.0198792 83.8147551
-71.3622198 67.9241344 85.1237774
-73.4451562 50.1849055 79.8568428
-73.2812211 61.9258918 83.0946416
-74.5206103 52.5469892 80.2361518
-74.1649643 57.5856864 81.7017779
-74.8773217 54.7079816 80.7434618
-74.5157972 59.7445481 82.2317749
-74.3507892 64.2510802 83.4577084
-74.1832331 66.7158440 84.1374844
-77.0545974 51.1203967 79.1193843
-76.6709819 64.3636808 82.8730762
-76.6841769 66.3579404 83.3515972
-77.5782317 55.9208430 80.3270414
-76.6894594 68.3645606 83.8679597
-77.3847103 60.4964495 81.6547796
-77.3935840 62.5092462 82.1538642
-78.6559656 53.1370938 79.3121830
-78.4643218 57.7184632 80.6177557
-79.7500908 50.3151864 78.2364458
-79.9176842 55.0036058 79.4626027
-79.5428231 60.0358583 80.9343532
-79.1936666 65.9929588 82.5499147
-79.1778639 68.0411085 83.1551701
-79.7251314 62.6116097 81.5465674
-81.2015831 52.7309105 78.4481540
-81.5881193 49.6941507 77.4675310
-81.1690390 58.9187555 80.1755935
-81.5155357 68.1218281 82.4936107
-81.8862021 64.1673803 81.3324377
-82.6243684 56.2156327 79.0399611
-82.9834789 58.3442375 79.4874206
-82.9717889 61.4058301 80.3092197
-84.0931162 53.4859188 77.8678656
-68.4333369 47.7478877 80.4046616
-70.0424463 46.6342755 79.6941593
-72.1945539 48.2707061 79.6171874
-75.0693232 49.0530171 79.1000053
-78.8579062 48.5069975 77.9549554
-82.9551220 75.4576102 83.9310661
-83.8388726 70.2389479 82.4170038
-83.2982212 77.5607377 84.4231695
-83.8666335 82.0674151 85.2658525
-84.9273503 72.4802911 82.6228634
-84.5813826 84.2085555 85.5914280
-85.4613110 75.1060471 83.1378326
-85.2752402 79.5188099 84.3077153
-85.6277123 76.6614228 83.5239589
-86.3465369 81.7593113 84.5586434
-87.6205191 70.6836358 81.4337656
-87.4341950 74.1224885 82.3423192
-87.0906115 85.7940763 85.2144063
-87.7839699 79.1631564 83.4952816
-88.1452560 76.2943327 82.6919377
-89.4061998 77.0952776 82.5088546
-89.0542939 83.8534608 84.1906518
-90.1451483 72.3031312 81.0926333
-90.1487693 74.2723048 81.5410167
-90.4983506 76.3541684 81.9697231
-90.1030153 81.2425241 83.3707526
-90.1367888 86.0540196 84.3654647
-91.7753056 77.1261901 81.7182213
-91.7591900 79.1198537 82.2459161
-91.5582180 83.5140944 83.4050104
-93.0269435 75.9854540 81.1328813
-93.7997252 71.1399093 79.6185955
-93.7647521 73.1819868 80.2234337
-93.1835175 81.4608037 82.4278221
-92.8249210 87.2053057 83.8456005
-94.2774117 78.7715092 81.4493969
-94.2541137 84.6630335 82.8742981
-94.9974284 86.7326707 83.0311403
-96.3134319 74.7572929 79.7794610
-95.8813950 82.6182961 81.9118768
-95.3463614 88.7737945 83.4245011
-96.6580063 76.8395290 80.2040026
-97.2601622 72.4443719 78.8447708
-96.8325809 78.3620030 80.5113837
-97.1833766 80.4211721 80.9008554
-96.9692767 84.8113373 82.0524618
-98.6869261 74.8092905 79.0361688
-97.5005180 88.3425847 82.7035606
-98.2556343 82.6512128 81.1146647
-99.4218141 76.9233555 79.2410001
-83.8438272 66.2264526 81.3909620
-84.2149928 68.2968646 81.7591995
-85.3442252 57.4013740 78.5586908
-85.3130296 61.5091771 79.7023326
-85.3174701 63.5121465 80.1771283
-85.6897756 59.5508851 79.0555030
-86.6351426 55.1410392 77.5603950
-86.0158876 65.7501817 80.6217715
-87.3897970 52.2170775 76.5347555
-86.1810520 68.3266670 81.2646449
-87.6984373 59.5130958 78.4181803
-88.0788043 57.5489588 77.7711496
-88.0332664 61.6744868 78.9500773
-88.3579925 67.8454563 80.4791600
-88.9294446 64.4258782 79.3879926
-90.1205465 53.4110144 76.0594383
-90.2775675 56.0377352 76.7273754
-90.0806412 59.5509596 77.6659921
-90.1758149 67.2782063 79.7851160
-90.9657553 62.3324029 78.1532675
-90.8918530 69.4603845 80.1185295
-92.4881771 55.5219091 75.8933052
-92.3772305 65.7688975 78.6980167
-93.2045057 57.7426665 76.2476400
-93.3511481 60.3687689 76.9385025
-92.7172676 68.8848868 79.4014782
-93.6773121 63.5333657 77.7067095
-95.0838476 55.0648794 74.9083608
-95.2124447 59.7370230 76.1189684
-95.1140597 66.9086352 78.1184286
-95.9153920 61.9674735 76.5135288
-96.8933702 57.5616322 75.0195011
-96.7881829 64.7550970 77.0215392
-96.3751823 69.7151199 78.4174129
-97.6022258 59.7859733 75.3869191
-99.4663462 59.1642670 74.5904371
-98.7744853 68.7413439 77.3778409
-99.1587341 66.8160990 76.7798498
-99.5991379 61.7987923 75.3007978
-99.5771289 63.8288409 75.8220553
-104.0678546 91.6965306 81.1792389
-107.7315286 91.5304422 79.8877403
-110.6887311 93.0794850 79.1057721
-113.8425395 94.1779837 78.1376585
-99.3698835 79.9454898 80.0955817
-100.3597528 73.6638010 78.1619176
-99.5073318 86.3679051 81.5907568
-100.0864506 82.0774809 80.3673565
-101.6880721 72.3983645 77.3074999
-100.7955372 84.2163414 80.6651935
-101.6278043 75.4478350 78.1843439
-102.1358743 78.0858994 78.7215158
-101.5024483 90.1974961 81.7725137
-102.2420302 87.4589384 80.9165910
-102.8237268 83.1801668 79.7148123
-103.2273397 80.2882537 78.8502544
-103.6430672 77.3653686 77.9375434
-104.2446867 73.9824027 76.8689886
-103.5405546 85.2995515 79.9684897
-103.3330560 89.6293819 81.0177848
-104.9161628 78.1592056 77.7277648
-104.6733782 82.5858712 78.9173245
-105.5736765 72.7287084 76.0412589
-105.8754399 75.8593157 76.8097490
-104.9875692 87.5759721 80.0110996
-105.3758413 84.7325101 79.2292207
-106.0130373 80.3518295 77.8292939
-107.3551476 78.1145170 76.7503232
-106.4472869 89.8218155 79.9899399
-107.2383374 84.1223523 78.3897266
-108.3347797 73.8389343 75.3864273
-108.7522134 81.4765915 77.2175491
-108.5235700 85.8467147 78.3027485
-110.1551577 76.2369707 75.3500909
-110.2914214 79.7522813 76.1486441
-109.4031483 90.4211551 79.0320933
-109.7913682 87.5972211 78.2827064
-110.1969182 84.7351849 77.4655268
-111.1812890 72.8553981 74.0158781
-110.8689755 78.3807710 75.6130219
-111.1785769 82.4262053 76.4877573
-112.4765128 74.5995194 73.9270151
-111.2665683 89.8199379 78.1964734
-112.0329499 87.0616883 77.3130357
-112.3527139 91.9930637 78.2995671
-113.4286672 81.8852037 75.5201131
-113.3736745 84.8608389 76.2799308
-113.8872877 78.9199471 74.5136142
-113.1419018 89.2045572 77.3283839
-114.3013760 76.9918561 73.8720447
-115.1117459 75.0967786 73.0240867
-114.2306924 91.3758352 77.4202794
-100.0407338 70.5446079 77.4269029
-102.2329926 60.2936856 73.9692748
-101.5654579 68.8019097 76.3720721
-102.0076722 63.8046041 74.9188662
-101.9755527 65.8451542 75.4713789
-104.3021530 60.1871386 73.1709525
-104.4451669 62.7882034 73.8060921
-103.9284468 70.8679706 76.1495605
-104.3678522 65.9002438 74.7419372
-104.3445468 67.9141805 75.2428025
-105.9976220 69.7715729 75.1148909
-106.6996008 62.2327067 72.8628710
-107.0273146 64.3715858 73.3357519
-107.6912731 59.8425716 71.8488842
-107.3513851 67.4925894 74.0124732
-109.1525406 62.1974617 71.9323307
-109.1064289 65.2407259 72.6998374
-108.7587178 70.8938092 74.4828582
-110.1614907 68.5377270 73.1999204
-111.1924425 64.1357824 71.6692880
-111.6488576 62.0913506 70.8410814
-112.0639592 66.9018775 72.1151382
-113.1202057 70.1855570 72.5914687
-114.4581139 63.1733984 70.0994283
-114.5247072 67.8428784 71.3484734
-114.2027453 72.4339336 72.7663338
-114.7798002 65.3119311 70.5655962
-115.6269833 70.0647011 71.4476556
-116.6872606 65.6437203 69.8688552
-116.0903871 92.6944688 76.9747421
-117.4050868 95.2987447 76.9146234
-119.0943271 93.1182802 76.4882267
-118.9066470 97.2014368 77.8994933
-115.6492457 84.2824057 75.2155930
-115.3845340 88.6787027 76.3756931
-116.0966232 81.3512728 74.2732659
-116.8534011 72.9148984 71.8253031
-116.9463545 77.4725601 72.9276463
-116.9441938 86.9516805 75.2629042
-117.6784337 79.5796141 73.0989724
-118.3428243 75.1744956 71.7389286
-118.3208749 83.7502554 73.9633888
-118.7663227 80.8269009 73.0492547
-118.0050448 91.0796896 75.8065507
-119.7125837 88.8662040 75.3271654
-120.2718168 85.6490210 74.5737776
-120.9604591 76.5660107 71.7213601
-120.7109988 79.9990743 72.6031363
-121.3946864 73.6457929 70.8748251
-120.7321286 82.7143937 73.6174062
-117.0144528 67.7629262 70.3008920
-118.1247085 63.2472709 68.5399994
-118.8296676 65.4470846 68.8494444
-119.4709986 69.6994737 69.7473511
-119.4316372 71.7116967 70.2439621
-120.1755628 67.1328679 68.5872734
-121.5655878 69.4738626 69.5347190
-122.0369861 63.6549294 67.4387217
-122.0591441 66.4277524 68.4583336
81.7330927 -141.1091685 -23.5638451
79.8178017 -140.1445717 -24.0316708
78.7084028 -141.1757171 -24.6629305
77.7558684 -139.8577094 -24.8286929
76.1032626 -139.6597922 -25.5192071
40.9884229 -61.1347184 37.3328626
68.1289136 -137.0453238 -27.8833974
62.8843606 -135.5996728 -29.6123307
60.7704259 -137.1280998 -30.7967085
58.4174097 -136.2171322 -31.6225477
57.0588410 -134.6896887 -31.7041650
25.0693578 -32.8756906 56.7976609
23.1057517 -31.0079418 57.9533838
21.1852659 -30.4856040 58.4280118
20.4122607 -33.1880488 57.3081076
19.5826460 -28.8487021 59.4189093
31.7829698 -41.9030339 51.2309708
30.6451339 -44.5889421 49.9592237
29.7649372 -38.4994522 53.3556789
28.6426265 -41.0514288 52.3063242
27.6407730 -37.0910466 54.4182882
27.5008753 -43.7209643 51.0591567
26.1600036 -39.4138210 53.5269007
26.0282792 -35.3737362 55.5319898
25.4160818 -43.6454043 51.4786430
24.7737225 -46.0205413 50.2606705
23.9937510 -36.6880670 55.2014150
23.8001347 -41.8981388 52.6217185
22.6476416 -44.5671901 51.3806827
22.4995688 -39.0611663 54.2168207
22.3767888 -35.0468382 56.1778359
21.7110831 -41.8845080 52.9294573
20.8848808 -37.3926796 55.2342050
20.5536392 -44.5562005 51.6836978
19.7451413 -39.9492308 54.1705117
19.2736033 -35.7388854 56.2310815
40.0768556 -59.5372990 38.6447087
38.9455631 -57.2247505 40.2156264
37.9722491 -59.2955202 39.3578112
37.3536348 -61.6733395 38.2161178
36.7913209 -55.5747300 41.6516960
36.0177197 -53.6466464 42.8055748
35.6614254 -58.2282506 40.5185074
35.2386124 -51.7923459 43.8354537
35.2897681 -62.9489645 38.0307585
34.6869528 -60.2650344 39.7249088
33.6573236 -56.0744479 42.0803167
32.7140614 -50.1413867 45.0424440
32.5253643 -58.6939082 41.0100259
32.3092453 -62.7359897 38.9573090
32.1596079 -53.7287891 43.4774682
31.3771889 -51.9489050 44.3740226
31.1819166 -60.5031326 40.3712355
31.0277175 -56.3330725 42.4212664
29.5268279 -58.7290078 41.4992496
29.1075818 -52.5108725 44.4205590
28.3185299 -64.7830963 38.7160331
28.2253884 -61.9539693 40.1401669
28.3266883 -50.7617854 45.2664681
27.9791392 -55.0492294 43.4750281
26.5683681 -60.2114163 41.2070006
26.4758002 -57.4312769 42.5712317
26.0569081 -51.3344556 45.2925526
25.2596606 -63.4328797 39.8642011
24.9190312 -53.9031550 44.2870706
23.7370841 -65.8766851 38.8938934
23.6006025 -61.7212430 40.8711918
23.5143937 -58.9363426 42.2350541
23.4161913 -56.2506057 43.4392802
22.8985455 -52.0910956 45.2579707
22.0802817 -64.1372055 39.9412438
21.5790141 -59.8246083 41.9626050
21.4955229 -57.0613295 43.2988033
21.3947482 -54.4294044 44.4176383
20.5470547 -66.6127875 38.9194675
20.4206798 -62.4552593 40.8938341
38.4652838 -64.1800091 36.3252722
36.0505059 -65.0561005 36.6001390
35.2888703 -69.7781369 33.9292474
33.3409160 -68.8177347 35.1282395
32.8560397 -70.7143992 34.1088437
32.5888470 -66.6524842 36.6436802
31.3207246 -64.8326278 38.0777195
30.7136420 -68.8327104 35.9020382
30.4231029 -71.6394410 34.3091898
28.9278738 -67.3283935 37.2900739
29.0850345 -75.1213282 32.5917825
28.3405781 -72.9158595 34.1485031
27.5333952 -77.7648985 31.3359573
27.0354282 -69.5954561 36.3997258
26.7974436 -67.2479123 37.7156027
26.9066244 -71.7286766 35.2199562
26.4231842 -73.5395998 34.3606770
26.2812320 -75.7730454 33.0249630
24.7416142 -70.1060146 36.5571342
24.7454066 -80.0255686 30.7722725
24.1250917 -74.0274563 34.5616192
23.6295294 -75.8969709 33.6098224
23.1337324 -77.7619183 32.6728970
22.6414930 -71.5059638 36.1773595
22.5662217 -68.6112866 37.6764871
21.4614049 -74.2737353 34.9340402
20.9707953 -76.0809854 34.0906270
24.0691043 -82.6378763 29.3301754
54.2305335 -135.7562840 -33.4364101
11.9789727 -18.4061937 64.5770058
10.1809846 -16.2528157 65.5578822
9.9069159 -18.5305998 64.6271855
9.5976945 -14.1309248 66.4744154
7.8375358 -18.6386742 64.7079125
7.6073059 -16.6969597 65.5268878
7.3717302 -14.7929648 66.2834495
5.9567499 -19.4776896 64.4454882
5.3055338 -14.9130998 66.3404465
5.0248285 -17.1782225 65.4269755
5.0767823 -12.9969856 67.1271458
3.5972081 -9.9070799 68.3597401
3.0132202 -19.7929814 64.4074380
2.6214749 -11.7629617 67.6885992
2.2416604 -16.9880185 65.5626655
2.2094185 -9.1471169 68.7890500
1.8307299 -14.3410508 66.6904747
1.6243523 -7.1345014 69.5309862
1.0238787 -10.3924572 68.2439059
17.9686341 -27.3141153 60.2269471
17.7310258 -25.2891853 61.1629821
17.5460149 -30.1969666 59.0069927
17.4941774 -23.2716277 62.0945729
17.2691569 -32.6028131 57.9119138
16.1292311 -35.1243243 56.8851680
16.0915982 -28.1065702 60.0666851
15.1846819 -32.6683521 58.0748394
15.1533848 -25.6722588 61.2545498
15.1913948 -21.3307738 63.1750971
14.9583090 -30.5822343 59.0990297
14.9180507 -23.6678775 62.1597879
14.5892324 -19.2410890 64.0076771
12.6196947 -34.3952365 57.4997216
12.3736411 -25.3563467 61.6201572
11.9699510 -29.5398775 59.7793199
11.7439236 -27.4965744 60.7388318
11.7083210 -20.6881128 63.6494309
11.4290807 -23.0201185 62.6406297
10.8161299 -32.0849530 58.6929023
9.5397606 -36.4337116 56.8804145
9.3112225 -34.3968384 57.7967502
9.6327765 -20.8121706 63.7010410
9.1835335 -29.2177293 60.1542182
8.5273571 -24.5242417 62.1895641
8.2499608 -26.8243290 61.2600036
7.8337295 -31.0090166 59.4315864
7.3804390 -33.9432471 58.1424013
6.7286580 -22.3393012 63.1998554
6.4425291 -24.6629715 62.2156747
6.0276440 -28.7985764 60.4578182
5.9293252 -31.8930335 59.1109730
5.3388793 -36.6717800 57.0140816
4.2314860 -26.5755598 61.5176745
4.1697370 -24.0571294 62.6017004
3.5313722 -34.4292521 58.0719635
3.5840585 -28.7371129 60.6039092
3.2420033 -21.7188578 63.6318848
2.9385763 -30.8853332 59.7250722
1.7830107 -26.5608616 61.5777336
1.1360325 -28.6993925 60.7065447
0.9310936 -36.2425335 57.3480316
0.5344359 -33.4272869 58.6703233
0.5096441 -24.0065958 62.7439842
0.4516382 -21.5156227 63.7907833
18.5877625 -42.5973311 52.9560968
17.7765805 -38.0801000 55.2996323
17.4216051 -45.2796556 51.6956337
16.9779174 -40.8987403 54.0149808
15.8125274 -43.5577594 52.7866483
15.0079327 -39.0540361 55.0958849
14.9911884 -46.4903712 51.3318144
14.7856893 -36.9154178 56.1858565
13.8560180 -41.6108184 54.0415645
12.6928780 -36.9886532 56.3358404
12.4066593 -39.4120663 55.2455634
11.8221631 -45.8622798 51.9969277
11.2612173 -43.4160084 53.3601120
10.3390859 -40.8195145 54.7590703
8.8456729 -46.0346416 52.2374585
8.7334458 -39.1895212 55.7002239
7.9303999 -43.4062667 53.6786430
7.2678979 -47.1903086 51.7088696
7.0042638 -40.8731438 54.9629927
6.9517642 -38.2138379 56.2238283
5.4957992 -46.0906439 52.4385497
5.4613496 -43.3275662 53.8556203
4.1052564 -48.0199270 51.5364110
4.0007508 -39.8010276 55.6752160
2.4463546 -42.2861949 54.5071252
2.4706682 -45.0600423 53.0648865
2.3867444 -38.2685624 56.4427860
0.9066275 -47.5647412 51.8909618
0.8348038 -40.7275259 55.3138107
19.8930707 -52.3010641 45.4346500
19.6058452 -59.2985079 42.4131192
19.5201989 -56.5812029 43.6709262
18.8911594 -64.8923963 39.9307981
18.0148594 -54.4749498 44.6393639
17.5834969 -57.4810617 43.3737412
17.1943568 -61.8418232 41.5139385
16.0993375 -67.2621652 39.1166098
16.3570270 -52.9202707 45.3981832
15.9318149 -55.8609813 44.2391001
15.6584848 -64.2843395 40.5386798
15.1737835 -60.0038208 42.5013527
14.0002212 -62.6500398 41.4068401
14.0621243 -53.6059588 45.2265330
12.8586804 -66.6759983 39.6837257
12.7890883 -58.0080189 43.5264707
12.6193054 -64.5298958 40.6601205
12.5050340 -60.4734160 42.4732044
12.1718533 -55.7882115 44.4231927
11.1255068 -62.3407848 41.7403206
11.0386815 -53.8983792 45.2581607
10.1608941 -59.8105527 42.9167598
9.7104404 -57.0183024 44.0551154
8.3424188 -58.8063225 43.4490740
7.8469440 -54.7721125 45.0213365
5.6681149 -59.3076721 43.3644801
5.5849887 -56.7416288 44.3527251
4.9684672 -54.5880683 45.1369025
2.3316846 -56.4026311 44.4943234
19.4083098 -70.7567856 37.0227955
18.2228517 -73.5164359 35.7895792
17.7553445 -68.9812452 38.1157957
16.5672339 -71.7380494 36.8777029
-4.3591782 -3.1207558 71.0775107
-6.9405413 -3.6741698 70.8233267
-6.9962242 -1.3127616 71.7356503
-9.0120034 -3.8748791 70.7221627
-9.2807747 0.3195867 72.3166391
-9.3374364 2.6452939 73.1810927
-11.3062197 -2.2665018 71.2478459
-11.3571631 0.0783238 72.1347556
-11.7596770 2.5607669 73.0454251
-11.8049020 4.9085598 73.9643648
-13.3864824 -2.5035758 71.0761622
-13.7853920 -0.0074840 71.9977841
-13.8251530 2.3572212 72.9349032
-14.2314164 4.7971536 73.7751573
-15.8243980 -2.6059800 70.9085986
-15.8656407 -0.2518017 71.8105733
-15.8371143 7.2166068 74.6028647
-16.2501093 2.2737118 72.8013888
-0.0570945 -15.2177243 66.3491338
-0.4812436 -19.2514304 64.6952614
-0.4710096 -12.6171326 67.3996359
-1.5601644 -10.9182354 68.0524856
-1.7816083 -9.0288669 68.8049495
-2.0013822 -7.1405903 69.5636719
-2.7884822 -17.5117776 65.4156581
-2.5820918 -5.1437849 70.2837184
-4.1303756 -20.5633994 64.0881360
-4.0679439 -15.1015613 66.3619637
-4.1231462 -12.6725230 67.3410892
-4.3644146 -9.5514264 68.6179996
-4.5857225 -7.6837582 69.3347454
-5.2062515 -10.9643862 68.0106878
-5.9181051 -18.4564125 64.9703145
-5.9606521 -15.9722790 66.0339892
-6.2103020 -12.8898099 67.2142804
-6.3709775 -5.6864447 70.0676814
-6.9299545 -20.4096884 64.1555190
-6.6103125 -10.2912243 68.2733506
-7.1801790 -8.2596028 69.0447614
-7.8077344 -11.5432944 67.7201599
-8.3917314 -17.2834918 65.4025450
-8.9569781 -15.2077870 66.2246794
-8.9589665 -6.2416643 69.8139146
-9.2084967 -10.8557642 68.0089816
-10.0914463 -20.1224219 64.2203763
-10.9057948 -13.6836804 66.8054298
-10.9962253 -8.8651991 68.7144324
-11.3900946 -16.5136345 65.6013414
-11.3981254 -6.3337339 69.6681291
-11.9818104 -11.9711766 67.4785227
-13.1004825 -19.3683337 64.3857196
-13.3906389 -11.3219041 67.6944181
-13.4339174 -8.9270007 68.6273798
-13.3449305 -4.8824353 70.1386109
-13.8568580 -15.3410006 66.0373345
-14.1206626 -21.3066563 63.6042356
-14.6062756 -12.6151098 67.0674592
-15.2387284 -17.1455834 65.2366281
-15.6955458 -22.4308167 63.0708933
-15.3827462 -7.4689570 69.1024438
-15.7821681 -4.9649677 70.0103417
-16.2217114 -10.0912359 67.9996014
-16.9612709 -20.0110357 64.0062243
-17.2235165 -13.2128829 66.7448267
-17.2424614 -12.0132035 67.2081783
-17.5524335 -15.5118043 65.7640398
-18.1759745 -22.5587133 62.8663599
-17.8358331 -7.5934180 68.8956901
-1.2675619 -31.2299803 59.6604720
-1.9332231 -33.4389322 58.6833023
-1.8086615 -22.2616345 63.4564981
-2.0226273 -28.3067655 60.9621517
-2.5965241 -35.6326886 57.7446856
-2.5979069 -26.1768214 61.8353039
-3.7990757 -38.2656045 56.5356798
-3.7317034 -31.2437285 59.6692599
-4.3953317 -33.4216170 58.7492175
-4.7115604 -35.8204879 57.6869398
-5.0100838 -28.7227519 60.7473478
-4.9189953 -24.4368482 62.5303909
-6.5165176 -33.6518250 58.6130284
-6.7172237 -31.6147245 59.5403761
-7.5278943 -36.9612016 57.1777709
-7.3335017 -26.9767102 61.4441000
-7.2367657 -22.7103047 63.2065684
-9.0421122 -29.8530515 60.2551885
-9.3617598 -32.2180726 59.2368022
-9.8640611 -35.1963155 57.8788370
-9.6532283 -25.2428539 62.1242598
-10.9159267 -22.7469355 63.1877780
-11.1628864 -30.0961956 60.0929111
-11.7221335 -27.9468913 60.9918125
-12.1820625 -33.3796330 58.6805716
-12.4877766 -23.8695759 62.6605824
-13.1035643 -31.0746785 59.5994331
-13.5186445 -25.8571003 61.8077554
-15.2604934 -28.8138986 60.4653805
-15.4912863 -24.3592933 62.3049214
-16.8470964 -29.9575366 59.9161312
-17.4295474 -25.3342148 61.8050583
-18.1185715 -27.5118649 60.8598888
-0.5433037 -43.9999811 53.7462346
-0.6030773 -38.6011079 56.3902408
-2.1469989 -42.4038135 54.6147265
-2.1861864 -39.7696979 55.8199100
-3.7345809 -43.5691290 54.0605523
-5.1805298 -41.4923690 55.0340228
-6.6249212 -39.4352041 55.9809245
-22.7295496 14.0311839 76.5690729
-25.1481757 13.9201051 76.3751864
-25.1852460 16.1758643 77.1708935
-27.2236243 13.6519261 76.1292875
-27.6091732 16.0397720 76.9258365
-30.5088665 12.1602081 75.3168687
-30.4082911 17.1365999 77.0311654
-30.8925398 14.5438965 76.0956556
-31.5067358 20.8830945 78.1978294
-33.1405289 12.6074990 75.1782805
-33.6962976 15.6393517 76.1940703
-33.5554257 18.3687359 77.1478862
-33.5918255 20.5696467 77.8543726
-18.2634126 -2.7057300 70.7462430
-18.3001831 -0.3497917 71.6503188
-18.2104893 4.8340345 73.6323223
-18.2620659 7.1059600 74.4139254
-18.3003657 9.4211418 75.2923712
-19.9021455 2.1027729 72.5128204
-20.2969573 4.5508789 73.3655244
-20.6867941 7.0036137 74.2410794
-20.7284354 9.2911879 75.0641599
-21.5575416 -4.1897162 70.0119063
-21.5940215 -1.8486032 70.8782226
-22.1458711 0.1362601 71.5951174
-22.3801397 4.2869132 73.1366798
-22.7749124 6.7099202 73.9519075
-22.6808302 11.7974691 75.8273676
-24.2130570 -2.4945717 70.4455897
-24.2417343 -0.1474160 71.3321641
-24.6224813 2.3372856 72.2415522
-24.8546228 6.4550713 73.7387612
-24.7261301 9.2333686 74.7334659
-24.7603804 11.5173832 75.5600259
-26.2893867 -5.1375926 69.2904741
-26.6739037 -2.6565823 70.1638386
-26.6995151 -0.3114722 71.0444152
-26.7230608 2.0323759 71.9353929
-26.8070530 8.9668818 74.4954348
-27.1007624 4.5026885 72.8284866
-27.1906517 11.3844108 75.3245503
-28.4065250 -5.4602395 68.9580813
-28.7813973 -2.9551929 69.8748007
-29.1624591 -0.4860190 70.7365945
-29.1730165 1.8902313 71.6886222
-29.1968025 4.2114211 72.5466385
-29.0604085 6.9968142 73.5385790
-29.4366702 9.4365897 74.3993968
-31.0625806 -4.9774721 68.8773990
-32.1338028 -2.1636845 69.8789209
-31.9932662 3.0325684 71.8524083
-32.0219956 5.3171683 72.6441815
-32.5086340 0.3053756 70.7435310
-32.3967151 7.7535450 73.4874085
-32.7598043 10.2167837 74.3975192
-34.1097228 2.6917050 71.4757219
-34.6031524 -5.9303385 68.1345612
-34.6176028 0.0042665 70.4470426
-34.4818048 5.1375902 72.3219588
-34.4917700 7.4657663 73.2093081
-35.3224315 -3.2809770 69.0679178
-17.8696811 -5.2054450 69.8345527
-18.5836069 -17.4665377 64.9356619
-19.4358937 -20.1297645 63.8175234
-20.0323891 -14.4109419 66.0665557
-20.2286802 -12.5101209 66.8222085
-20.6025336 -11.1719379 67.2959462
-21.1516395 -9.1296565 68.0803284
-21.7688587 -17.2864795 64.8008436
-22.0761821 -22.0238939 62.8881082
-21.5272047 -6.5629734 69.0966249
-22.1487656 -14.7008514 65.8053309
-22.5228984 -12.1081779 66.8379739
-23.6707740 -23.1877267 62.2843318
-23.2657138 -9.4356714 67.7834600
-23.8717329 -20.0279802 63.5531843
-23.6402713 -6.8779490 68.7800571
-23.9365380 -12.7326101 66.4490983
-24.2500491 -17.4361113 64.5527691
-25.8641336 -14.9217518 65.4373020
-25.7515367 -7.1777916 68.4928149
-26.0593481 -13.0445054 66.1447719
-26.3765994 -17.7366827 64.2744750
-26.7141238 -21.2723166 62.8103614
-26.4211465 -10.4400944 67.2081113
-27.3311157 -8.3058253 67.9152608
-27.9905107 -15.2301099 65.1421249
-28.0116890 -12.8323371 66.0548434
-29.2234570 -18.9952813 63.4982660
-29.4174552 -13.4080900 65.7594278
-29.6158399 -10.3363683 66.9283643
-30.3419437 -7.6568658 67.8950399
-30.8397133 -16.5013280 64.3343702
-32.0913643 -14.1520118 65.1637316
-32.8137279 -11.4511233 66.1470518
-33.3413109 -16.7034846 63.9872178
-33.5237943 -8.7274602 67.1898797
-35.4892351 -13.4073095 65.0641248
-36.1903459 -10.6567489 66.1448315
-19.9079756 -25.4284665 61.6645627
-20.1116800 -23.5184338 62.3907708
-20.6083693 -27.6346896 60.6676899
-23.3036540 -25.8554984 61.1766577
-47.1305698 30.4600187 79.4000179
-49.6127680 32.3529020 79.5522779
-51.1633381 30.2388575 78.7155256
-35.9496884 13.7014417 75.2690807
-35.8017385 16.4471772 76.2417316
-36.8757099 19.0894175 77.0378187
-36.7649645 23.9835940 78.6628053
-37.2608528 21.4097891 77.7251050
-38.4024642 12.3550221 74.4729191
-38.7627706 14.7757884 75.3227547
-39.1379297 17.1373747 76.0680735
-40.5103005 12.0235421 74.1036385
-40.0576927 22.4800035 77.7855590
-39.9081111 25.1754075 78.7123665
-40.8760495 14.4182490 74.8988166
-41.0865247 19.5280798 76.6359866
-42.6293686 11.6641689 73.6798868
-42.0082659 24.8233359 78.2856122
-42.8246185 16.8247335 75.4829049
-43.0324711 21.9052956 77.1883503
-44.5813835 14.0761090 74.2589980
-43.9586081 27.1471217 78.7567571
-44.7746515 19.2045420 76.0250762
-44.9838005 24.2442116 77.6744261
-46.6967374 11.4569617 73.0510950
-46.5221778 16.4998993 74.8734996
-46.7261262 21.5584785 76.5264928
-46.8961932 18.8253522 75.5519494
-46.9310023 26.5744962 78.1541914
-47.2931527 28.8948566 78.8771883
-48.6601926 13.8264885 73.5423490
-48.6810394 23.8818862 76.9770741
-48.8572046 21.1496595 75.9901628
-50.7999994 11.1653805 72.2552538
-49.9349236 27.0369519 77.7872726
-50.6146066 16.2016563 74.0559176
-49.9503911 29.2060319 78.4662813
-50.6242029 18.4181463 74.7737885
-51.1516780 13.5622201 73.0441734
-51.6827777 24.3722294 76.6654238
-51.8849567 21.5828866 75.5617991
-35.5834477 11.2808589 74.4245574
-36.2121537 -1.1512821 69.7971061
-37.2662209 -4.2648269 68.5017556
-37.3138748 8.5574212 73.2849464
-37.8146209 1.2266177 70.5036968
-37.8193669 3.5672565 71.3925660
-37.8268994 5.8909059 72.2610652
-39.2208733 -6.4625912 67.4330667
-39.7671014 -2.1466915 68.9620450
-40.1448160 9.6152136 73.2951909
-40.6611599 6.9585117 72.2853541
-41.3592644 0.2600589 69.7175264
-41.9038050 -4.8624678 67.6715747
-41.5413491 4.4029234 71.2318644
-42.2557928 2.3263148 70.3382567
-42.2630534 9.2676971 72.8974417
-42.9664776 -0.9068635 69.0460429
-43.8739769 -3.5495395 67.8739175
-43.6782017 6.3377102 71.6283917
-44.3884134 3.1298080 70.3555420
-45.1394916 -6.0559632 66.7240024
-44.7454825 9.0283453 72.4541023
-45.6503630 0.6448908 69.2068487
-46.5552770 -1.9678439 68.0841282
-46.6995612 4.5711179 70.5708340
-46.6871560 6.9092964 71.4693964
-47.8231274 -4.4616233 66.9501647
-47.6002134 8.8765854 71.9238892
-47.9731113 2.0672004 69.3775341
-48.9203781 -6.4605074 65.9955069
-48.6902818 0.0124628 68.5405806
-49.4211540 -2.0843544 67.6324144
-49.3796542 6.0925279 70.6875846
-50.4699312 4.1310801 69.7547048
-51.0689616 -3.3363400 66.8053329
-51.3499677 8.4750326 71.1751729
-51.9270115 1.1307717 68.3902577
-52.0736724 6.4266720 70.3204349
-53.2195680 -1.3982721 67.1717152
-36.5583450 -8.1477016 67.0365766
-37.2742414 -13.8932830 64.6859780
-38.8759114 -9.0269921 66.4273426
-39.0613563 -11.9745750 65.2347580
-41.2063748 -8.7459888 66.2134886
-41.4002128 -11.7034093 65.0015399
-41.3667522 -6.8360688 67.0050904
-45.8685011 -8.1757838 65.8008382
-52.2556156 32.6949656 79.2043135
-54.1859195 30.6400061 78.2225654
-54.9009852 33.0361202 78.8536742
-56.8509176 30.9426300 77.7920932
-56.8517111 35.2837145 79.2006254
-58.0917969 32.9752788 78.2166123
-59.3395196 34.9773951 78.5866007
-59.3445934 37.1179134 79.2423859
-59.8746613 30.2738007 76.9833475
-60.9423779 32.7752195 77.5584355
-61.2958483 39.3357351 79.5433000
-61.8268102 36.8300192 78.6634758
-62.1803068 34.8003954 77.9730082
-62.5568628 31.6298380 76.8301114
-63.9681742 40.6663306 79.3580562
-64.3316209 35.4251564 77.6613429
-64.8704767 38.2455587 78.3802569
-65.2383417 32.9845510 76.6755342
-65.5985847 29.8659429 75.6570771
-66.6500852 35.6024392 77.2349685
-66.2946552 40.8033431 78.8453668
-67.5745457 33.1285559 76.1805847
-68.2956725 31.1964527 75.4459724
-67.9092854 37.5531279 77.5026307
-67.9025203 39.6893322 78.1568661
-53.1134829 15.9133486 73.5065043
-53.1117804 27.0260666 77.2596896
-54.0135168 12.2693004 72.0966607
-54.0089309 18.9915225 74.3630603
-54.3587208 29.0671047 77.6861459
-54.8938923 24.2861230 75.9871528
-55.4285645 21.6992870 75.0318393
-55.9766628 19.0701149 74.0083382
-56.1565831 16.3483564 73.0791241
-56.7047782 13.7082860 72.0686689
-57.0286661 28.2727387 76.8908337
-57.5560257 25.7273801 75.9960860
-58.0982231 23.1368784 75.0260800
-58.2822934 20.4285048 74.0987062
-58.8383339 17.7893527 73.0649531
-59.3934134 15.1484367 72.0453784
-59.9609278 12.4682141 70.9648207
-59.5232584 25.7932842 75.6124482
-60.2635778 20.4757936 73.6795589
-60.0537919 28.6990404 76.4470771
-60.8174801 17.8530905 72.6800114
-61.3726862 15.2227450 71.6824457
-61.9494654 12.5282649 70.5743134
-61.6900586 23.1395066 74.2627457
-62.2449219 20.5288995 73.2715726
-62.8030598 17.9050397 72.2708255
-63.3671433 15.2603704 71.2458268
-62.9101098 28.5108332 75.8184344
-63.1067380 25.8092768 74.8733208
-63.9357790 12.5993714 70.2054650
-63.6662617 23.2010670 73.8706738
-64.2311648 20.5737352 72.8465840
-64.7791997 17.9873314 71.9223022
-65.0915578 25.8438047 74.4243190
-65.6529218 23.2406501 73.4332353
-66.0717934 16.6564602 71.1340234
-66.4544031 14.5200612 70.3320429
-66.2240237 20.6070710 72.3977461
-67.2137961 12.4526042 69.4161057
-66.8731406 28.5840817 74.9259219
-67.0723245 25.8944687 74.0078762
-67.6417723 23.2795700 72.9940906
-68.5808212 18.5759813 71.2723732
-69.3383142 16.5305082 70.3805089
-69.0527260 25.9507336 73.6026317
-69.9215531 13.8647687 69.3267658
-69.6285665 23.3297013 72.5772828
-53.5324104 3.4373114 68.9613968
-54.0609583 6.4904178 69.9409842
-54.4601232 0.8124923 67.8016394
-54.9377799 9.6758092 70.9422007
-56.1117232 -1.5699436 66.6121319
-56.0401604 6.5838611 69.6191639
-56.5950535 3.8960916 68.5772002
-57.1715161 1.1418947 67.4230158
-57.8087904 10.6341038 70.7515329
-58.3961420 5.6286692 68.8266531
-59.1704883 1.2061003 67.0453906
-58.9249283 7.5255861 69.3907142
-60.0416400 4.4162916 68.0526048
-60.5138987 9.8243318 69.9741766
-61.3514259 1.8955742 66.8339953
-61.8095472 8.4688347 69.1650435
-62.5666156 6.3762208 68.2280883
-63.8696998 3.8932585 67.0722947
-64.3250197 10.4264049 69.3505406
-65.0824830 8.3474014 68.4315935
-65.6625330 5.6449655 67.3551485
-67.6804110 5.6648771 66.8870881
-67.8019300 9.7516058 68.3172345
-69.1005290 8.4191049 67.5556436
-84.8455802 50.5502634 76.8266469
-69.5395395 35.3307910 76.4218718
-69.8882267 39.6948978 77.6376501
-69.8784664 41.8266989 78.2924220
-70.8199441 32.9860337 75.3704011
-70.6136227 37.7706401 76.8885389
-72.0755383 34.9540487 75.6589919
-71.4878514 43.8699052 78.5081685
-72.5796968 40.9936346 77.3792788
-72.9406178 37.9376784 76.4378309
-73.9050955 31.1676487 74.0798041
-73.6506358 45.4969555 78.4006864
-74.6186823 33.5152559 74.5963976
-74.2037073 39.8643129 76.6593069
-74.5871738 36.7574878 75.6215900
-74.1840228 43.0523194 77.6214376
-75.7307187 30.5823237 73.4300166
-76.6246617 32.4534252 73.7723336
-76.3384476 46.7823967 78.1235248
-77.3214027 34.8308049 74.3553862
-76.9193172 41.1145054 76.2950927
-77.3023367 38.0258597 75.2888769
-77.4424374 43.9104885 76.9864991
-78.4527883 31.8694338 73.1226131
-79.1602582 34.2198424 73.6444443
-79.8603222 36.5768149 74.1921440
-80.2845508 31.2843770 72.4717230
-79.8210278 39.8013219 75.1983225
-79.9799189 45.6110202 76.7559260
-80.9872225 33.6446799 73.0093122
-80.3635493 42.5504595 75.7780522
-81.6948488 35.9831341 73.5130385
-82.3986679 38.3191630 74.0240663
-82.8145519 33.0762230 72.3888949
-82.6877952 46.8655154 76.4066428
-83.5409909 35.3695750 72.7937743
-83.0790848 43.8031480 75.4187927
-83.4735408 40.7245792 74.4204298
-84.2330679 37.7317257 73.3542889
-85.4249820 31.5437727 71.1418837
-85.3736922 34.7942673 72.1556395
-70.0084493 21.2298445 71.8165785
-69.9362904 28.9457180 74.3452013
-70.7625002 19.2037132 70.9509403
-71.3461339 16.5518951 69.9087754
-71.9184428 13.9249675 68.9338818
-71.1961091 29.8553575 74.3326321
-71.7652887 27.2722412 73.3612701
-72.1452460 25.1886342 72.6148784
-72.8956908 23.1873281 71.7806518
-73.4663531 20.5901768 70.8246008
-73.9511549 13.8986008 68.3673993
-73.1961131 28.7973825 73.5282227
-74.0557760 17.9408286 69.7803050
-74.7143626 11.8537098 67.5033480
-74.3108094 25.8379932 72.3413303
-74.8927519 23.2265163 71.3403374
-75.3785074 16.5710393 68.9159557
-75.4714832 20.6181090 70.3628585
-76.1342272 14.5551916 68.0975690
-76.4765367 27.5528543 72.3560825
-77.4965361 20.6027329 69.8125437
-78.0463889 11.6276052 66.5532798
-77.4372891 25.0223987 71.2439045
-77.8971761 18.4726901 69.0100342
-78.3488676 14.0557643 67.3887283
-77.7289495 29.5476019 72.6716742
-78.6745995 16.4164081 68.1018606
-79.4779584 22.8345394 70.0460747
-79.4118717 27.2453502 71.4799985
-80.5835724 13.5176163 66.6027740
-80.8073878 20.4043705 68.9033791
-81.0646042 17.6022146 67.8234324
-80.4782882 29.7257025 71.9752908
-81.4914182 24.9770749 70.1050013
-81.8947479 22.8651352 69.3191513
-83.1611827 15.3001808 66.4410368
-82.9041824 27.6100785 70.6305802
-82.8673244 29.8036337 71.3398904
-84.0302631 18.3475204 67.2000423
-84.3359828 20.7245443 67.9652616
-84.6519545 23.0676848 68.6743706
-85.3848904 15.8743020 66.0017654
-84.9500373 27.5507532 69.9820593
-85.3669420 25.4245345 69.1559464
-85.6304839 29.9690906 70.6144646
-86.4399001 18.4274223 66.5747449
-70.5151036 11.1675225 68.2279542
-71.1082742 8.4667830 67.1402365
-72.5307688 11.1898519 67.7605718
-73.3030587 9.1105681 66.8413118
-91.8264464 51.1511303 74.8123974
-93.8098505 53.2248542 74.8325437
-94.2290574 51.1816479 74.0513206
-96.7791751 52.8538004 73.7603381
-97.8623703 55.1689342 74.0208626
-99.5891392 52.9073440 72.7638975
-100.6186008 56.3301072 73.4661072
-101.2793928 51.7313704 71.9071627
-86.0713422 37.1430814 72.6829842
-85.2371305 48.5348031 76.1118829
-85.6497511 45.4412699 75.0476345
-86.0214010 42.4299724 74.1831958
-86.8054703 39.3990800 73.0265155
-87.9972503 33.2456566 70.8669722
-87.2819275 44.3394482 74.3740276
-87.6927525 41.2433967 73.3399168
-88.1750435 47.1772105 74.8876631
-88.8396651 38.3189134 72.1452907
-89.6222442 35.2920443 71.0321888
-89.5532370 40.6130441 72.5722834
-89.4850716 44.8723361 73.8598257
-89.0826210 49.9690920 75.3196776
-90.9683853 32.8951180 69.8860884
-90.2497545 42.9348946 73.0693638
-91.0635665 37.7983376 71.3424087
-90.5742124 47.2112261 74.1405338
-91.3951322 40.0308631 71.9079599
-92.0393541 35.3238061 70.2914968
-92.6295593 45.0748354 72.9223192
-93.4219062 42.0646779 71.7967600
-93.1408852 48.8591194 73.7901926
-94.2069739 39.0642062 70.7161278
-94.6939364 33.7471031 68.9418539
-94.6217105 36.9995609 69.9644461
-95.2183083 46.6905423 72.4942461
-95.6524909 41.5416881 70.9792376
-96.0091352 43.7005982 71.4024231
-95.9150940 48.9812605 72.9505196
-96.8622938 37.4961756 69.3660229
-97.4815041 34.9248610 68.3929250
-96.8900621 45.5375314 71.7088878
-98.1567800 39.3517651 69.4099441
-97.7950171 48.3312346 72.1205398
-99.2356315 32.5775072 67.0854896
-98.4964818 50.6035425 72.5422949
-99.5142534 36.9778499 68.2930127
-99.1798565 43.8833237 70.4185441
-99.5930210 41.8468788 69.7059408
-99.5131359 46.0786670 70.9276125
-101.2704000 34.6402749 66.9939816
-100.9729058 39.4368842 68.4974343
-100.3843993 49.9454662 71.6901198
-101.4835909 42.2135442 69.1038966
-101.9855142 36.9303040 67.3773289
-87.2138292 24.8390324 68.5168803
-87.8684148 21.0535750 67.0420080
-87.5249803 29.2682033 69.7272867
-88.5446817 16.1411501 65.2213097
-88.2106721 23.3256854 67.6044822
-89.6287635 18.6200347 65.6418726
-89.4396827 26.4343768 68.2698265
-89.5221904 30.3749852 69.5738271
-90.6691924 22.2402420 66.4980933
-90.3257877 28.3255912 68.6242059
-91.3470238 17.3513368 64.7160485
-91.9002816 25.3466759 67.1473891
-92.4224406 19.8414233 65.1623234
-91.9685885 30.3551741 68.7307343
-93.1005999 22.2828947 65.7908693
-93.1351930 28.4241214 67.7569807
-93.2648703 31.1952643 68.5641989
-95.1018035 18.2261746 63.8101622
-94.9970931 21.6170922 64.9937242
-95.1146409 24.4361088 65.8524632
-95.1613411 30.5186901 67.7234903
-96.5603814 26.9848406 66.1833584
-96.4480266 31.3831754 67.6057711
-97.4102467 23.8096416 64.8602843
-97.9117230 19.4306709 63.2896200
-97.8320017 28.9302263 66.3736835
-98.7671390 22.4535242 64.0074983
-99.4106755 25.9885211 64.9755448
-99.1009548 30.8737848 66.5667802
-101.0722369 27.9926080 65.0079027
-101.3977081 24.1076089 63.5891631
-101.5776545 30.8275223 65.6622276
-102.3002937 32.0871845 65.8084080
-103.1986475 21.6677655 62.1637143
-102.1741778 54.5146018 72.3279119
-103.0519754 57.3183447 72.8105828
-104.2656898 52.3706228 71.0541382
-104.7871634 55.0682582 71.5683997
-105.6666300 57.8636155 72.0315725
-107.0853397 53.4402505 70.2856034
-107.7987328 55.6619875 70.6109032
-109.7427607 53.9297275 69.3798512
-109.8333746 57.6350205 70.4027936
-110.9230295 59.9167906 70.5933645
-112.7512231 55.5484518 68.6710998
-113.4552583 57.7781610 69.0160692
-113.9493138 60.4947098 69.5916712
-115.4882908 53.9230742 67.1088398
-115.9954593 56.6283688 67.6298514
-116.2809283 58.8512644 68.2471544
-116.4255068 61.4338443 68.8123554
-102.3087725 47.2027361 70.2766329
-103.7340164 34.6212462 66.1403984
-103.4348831 39.4087806 67.6188096
-103.1229645 44.1957414 69.1535026
-103.0194536 49.4559817 70.6451610
-104.9541980 32.6302722 65.0255755
-105.2085087 37.0583199 66.2794933
-104.9047187 41.8341421 67.7579343
-104.5953780 46.5944186 69.2606419
-105.6122780 44.1104025 68.1443289
-106.2889844 39.4398868 66.5875152
-107.3727310 34.7696617 64.8109391
-106.5731645 50.7211052 69.7388202
-107.0128158 48.6656986 68.9560622
-107.8881249 37.5445895 65.3733239
-107.5279266 43.4292778 67.2582164
-108.0345064 46.1866632 67.8390265
-109.1315672 40.5220166 65.8285022
-109.8627448 35.7414223 64.0885159
-109.1104150 49.5428480 68.3235750
-109.9793464 38.4700447 64.8320839
-109.6101552 44.3531051 66.7208955
-110.1688966 51.9156307 68.6734542
-110.9892279 43.0043153 65.8061877
-111.0658422 47.7904752 67.0829192
-112.6967743 37.8839374 63.6060312
-112.6281247 40.0451124 64.2724782
-112.1199727 50.1784794 67.4530938
-113.1602079 35.7674882 62.7681911
-112.8534600 45.4641432 65.7442212
-112.8178835 52.4383895 67.8374618
-113.8887927 42.9741144 64.6310449
-114.5456433 40.4001996 63.6357814
-114.6795079 48.9880852 66.0125837
-114.9554402 46.3593714 65.1406944
-115.4049486 44.2955792 64.3719658
-116.1247790 35.6392935 61.3949448
-116.2030920 38.4296887 62.2597188
-115.5597940 51.8002585 66.4537922
-117.2497571 41.8760814 62.8595799
-117.1564534 45.0676270 63.7792945
-118.1918159 37.6525186 61.1815527
-117.6972985 51.6260117 65.5111223
-103.4099609 26.2630228 63.6516064
-104.2850465 29.2000715 64.2302111
-104.2155325 31.4050578 64.9522617
-104.6586558 24.1974220 62.4280274
-105.1240563 22.0202710 61.5307502
-106.4707413 26.8534552 62.6926422
-106.3235104 31.2782489 64.1495436
-107.1480960 24.1656341 61.5577698
-108.3281934 29.4017121 62.7445281
-108.6135656 26.6715307 61.7803633
-108.4314957 32.1840830 63.5620579
-109.7476184 32.9998881 63.3352771
-110.6319278 24.7769654 60.3641272
-111.0556349 28.8021248 61.5167283
-110.9897420 30.9864208 62.1858537
-112.0924056 27.2915009 60.6016256
-111.8861213 32.8293517 62.4353513
-114.2169535 28.1939153 59.9956103
-114.2098233 33.2272239 61.6135411
-114.6779954 26.0631554 59.1811948
-114.6909148 31.0685355 60.7134290
-116.1606386 28.5285637 59.3161173
-117.2111034 32.0209786 59.9360950
-118.2448193 30.5395294 59.0711869
-118.9487129 27.8528221 57.9267740
-117.8121567 54.2854853 66.1974549
-118.1275100 56.4588495 66.6890293
-118.2494015 59.0884201 67.3399717
-119.7934598 54.5118600 65.2684197
-120.7140461 62.0322973 66.9804811
-121.2147325 58.9419007 65.8676550
-122.2192943 56.5684885 64.9307966
-122.4291995 60.7685111 66.7707175
-118.1704924 48.5389940 64.4846261
-119.0442890 35.6151685 60.2395758
-118.9163700 39.9028510 61.4701286
-119.2229465 42.1366133 62.0146096
-119.7156683 49.7982651 64.0969276
-121.1647689 38.5416970 59.9888787
-120.8151281 47.2245738 62.7795905
-121.1282462 44.5355661 61.7983118
-121.8309477 41.9028625 60.6754646
-121.5255111 49.4679436 63.0974770
-123.2571304 36.5821086 58.3691522
-122.5038022 53.9665446 64.0775561
-122.6474121 51.7244563 63.1687418
-123.5696003 38.8103053 58.8773824
-123.4562248 41.0334021 59.6680790
-123.3614758 43.2156511 60.3833087
-123.3809963 48.9504375 62.5515059
-123.8203943 45.9333695 61.7076866
-119.3150803 33.9803919 59.5932677
-120.9534332 33.0768414 58.5388169
-121.7993423 27.0729009 56.3197285
-121.6380745 30.4445662 57.4948564
-122.7308884 34.8541364 58.0847003
-124.3718415 31.9320597 56.7091703
-124.8591915 34.6449316 57.9420812
-125.1795292 28.9702807 55.8313616
21.7409097 -81.4738199 30.6049455
20.4714723 -77.9430121 33.1595503
20.3262288 -80.1288635 31.9260247
9.0766698 -66.5474609 39.9658903
8.4805284 -64.1885325 41.0680138
7.1575097 -61.4391044 42.3726290
6.4231344 -68.3911443 39.3173620
5.9938994 -65.4689670 40.6343043
4.5013325 -63.3258149 41.6293032
3.3357891 -67.3223734 39.9651453
3.3085947 -58.7583221 43.6092131
3.0106236 -61.2050481 42.5940640
1.8405656 -65.1985854 40.9182608
0.8838319 -62.7005473 42.0227870
18.3867514 -82.5289488 30.8678970
18.1582887 -78.4829780 33.2753211
16.6636556 -76.0748386 34.6726775
16.2262004 -80.8219612 32.3138349
15.7175139 -82.6988369 31.3753746
15.1051441 -78.5969868 33.6313210
15.0168473 -74.2262974 35.8727276
14.5467967 -69.7756931 38.0450673
13.5352006 -81.1634287 32.5269066
13.4542622 -76.7628700 34.7973071
13.3494707 -72.5466684 36.7874354
12.6829473 -84.2760727 30.9955180
11.8497750 -77.9099986 34.3598537
11.7919268 -75.0378668 35.7817933
11.6885202 -70.8589926 37.7213135
11.4615262 -68.6300322 38.8235748
11.1949230 -81.8329230 32.4250907
10.4460819 -79.8519626 33.5650519
10.2993986 -72.7383345 37.0073281
9.0557961 -83.2998902 31.9648981
8.9260545 -76.0904625 35.5231762
8.7789996 -69.0735057 38.8503857
7.5662467 -80.9238404 33.2841128
7.5162356 -78.0503228 34.6908756
7.4364021 -73.7942159 36.7380790
7.3761055 -71.0157976 38.0206183
5.9957304 -84.9845111 31.4048454
5.7755508 -72.1415430 37.6071446
5.5734147 -80.3460702 33.8025615
5.4925117 -76.1180222 35.7819200
4.8175780 -69.5546642 38.8321541
4.3451241 -83.1687599 32.5163342
4.0764762 -78.0832320 34.9409468
3.1199439 -75.4584223 36.2009071
2.9093202 -85.2133632 31.5681174
2.8972528 -73.2706189 37.2107625
1.9518286 -70.6364289 38.5116860
1.7055277 -77.3959532 35.4050398
1.3838331 -80.0034553 34.2054740
1.2320380 -82.0280686 33.2581177
0.9209896 -86.1306190 31.2966034
20.0216081 -84.6109241 29.2993914
16.4527334 -84.8530009 29.9510248
16.4589360 -86.4997655 28.9073754
16.4557975 -88.2140622 27.7543459
14.1410539 -88.6330381 28.0872956
13.4387463 -91.2669227 26.6544316
13.2325673 -87.1213377 29.1603655
11.0713160 -85.4149163 30.5896513
11.0977674 -90.1693478 27.7959164
10.9060323 -87.6344591 29.3321572
10.2077313 -91.8394029 26.9966871
8.7306984 -86.0344023 30.5788219
8.5668936 -88.2201716 29.3816458
8.5738506 -93.0517465 26.4843497
8.5568698 -94.7904885 25.3132060
8.0364617 -90.1609957 28.3629242
6.4104828 -91.3273692 27.9243328
6.2190234 -95.2819884 25.5298577
5.3121918 -88.9882892 29.3887630
5.4882746 -97.9855210 24.0153093
4.0272572 -87.3751715 30.3874128
4.0488979 -93.5910419 26.9060154
