94.7280526 188.4293705 19.3603076
89.7544771 194.8556751 2.7634739
71.3752136 196.2952912 1.5501976
64.3091872 190.4589236 18.1308705
64.7419989 193.8956082 8.5972063
52.7233779 191.8413490 15.8070344
53.2700494 196.9466954 1.6282751
51.0361493 194.8708445 7.7467891
49.8537272 192.9088235 13.2788708
45.9312387 194.8900819 8.3343824
33.9087658 194.8967129 9.9630374
30.6947250 197.6613551 2.7364721
15.0568075 194.4417804 13.7045318
5.6450143 195.8675086 11.0516530
-11.5227224 198.5675693 5.7778233
-23.0087470 201.4506906 -0.6606122
-23.8324590 200.0325173 3.2960165
-34.3617238 198.6403167 8.6177737
-35.5502330 201.7012239 0.4037613
-53.3609204 202.3757696 0.8355273
-75.1712248 203.8598508 -0.1676404
-65.9421161 205.5695355 -5.1899329
-77.0032257 205.4686695 -4.6594460
-90.7858312 204.0747404 2.2380447
-111.9886562 207.4367404 -5.3183357
-113.0061746 205.6240737 0.0557494
-140.5676007 208.7594122 -5.5312137
101.4446467 181.4301461 37.1957496
91.8927342 186.8514866 24.0117181
87.9547000 182.6051772 36.0893495
84.8083347 185.4456514 28.7701990
70.6504509 186.8547797 26.9094277
55.8637716 188.7375116 23.9223260
51.1129573 190.1556402 20.7002461
48.0908826 188.3786619 25.8980840
39.1859934 186.1064434 33.2112685
40.4403731 191.8834150 17.4293946
24.2539681 192.4282610 18.0119574
22.1359208 193.2361126 16.1576774
7.4510481 192.3944503 20.1862026
-20.1796032 194.9677467 16.9859380
-22.9226500 190.6637996 28.9239418
-26.7796423 190.9663379 28.4982175
-25.6095789 195.4179257 16.4151751
-28.9908722 196.9403177 12.6352534
-33.4158987 197.5077987 11.5607427
-60.0228235 194.1724867 24.2753066
-63.2988140 199.8583823 9.1585033
-70.4375654 194.0025240 26.0483380
-72.7736205 196.6957599 19.1134606
-80.0931156 197.5152940 17.8154893
-86.3523260 197.2081065 19.4795970
-106.2792465 202.0937353 9.0534762
-111.0301018 202.9693574 7.5607961
-116.4252460 200.6549388 14.4964522
-119.1692129 198.2825845 20.8409559
-119.3325594 200.8743137 14.1286440
-121.6212213 202.2638023 10.1953214
-133.6503923 201.1500299 14.7610344
-135.0814253 205.7420760 2.3374963
101.7099768 163.9627069 45.5661006
99.7007415 179.8226833 41.8416820
97.7532715 174.3877232 49.1219461
96.3279009 165.7036245 45.7131080
95.0997695 180.1989675 41.4034016
93.6188698 177.3680001 49.0308292
92.5943255 175.2914935 49.0237810
92.3405364 170.6950366 47.2258106
92.7384049 178.4887910 46.5839244
87.3320177 167.3727781 45.5667488
87.0753676 178.9501309 46.0583419
87.2428864 179.7195822 43.9835005
85.8263746 170.4565436 46.5727560
85.1382092 178.0561656 48.2505821
84.5980421 168.0574417 45.6165113
83.1784382 171.5417653 46.7465445
83.9467719 180.3833395 42.6298454
78.6587521 170.6913710 46.0265912
78.7948221 181.3923419 40.5509099
76.8561438 177.1818399 48.3543947
75.4296333 175.6415218 47.6573296
75.2303228 180.3181916 43.9394638
73.5481083 165.6491756 43.7061712
73.5989586 181.2597364 41.7465232
69.5492029 178.8879186 47.7276221
69.9339807 181.7297190 40.7873243
68.7917247 180.8627099 43.3955416
67.1641380 169.6414053 44.6620993
66.8627396 173.0663180 45.9377840
66.3224086 167.5831974 43.7994339
66.0166964 175.6845862 46.8666069
63.9858097 180.4650873 45.0402573
63.4530708 177.1822423 47.1919142
62.4747537 168.3581769 43.7497683
62.2178242 178.1331450 47.4251732
60.6186241 179.6663254 47.0698439
59.2612699 168.6787903 43.6608903
56.8970256 168.0292487 43.1852564
56.5837808 177.4181575 46.7186496
54.0130362 180.8899939 45.1848246
51.8388972 177.4558723 46.3612042
47.3022275 168.0449694 42.3577428
48.4738350 183.9467138 37.8740281
46.8393862 170.6624180 43.3069766
46.5892516 180.6067377 46.2970696
46.5065427 182.3042780 42.4175821
45.0212434 178.1082600 46.0496098
44.5034318 168.7256247 42.3608832
42.4080305 177.9469103 45.8084308
40.9713611 182.9617023 41.3915291
41.4528102 184.7251058 36.6754681
39.6119989 178.6143929 45.7672440
39.0701927 182.3399663 43.3799550
37.5697538 174.9751270 44.2220829
36.4195406 177.6646078 45.2000797
35.7652083 170.8518714 42.5009839
34.8619483 168.7839627 41.6524112
35.0564942 182.6804578 43.0471227
34.4298743 175.7171303 44.2898497
34.6864685 183.6934388 40.3289311
32.0464969 184.1169596 39.5735241
30.6110717 181.7056686 45.3504995
31.3206092 185.1922125 36.8858278
29.0888846 177.9686362 44.7953232
27.8999768 170.7356423 41.8402441
27.8464742 173.3393073 42.8543910
28.0013792 184.4588369 39.2247662
25.7212110 176.5596420 43.9369753
25.0946991 171.4395732 41.9023745
26.4825411 185.5505854 36.3033786
25.0470322 174.0434170 42.9181680
23.8807350 178.0309379 44.3739742
22.2904552 172.1480787 41.9770516
21.4474481 183.7967038 41.7991728
21.0349597 184.8082095 39.0363634
20.3373749 185.6573224 36.8007049
18.6318550 183.6093813 42.5415970
16.7642199 173.9588678 42.2009975
16.4957196 181.2511981 44.8534936
16.7215783 183.9893758 41.9097543
14.8494048 182.7891469 44.4340892
15.8108082 186.2521023 35.9012634
14.2815458 178.5319597 43.8152328
14.8951607 184.9202514 39.5563319
13.8367480 174.2476523 42.1047285
13.0659323 185.8621538 37.2131243
12.5710480 185.3007674 38.7732089
10.3573948 180.6307882 44.3099961
9.7856065 185.1589978 39.6754742
9.2657525 186.3956302 36.3793597
8.0533279 179.1368276 43.5629636
7.5849472 186.1507148 37.3542346
5.4678032 180.6722134 43.9307056
5.7626427 185.2838546 39.8217514
4.0293778 173.0100811 40.8555269
5.1339082 186.7212057 35.9445363
2.5557179 175.7774502 41.8481417
2.2827862 183.5953742 43.7623225
2.3547274 184.7388744 41.5697433
0.6857147 173.3129919 40.6706706
-3.7338384 181.5703660 43.5607210
-3.6515058 183.8325560 43.6113849
-5.4548611 176.9875437 41.7025276
-5.7895724 180.9490174 43.2713367
-6.6246637 184.1014773 43.4216447
-8.0415606 178.5451174 42.1114266
-9.3931621 179.1165620 42.2430709
-14.1457859 178.6647439 41.5902473
-13.5225998 187.0506555 37.4404266
-29.6362918 186.3256693 41.2343368
-15.4885482 179.2490035 41.7598635
-17.6603347 189.6029413 31.0304873
-18.9754348 186.3087714 40.2189866
-19.0340579 187.0779097 37.9385427
-19.4189306 187.9313141 35.7855372
-22.1478119 182.5201809 42.5416529
-20.9803693 188.8541877 33.4185623
-27.4567232 179.1079342 40.8027284
-27.3783132 187.7923459 37.2538120
-29.2513277 187.1384382 39.2380878
-29.4389017 188.9664531 34.3262367
-31.2000588 179.4811338 40.6855717
-31.1927628 188.1125271 36.9206406
-43.5862094 187.9147291 39.0180312
-32.1252160 189.1857237 34.0673998
-32.9570137 187.2472465 39.4570157
-35.0435004 183.3087951 41.7524576
-36.3510288 188.1230325 37.4992937
-37.9355550 187.6534224 38.9950983
-38.0475670 189.2776638 34.6324183
-39.2545499 188.7705326 36.1580737
-41.4067619 183.9642227 41.5989645
-42.1906896 181.4620495 40.6988822
-45.0507961 182.2019219 40.8226922
-50.7593341 187.1529222 41.1882587
-54.2129502 187.4542534 40.9341380
-58.5131049 185.2741987 40.9740843
-64.4342378 189.9692118 35.8299464
-51.8607646 190.2039796 33.8622853
-69.5978403 190.6378865 34.9299088
-72.7361515 189.6911860 37.9709899
-74.9953389 188.7304336 40.0911458
-78.0625865 189.0380532 39.9858057
-80.4077387 187.3740107 41.1189832
-66.5211454 192.4450099 29.7596902
-82.4503303 192.1143681 32.6684862
-83.7299079 190.6046867 37.0063446
-91.8177366 192.6990002 32.4051529
-95.2725708 193.4056431 31.0084671
-99.5417163 193.5420036 31.1350543
-92.5129205 193.7845200 29.5662973
-105.4427028 192.1851933 35.5873667
-114.2478436 192.2760904 36.3914855
-122.3824471 193.5497522 33.9638516
-122.1733913 194.3699718 31.7990072
-122.9914725 192.7678734 36.0934138
-124.8814762 194.3695396 32.0553109
-127.5343746 191.4085150 39.8167595
-129.2739064 193.4532672 34.8662883
-130.1583350 195.8348602 28.7580248
-133.0095828 197.1112639 25.6781429
-118.5177863 196.7477947 24.8085577
-126.6816705 197.0724314 25.3583491
-138.1966919 191.6480958 35.8393341
-139.1011775 194.9041784 32.3780179
-140.6478137 190.8853203 36.2550616
-142.4374133 193.4574544 35.1468436
-141.4199919 196.9559789 27.0911958
-146.8052715 197.3861307 26.5412889
-135.5595142 198.9902258 20.8770074
89.9901092 159.4617665 42.7805036
89.4562975 156.9269896 41.7523757
89.1089663 150.0449479 39.1178019
102.0116135 136.2898350 35.1123624
99.6389687 129.8083663 32.3992334
99.1275609 136.5043670 34.8848179
95.3527391 135.9255761 34.3202688
96.2520540 123.8133237 29.8551153
84.1970891 156.1017185 40.9857146
82.5859830 153.6625624 39.9528891
53.6771379 159.2401415 39.5361185
53.4987003 152.2679031 36.8912965
60.5815947 137.8914714 31.9924802
57.9174273 129.5606345 28.6384188
56.9419339 131.8906546 29.4050276
52.7135618 156.7328870 38.5555997
50.9338267 158.6235762 39.0913337
48.3848453 149.6343017 35.4736112
43.6177291 153.1349421 36.3859124
40.8960320 154.2568207 36.5855917
39.9216563 150.3612548 35.0142047
36.3906175 149.7926861 34.5296338
50.9535708 143.1858242 33.2174599
48.3074710 132.1422607 28.7628733
47.2691543 140.3723955 31.8508483
44.6011238 132.4685961 28.6248177
44.0740883 136.5747750 30.1063303
43.9871997 139.3008679 31.1670620
40.6201109 144.0676898 32.6839834
35.7311703 139.5067722 34.6353352
20.0792141 166.7190939 39.7552028
34.3088992 149.0665972 34.0377539
33.2822576 150.9487629 34.7009972
32.2733410 146.7259377 33.3579443
32.1802013 159.8726958 38.0030945
31.3053317 150.6560743 34.3744531
29.4164065 159.2892706 37.6643836
29.1240551 155.3198099 36.0583737
28.4061730 150.7081687 34.7363949
27.7417079 152.8293788 35.1053625
25.0520594 157.0414007 36.4577435
24.9262135 162.3161882 38.4165570
23.0820663 150.5587250 43.3426276
22.8190385 152.5571942 40.3515361
22.6650219 154.6994895 37.7567597
21.4251895 150.8591473 45.7803980
22.5122049 160.3401154 37.4671407
22.3149918 163.8620347 38.7753509
20.5327701 156.3640535 38.5723524
18.4336510 169.0336317 40.4622555
17.9957226 166.0254151 39.2895974
11.3922851 157.0636183 50.5399667
8.3388258 162.4470651 42.3807688
6.0723671 159.9835306 50.7760011
6.0308161 165.2096361 39.7850387
4.7017154 161.8365049 48.1334142
1.6302469 165.3698236 43.2372279
16.9449393 162.1693820 37.7195030
0.3729082 169.4641858 39.3119529
-1.8773389 163.9705151 50.0307530
-1.9747985 167.6017046 41.9835746
-5.0988137 165.5642986 49.2816046
-6.1662789 167.0630872 46.7546061
-8.6407950 165.1361734 53.4079224
-12.6503464 169.6701050 45.6986912
-14.1027737 171.2277830 43.1662500
-15.8562306 170.7231402 45.5454923
-15.7968998 172.6647466 41.2833765
-25.5638957 169.7087884 53.7335649
-25.6523658 173.4447032 44.8470451
-28.4025222 174.7770160 43.4260406
-31.3052200 175.4570305 43.3743037
-42.8027213 172.9706824 55.5852018
-43.3892570 172.0538586 58.1732541
-44.8996611 173.3133495 55.9177585
-46.7415564 176.0440916 50.1264259
-48.1602140 175.4149497 52.2469096
-49.6335402 176.7376810 50.1229092
-34.5886871 175.3414124 45.3171693
-35.9870158 174.7481376 47.5648977
-43.5016081 176.9807935 46.1475626
-46.4727320 179.9316704 41.5505581
-48.2730828 178.1731546 45.8815359
-53.0076064 177.6852161 49.6005118
-54.2717315 179.1545153 46.8277894
-57.0290685 175.6619215 56.7247160
-59.7532317 175.8841574 57.6014929
-59.2235886 179.0851951 49.4854860
-59.8151535 180.4297566 46.5500690
-62.0033443 175.8482307 58.9664653
-62.4649338 181.8808317 44.3515666
-64.0737340 180.2328825 49.0649492
-65.3357431 182.3177934 44.7063074
-70.2853575 182.8367710 45.7531139
-72.7373436 180.8958203 51.5628457
-73.9828795 183.6110204 45.7067937
-78.1214908 183.7873608 47.1337251
-81.0289159 184.2034310 47.4152230
-84.6544355 185.9436631 44.5912853
-90.6962231 185.1091683 49.1960123
-94.0992534 181.2286228 60.0969568
-94.4860876 182.4722141 56.9840148
-100.3015637 186.6908669 48.4852642
-104.6696678 186.0872358 50.9305932
-106.2588841 183.4030896 58.1815280
-111.6768122 188.0111992 47.5520901
-120.4628423 190.6767488 41.1347039
-122.5536615 186.2209439 53.4534603
-123.6498281 190.3059632 42.4358100
-127.3176223 189.5559728 45.8846577
-135.9908879 187.5082552 35.9226801
-139.2229050 188.7274384 36.1453779
-141.3346082 186.6610646 35.1672284
-143.8622773 186.4942610 35.0160077
-141.9922560 180.8727384 33.0653340
-144.1228539 178.7762046 32.0767201
-145.4134434 180.7277799 32.7143893
-146.0943520 183.0896139 33.5948355
-151.4485031 169.2537367 28.9230999
103.0340418 116.9438213 27.8326366
101.7865539 114.3023595 26.7075282
100.5682126 117.5797954 27.8381146
96.6321975 93.3450386 18.3048993
94.0314606 91.6245207 17.3962153
91.4802104 105.4157093 22.4373080
71.8867332 116.1189005 24.7479565
71.7269704 110.1258993 22.4750564
82.9020590 92.8651467 16.8635491
80.9870064 101.9824892 20.2037506
80.1237226 97.8131071 18.5419638
65.5719414 111.4994213 22.4199798
62.6006201 116.8550625 24.2692344
60.7004538 125.2380461 27.2281989
59.9784479 117.0391366 24.0728557
59.8978288 113.3321151 22.6430576
58.5383512 115.7464236 23.4230626
57.1487322 113.0384803 22.2124718
56.6545315 127.3791045 27.6800022
53.7504591 123.0348200 25.7764384
52.3938984 112.0319963 28.4740329
68.4179068 94.8280320 16.3268708
66.2814453 97.3539948 17.0972832
66.2977174 104.4304371 19.7821613
65.6659454 94.5387408 15.9616116
63.9710650 106.0042307 20.1664176
62.5061020 107.9917327 20.8059698
33.2402475 129.9910247 49.4970866
41.6408256 128.9949864 34.0634398
37.9351452 125.8364022 44.9913964
38.5724418 135.3905946 33.7230079
50.9339012 110.2107838 30.4739308
48.1173061 116.8495417 31.6259712
30.1673617 133.3678514 51.4686517
28.8982950 141.5607035 43.4178896
20.9162589 143.2490647 56.8913147
20.1477334 141.4656490 59.9834956
19.0328080 150.2485573 50.6969988
33.1594050 139.9592906 38.2460207
14.9374604 150.4051685 57.1478270
14.0227228 147.4521905 62.1409602
15.0980558 153.7009329 51.7450869
13.1707760 151.6820192 58.0577739
10.6570823 148.1709033 66.1303252
12.5449402 155.8620483 51.7409891
10.9119918 152.4317265 60.4668744
9.0941582 151.2121707 64.7801012
4.7667720 154.2690694 65.7293648
2.7805001 154.2637199 68.1882426
1.7242295 155.9760571 65.4310659
1.7016637 157.9671949 60.6142879
-5.4845223 157.4259400 69.3536475
-6.1675268 156.8088233 71.5339333
-7.5027607 156.3353539 73.9048943
-8.1177130 159.0141356 67.8400695
-9.1775348 157.6712579 72.0101595
-2.9198150 156.7886323 68.3512762
-11.9624315 162.2247994 63.2021055
-23.0846927 160.9545052 73.9533529
-27.9903486 166.9254452 62.1563531
-28.5083298 165.8230871 65.2108043
-29.6913926 163.2874012 72.3265558
-29.8594330 164.4973606 69.4408640
-30.7347178 162.6588702 74.3912980
-32.4408747 164.5238847 70.8269849
-33.6297378 165.9281403 68.1595206
-37.8228948 163.6502743 76.0944486
-52.4540059 167.7585244 73.9429444
-52.6918434 172.5525260 62.1020310
-59.1896959 171.1968929 69.0305382
-59.0001345 172.1508205 66.4966777
-63.6246353 170.3028530 73.5839233
-85.2361172 173.6932397 75.6180584
-87.0179832 175.6857187 71.2104663
-91.5802717 176.6962558 70.5688596
-95.6935436 176.8382639 71.8555748
-98.0148315 177.3210615 71.4598522
-101.4719382 177.3180217 72.5384951
-103.5093889 177.7010411 71.9497204
-96.8271121 181.1476797 61.1986741
-129.1453093 180.7827950 68.7029362
100.2703682 80.7138756 13.8038276
93.8611478 83.0075219 13.9993085
102.3843139 61.2018295 6.7437170
102.2856385 67.0130029 8.7705581
96.3034853 55.5182211 3.8579367
90.7499716 56.8483733 3.8745564
90.4570594 61.3493472 5.5778790
87.0990157 54.0505424 2.4602346
98.2567891 51.4343791 2.5352514
79.8204839 77.7273178 10.8737312
75.2956569 72.6366565 8.5074734
74.1579384 74.6487677 9.1337916
70.9000528 81.2151134 11.3863247
69.7900131 77.8487325 9.9375909
80.3637803 55.4659851 2.4290860
75.7115334 55.7091199 2.0490352
75.7341236 57.7262379 2.8410486
81.4116821 52.8874919 1.5326135
74.0880296 53.6702685 0.9031674
50.9523004 98.4780192 37.5507586
62.1663444 86.5498334 21.1435240
60.0326136 92.4629718 23.2565794
59.6196428 87.3467997 23.4263763
58.0232777 96.9923437 25.0325948
68.1865960 79.1354701 10.6942784
67.6148385 85.7641920 12.7776340
65.4236823 89.8212045 14.2449578
63.0527958 77.9030547 20.9889170
61.4459403 78.2922879 22.4927571
61.1134060 81.6690698 21.7925645
32.6187387 128.2144040 51.6847484
40.0128514 109.7901016 49.0786172
34.0779983 113.9483675 56.8771884
44.7780937 102.9282287 44.9413694
43.7035896 107.1266830 45.3595594
17.8826116 139.1079277 65.0904328
27.8796330 117.8254858 63.0056262
26.9473307 120.3812659 63.3977205
27.5237765 127.1276474 60.2923334
26.9409586 123.4561056 62.4625869
27.7588144 131.4677894 55.8213405
25.6024450 129.0494651 61.7673732
26.3365787 133.3084404 56.2525615
23.7590559 127.9894859 64.4087344
21.5901230 123.3731434 68.5442016
20.7144525 130.4442286 66.9514835
19.9955218 128.5301894 68.6546117
20.6292104 133.9617223 65.2457923
19.1094074 132.7956170 67.6892847
17.9680604 129.1315854 70.6103668
-1.0335681 151.8241018 75.5979717
-1.8779533 148.4716386 79.3216303
-2.4919389 150.9424895 77.8040588
-3.1848806 153.0437768 76.2647837
12.2965164 136.4942044 73.4319761
11.5708839 145.5767602 67.4818754
4.5928257 150.0842124 71.5348497
3.1839404 149.2741704 73.9586800
0.2394821 147.5008577 78.3261880
-6.4664111 152.4397880 79.6933472
-7.9678548 147.2164541 85.1118863
-10.1707373 146.0766643 87.3613209
-10.0722434 148.4656781 85.8644992
-10.9177530 154.6899825 80.4974437
-15.4307103 157.4906260 77.8027475
-18.1070715 150.9977728 89.3541574
-16.7768784 156.9839567 80.0543129
-22.8757933 152.1338522 91.0510495
-22.9807515 155.9288353 86.4004567
-23.0123494 157.6913446 82.2144896
-27.2039771 155.2097946 90.1966318
-28.6575332 154.2861611 92.2345892
-27.9939007 158.3526731 83.6037174
-30.2269366 153.8189650 93.4960917
-29.7082048 156.3226730 89.5356089
-36.6023555 157.8866243 89.8590088
-36.4463478 159.0104401 86.9952440
-40.3520763 158.4750712 90.4055983
-48.0536819 158.7584019 93.9596295
-41.1882102 161.0877514 84.3141526
-41.0674438 162.9979014 79.4790611
-45.5721840 164.4818336 78.1910270
-56.8272993 162.0737910 90.5793533
-70.8003193 163.2307172 94.7777927
-62.2818358 167.5754189 79.8375458
-93.8789099 169.0409631 91.0896137
-94.7469920 168.1681573 93.5016051
-96.7886373 167.6496416 95.5300406
-100.3357768 168.6974764 94.3809375
-112.2678071 174.8884767 81.4641342
-122.2008616 170.3086942 94.7370827
-126.1409372 174.8125702 83.5037827
101.1142731 24.2444389 -7.4844933
88.8724476 17.9740023 -11.0736955
69.7828531 49.3550412 8.1211068
81.2116489 49.8889349 0.4039027
79.5777738 37.7044417 -4.4388096
79.6346590 45.9126122 -1.2663853
76.3595328 51.1524566 0.4033911
75.5817667 37.7343409 -5.1157987
83.9620605 29.7359228 -7.0424504
81.4772770 23.0645929 -9.8136151
80.0067410 25.7517118 -8.9360299
58.7357208 77.0044401 28.2955710
57.2849736 77.6544809 30.4122083
52.1693788 77.3148462 38.6900976
50.9998612 83.3055973 39.3121019
50.0486083 78.3872232 40.6913534
35.6757268 99.5061845 57.1337864
34.0275392 103.3783481 58.5346259
32.8365453 101.3553813 59.9388704
33.2069732 111.5436852 58.3592877
30.5351578 104.8085093 62.0649271
46.0419767 83.6176574 47.2209565
43.2726927 78.3717781 49.2227338
41.8904573 87.8015384 51.3907298
41.2755683 90.1031792 52.0074368
40.5718498 96.3099673 52.5443517
36.2148546 90.2347937 56.6928983
45.9029824 78.6824822 46.8545482
28.4385923 114.7139966 63.0620793
24.4886689 114.5260558 67.2830716
19.9771598 115.1582003 71.4695752
16.0579178 120.2147156 74.4559541
15.9954410 124.5437413 73.8424063
13.8890296 118.1409955 76.3270557
30.2202012 114.5123914 61.1138307
28.5747107 108.4403619 63.8022646
28.6824182 111.6962805 63.2875934
26.8911812 95.5011919 65.0295094
26.7402437 104.3455824 65.6323433
-4.7468874 139.6261156 86.5815878
7.4228584 121.0397854 80.9057355
7.2268583 123.7532198 80.9873641
5.9656412 132.8241676 80.6591883
4.8725246 126.8506944 82.4392140
3.7014782 125.4162043 83.2838118
2.3666671 126.9991398 84.0599164
-1.6930538 118.7057793 86.0097036
-2.0623752 133.2563609 86.3286406
-3.0797094 130.6958199 87.1982202
-2.6997228 138.2955015 85.6281593
9.9179009 109.8835245 78.5852075
7.6178610 113.1323129 80.3059265
-7.2064037 143.3499455 86.8705511
-8.4587196 139.8362964 89.0104920
-8.8551603 142.2521025 88.4064436
-10.1891011 138.6468709 90.2902856
-14.7191146 143.6318457 91.3693905
-16.9031005 141.2273496 93.2253748
-17.2927789 143.6410695 92.6329792
-19.5881240 129.4291168 94.9364379
-19.7117291 132.1529150 95.1228887
-21.6506384 130.7299137 95.7849696
-22.1441835 138.7275606 95.9583074
-22.1034139 141.1845535 95.5756977
-6.8953023 130.8110058 89.3462747
-11.8547371 125.3213286 91.3608745
-39.2390601 149.0827799 99.9620631
-23.9081793 148.8462687 93.7875956
-25.7813986 133.3086342 97.4344313
-26.1169653 138.6158615 97.5019336
-26.5301429 148.2209712 95.3165442
-27.0860903 143.0732310 97.2113460
-26.6721714 152.1955132 93.0988267
-28.2547716 147.0263749 96.5661108
-30.7674371 140.4443383 99.0585089
-30.4287802 148.1721252 97.0403925
-31.5031111 152.6777148 95.0038806
-41.0339944 147.8144675 101.0022014
-44.9797958 148.2811123 102.1351591
-46.7459224 145.5100775 103.1490266
-46.3159159 151.7644525 101.2225300
-47.2387597 153.4517556 100.5652025
-48.4537780 143.3696151 103.9015725
-49.6769510 148.4942883 103.3810079
-50.6331138 144.5050985 104.3428928
-49.9080345 153.3409208 101.4976129
-53.5353422 145.7027793 104.7670171
-53.4095131 151.4629573 103.3849940
-55.9604652 156.9485068 100.6522179
-57.9726025 150.5687982 104.6838537
-41.3839445 145.1751143 101.7598957
-45.0170487 141.6347921 103.2035202
-61.1283295 150.0875056 105.5010483
-61.1994229 152.4079591 104.7748923
-62.8530607 160.7141793 97.0971510
-66.7858198 156.6671878 103.8207784
-66.5194169 159.1639966 101.7310098
-68.5262531 158.0607891 103.1475887
-70.2474862 149.4763494 107.3376015
-72.7030337 161.1951590 100.5887389
-75.6317824 154.5069963 106.4965948
-75.8330524 157.0082009 105.2471623
-77.2874430 163.4389907 97.4963233
-79.6972588 159.2492759 104.2995676
-80.6504190 153.5839140 107.6222211
-81.6550180 151.3758153 108.3841100
-84.3250081 158.9091420 105.1097140
-85.8886093 154.2810947 108.0883443
-85.0355923 164.7518724 97.9068130
-86.1464068 159.9626392 104.4879779
-90.3555229 153.7391394 108.4472835
-91.0982937 157.3531628 107.0291549
-89.8371041 165.7770425 97.3677337
-92.6951542 166.1267430 97.5252762
-96.1726010 156.9934040 107.6905280
-97.9683921 158.6652696 106.7527980
-96.8204662 166.1886573 98.5478312
-100.5456373 158.3120525 107.1090698
-99.2996320 167.3844308 97.1087813
-102.1437347 166.5863991 99.1567448
-104.5873985 156.3355178 108.6696237
-108.6437628 164.0914679 102.6349589
-122.3919615 160.0302160 106.9832593
-124.3579835 158.6369276 107.7274010
-124.5611981 163.8590246 103.7501171
-126.5105605 159.8001271 107.2827429
-125.3113598 169.9175835 95.8482847
-127.0551533 165.3856039 102.2050306
95.3104049 9.7064562 -13.6653138
91.3851559 -0.8490687 -18.0243216
86.1979127 14.3810837 -12.7094556
85.6862143 5.3095249 -16.2324850
99.5282978 -11.5580764 -21.4095879
96.1361825 -12.5007667 -22.0432226
90.7207206 -17.8144239 -24.5656110
89.3128812 -21.0892092 -25.9296894
83.2199156 13.4547008 -13.3357737
77.2758946 3.5222953 -17.6738389
77.0475194 0.2704442 -18.9507864
81.0201615 -13.0045228 -23.5947687
79.2447850 -5.2269767 -20.7738206
78.2732219 -14.5591944 -24.4376417
77.0953521 -10.0687658 -22.7946751
53.1847216 51.4097251 31.1240144
52.1853194 48.7529710 32.3177166
48.3949408 47.4338867 38.4565815
62.7204552 44.7386354 17.6452696
64.3086210 30.1935356 12.0481597
63.6526719 26.8156957 11.0852644
62.6828596 12.4170929 5.9799082
31.5016061 76.3067752 58.2967848
30.4790493 69.4836527 57.1725667
30.3108338 73.6575872 58.3857782
46.3377126 69.4731474 45.1975726
46.4749038 74.1713420 45.8332561
44.6883850 71.2392852 47.0015407
43.4245691 58.2124032 45.6943773
40.9363769 72.2555369 50.2955094
36.5037508 63.9006719 52.3028336
34.9017046 62.1335879 53.4197576
45.7873456 49.4463369 41.3764268
25.0947364 89.1549811 65.3874502
21.3546772 88.5163322 67.6247478
20.6233449 98.2139930 69.9517205
20.4584729 100.7859111 70.4657063
18.8249275 89.0738145 69.2540258
18.5806453 92.6847979 70.2752098
18.3719601 101.6630307 72.0519349
16.0686430 82.4630484 68.9070746
13.6650316 94.5154056 73.4218359
26.4651589 79.3562606 62.3014271
25.5875643 83.2708776 63.7841150
19.9395455 75.5046681 64.8220032
16.6315660 80.4281533 68.0186301
8.0778291 107.2191224 79.1565478
-16.1475074 125.3290176 93.1266099
-18.8282728 125.2423078 94.1241980
-22.5000232 120.8872199 94.6721137
-24.3769456 110.6585562 92.6966965
-8.7724002 109.1514453 87.1864334
-12.1361911 102.2314578 86.5431130
-29.0476456 129.0069818 98.1145054
-32.9961590 126.6647577 98.8511890
-40.7088399 135.9250396 102.1517441
-28.6699496 121.9852120 96.8034044
-57.7767938 143.2133168 105.9039533
-59.0967238 141.6464597 106.3360721
-45.5436558 130.1095933 102.4567932
-47.6456173 131.3479692 103.1404436
-49.5939180 136.1116022 104.1960418
-56.7922182 128.4974664 104.2228043
-58.5785434 134.9615008 105.7239696
-64.8671314 142.5606757 107.2233617
-65.0517717 139.9946362 107.3207781
-67.1372861 140.2750909 107.5221077
-72.9274228 148.1334418 107.9907790
-75.7095814 137.2779012 108.3263084
-60.5642460 136.8742287 106.2538773
-60.7807636 138.8677359 106.4818352
-61.5566224 119.4435433 102.5213376
-67.0775771 137.5624686 107.3381081
-70.4754144 134.0934187 107.2983518
-76.9289508 139.4425035 108.7245494
-79.9119994 148.7572342 108.7916940
-85.4168385 141.4119899 109.7290888
-86.2553418 149.2523849 109.4298959
-87.9891589 139.8205608 109.8528802
-88.5919929 150.2555013 109.5035076
-90.9205228 145.8588541 110.1284027
-78.1268924 134.8636299 108.3346084
-92.3160836 133.5355639 109.2605963
-95.4938605 152.4426341 109.5633879
-97.6683423 152.6655257 109.5954925
-103.2682434 149.8304754 110.5278730
-106.4011902 145.7534581 110.8804643
-108.7614745 143.7350661 110.9438688
-108.3901674 155.4048657 109.1663763
-109.7721830 141.1813349 110.9506711
-110.1534516 150.8602053 110.5155200
-95.1870680 131.3898861 108.9656949
-97.8614092 130.9512556 109.1508269
-111.7437333 148.5144645 110.8577847
-115.2253151 143.2803422 111.1241430
-117.0894131 136.7436498 110.5476767
-117.3275188 147.1934617 110.9509915
-119.6394265 146.7369199 111.1485139
-122.4661842 157.5946808 108.4059924
-124.4601011 142.6531971 111.1940295
-126.6244203 157.3316902 108.6209342
-128.2928586 141.0991400 111.1803055
-128.4197271 146.4551985 111.2171188
-128.8551688 143.4194744 111.1359596
-130.5251122 139.1711235 110.6499732
91.3055614 -44.3371497 -34.5773250
80.3659856 -22.9885131 -27.4498425
78.8853839 -30.8416598 -30.6035690
74.9202445 -27.8292466 -29.7411811
72.8870407 -25.5048294 -29.0452577
77.4178877 -52.0419069 -38.7759209
67.9474249 -40.1991606 -35.1641998
48.2242554 23.5660356 30.4673295
48.7145185 7.0865983 23.1679380
48.6215018 16.9502534 27.4531841
47.9887910 18.9432744 28.7908316
47.4876091 11.2270899 26.0691252
46.3837497 14.1891651 28.3803418
62.5873581 6.6729346 3.1095040
55.7823069 7.0143882 15.6336781
66.6903108 -44.3527475 -37.0848887
30.4686949 52.8217331 54.3907136
29.6080653 58.7390512 56.4391948
43.4221141 36.8284732 39.6327376
36.9503088 48.2451133 48.5060550
30.0761722 40.9533754 50.9628244
43.2499014 32.4527957 38.3173637
41.3536802 27.9782321 38.2617041
40.2404442 29.1584302 39.6197364
45.2783927 15.4654337 29.8946761
20.5997210 69.2006499 62.5380650
19.0725308 63.4752065 63.7517273
11.9255949 63.4040534 67.4442872
10.0705726 62.6984239 68.1752041
10.5946185 74.9902576 68.8839480
26.9155875 62.1644557 58.9420609
13.8120819 57.7256531 65.1637316
8.2586352 79.5639679 71.4808926
2.9593240 77.5045380 72.9150102
-4.7838939 86.4776075 78.9617002
-5.4367809 77.1692023 75.7950619
-6.4729187 79.8743144 77.1611705
6.1519360 68.1815073 69.7476268
4.4944943 62.2991696 70.5925673
5.0034821 69.9397251 69.8793381
2.4166410 63.8574138 71.8142688
2.1779295 56.5696172 70.0319931
-0.8002248 66.8850467 73.4052584
-1.3986579 62.2852556 72.9162097
-3.4525783 70.7194731 73.4377578
-6.2279808 60.9549470 74.3551925
9.2259953 55.6137711 66.7257309
-16.6216884 90.2013034 84.0282068
-17.3393134 92.7181169 85.1227641
-25.0154305 97.8315920 88.9198035
-13.2933082 86.9961008 81.9356516
-14.0535375 77.6323527 78.6411390
-14.4407758 73.4525993 77.2999898
-16.0573907 80.5876628 80.3655460
-16.3964760 76.7859444 78.9610520
-18.6542384 70.4322085 79.4590786
-19.0827101 76.0092884 79.3718770
-19.3958916 73.0451569 78.9473727
-24.1159797 71.5575516 80.8823183
-23.8370057 76.7206773 80.8898881
-9.9744396 64.3353984 76.5674114
-13.8386572 65.8140108 78.1561583
-29.0531553 99.6794552 90.5150473
-29.8786797 101.7139405 91.4287120
-35.1180732 95.5444202 90.5415118
-43.0517346 85.4411423 88.4630084
-25.8096941 74.4697601 80.8389485
-29.1308630 73.6146271 81.8244666
-29.2728003 72.2702220 82.3303983
-30.8804289 75.5764917 82.2934881
-34.0151824 75.8300871 83.1254050
-35.5859362 78.0051500 84.0816945
-40.2016379 82.9385072 87.0040283
-47.2328626 102.6517600 95.3219458
-56.8989962 106.2394902 97.9760736
-60.1047501 109.9295318 99.5438397
-43.8379608 93.6462581 91.5975347
-45.3270860 84.9849507 88.7713507
-48.6672223 94.1797942 92.7157849
-48.9798486 82.3874250 88.4971991
-51.5635312 88.1518424 91.0534933
-54.9628250 93.5340673 93.5579091
-55.3270765 84.1127187 90.2028158
-57.3281273 83.5243985 90.2863741
-65.5763745 114.4146323 101.6106009
-68.7848181 110.9651551 101.0208651
-70.4462007 109.0359464 100.7072553
-74.2285922 113.2084429 102.3799255
-75.2506033 102.0193174 98.8955349
-66.0797209 87.0209485 92.8070396
-73.9345178 93.4937373 95.9583074
-78.4205943 119.5757836 104.6224236
-85.3113830 119.7102889 105.2777320
-88.4527043 123.6427948 106.6023782
-83.1826404 98.0996713 98.2733965
-85.7305676 109.4649583 102.1512598
-92.7807987 108.5241288 102.1613777
-96.5457112 117.1670854 105.1208824
-99.7357666 128.6141574 108.6506173
-102.7121171 126.6770512 107.9808697
-107.8464091 115.2266264 104.6288684
-103.5868600 107.9244539 102.2271439
-110.0367010 111.3214642 103.3191681
-114.0503213 133.1434846 109.9270731
-120.2982292 135.0048035 110.2599353
-122.7402240 134.7437948 110.0230217
-114.7229597 130.1653385 109.0979949
-115.7987863 125.0011474 107.6204851
-117.2301769 129.5452267 108.9157015
-117.2634214 131.6874772 109.4239801
-121.0228279 120.1512739 106.1055288
-123.0904534 114.7950217 104.1761562
-127.1130294 121.5694472 106.3380688
-112.8160283 100.7890925 99.5282754
-131.3373148 115.8834025 104.1286662
92.1803266 -65.3991252 -42.6005200
96.6701284 -78.5015747 -47.0265672
94.4558978 -84.0063393 -49.4930148
86.7576897 -77.1712288 -47.5318916
68.6008781 -56.4460456 -41.1897488
79.9642578 -60.9494150 -41.9977382
67.4039796 -60.5090074 -42.7921787
81.4652666 -83.0843449 -50.2305068
80.6688517 -92.2814384 -53.8691282
69.3235844 -84.0341449 -51.6431294
67.6726177 -79.1401044 -49.9366261
66.5574670 -89.5453617 -54.0573746
53.9057627 -7.6900218 10.3795407
51.9781299 -6.0122539 11.6532296
47.0432676 -2.9632747 20.1663822
47.0517203 -33.7082334 2.1842611
57.5402305 -78.2766417 -50.4533760
56.6627085 -89.3166885 -54.7864251
53.5240620 -83.1919163 -52.8469756
44.0570749 10.9668681 29.2362142
41.8499336 6.8941778 29.3042436
33.5126817 -3.0536219 31.3120894
44.6400568 -2.9339276 22.3769322
42.1416089 -3.4015451 24.4447831
41.3867943 -15.2387675 19.2583371
21.0786518 24.8037968 50.4778326
11.2891020 20.4472858 53.6285490
11.0783326 37.8592238 60.0133725
24.8606447 8.7419460 41.9675000
21.0545212 12.1601801 45.5454327
17.8774223 19.9130103 50.2834804
20.3459132 4.3364386 42.7004173
1.5587304 53.9101921 69.4591552
-6.8442598 58.3348535 73.8399401
6.1184657 42.1186015 63.6528805
5.4731038 36.3667347 61.9347990
8.6963801 26.0592327 56.8372868
7.3878956 21.9323412 55.9437312
-11.4184134 53.9513677 74.0646496
-16.4896343 66.4967373 79.1292116
-18.6554827 66.1863759 79.7856301
-11.7657101 46.8039811 71.9103068
-18.2429664 38.1845385 70.9317252
-21.4359034 41.0724655 72.8993639
-32.6832011 70.1396689 83.9789584
-36.0976048 68.8780099 84.9419981
-36.5899056 66.7942911 84.6970826
-38.2476263 68.8782856 85.4139403
-39.3559076 73.1845200 85.0320458
-43.8115671 62.4123327 85.2623433
-44.0608785 67.0217350 86.4168927
-47.7839038 73.6853108 87.1515274
-49.3388958 75.6788924 86.8798345
-51.3564683 73.6017376 88.0407840
-53.7715927 71.8206614 88.9233798
-57.1256056 78.2244354 88.3747712
-57.9025522 66.8952242 88.8530836
-60.5557635 61.3327287 87.7951309
-61.1667633 67.0131817 89.3906802
-67.5669387 80.0619572 90.4435143
-68.1097731 86.4101499 92.8355381
-70.9202513 86.8568942 93.2904929
-73.3385757 86.2681642 93.3009312
-74.8837367 85.0226805 92.9177552
-62.7773330 61.2681620 88.1344602
-63.7471005 74.9234632 90.3744400
-64.8085773 67.1625882 89.9326578
-67.7936971 60.6489629 88.5558724
-68.5065687 67.2511682 90.3426781
-73.6506879 66.1907643 90.6509981
-80.1920593 77.2989392 92.5609022
-86.8850723 75.1538277 93.6589837
-87.2609392 79.6295628 92.8899869
-88.2340595 87.7924189 94.7703868
-88.9893025 83.4922343 93.1401253
-91.8004736 82.9463974 93.1933969
-93.0664465 84.9402994 93.8044116
-81.0757354 63.9727563 90.7309726
-81.4424455 74.4455978 93.0919498
-85.4058936 70.9961653 92.8046629
-85.6278837 66.4390475 91.7239413
-88.0599543 72.2459629 93.2836831
-93.6937481 72.4731535 93.6658829
-93.8862637 69.3076029 92.9513648
-101.4815792 75.9815574 94.6354792
-101.5877575 81.3289359 94.0238386
-101.5797183 83.5520104 93.6375409
-102.7490199 85.9382823 94.2407474
-105.9430391 79.7028989 94.9315503
-108.7555736 85.5214149 94.0201506
-109.8216027 76.4201581 95.0097963
-111.0639572 73.7834200 94.3806171
-110.4873866 90.4550701 95.6835672
-111.6678789 92.5044790 96.4391455
-112.9515842 79.2285725 95.2939391
-106.5769866 71.9814003 93.9017013
-113.2818311 71.7131495 93.9419046
-121.8843907 95.7164094 97.2298235
-126.5222132 99.3004292 98.1060490
-127.6155412 95.5237299 96.6525227
-114.1634062 94.1784233 97.0180556
-114.4644096 91.3090408 95.9524140
-115.5616492 76.8912360 95.0454101
-115.7392636 86.9912729 94.2258015
-117.5840721 72.9974434 94.2187160
-119.0599725 84.7897828 94.1037685
-123.0420768 91.8533951 95.6067890
-124.2083758 81.3200548 95.2578187
-124.3170723 85.9540328 93.9617828
-125.3067702 74.9190375 94.4188759
-125.3593564 91.0397843 95.1772481
-126.6011000 81.1264440 95.2987075
-127.9913187 92.6072299 95.4898000
-129.3927282 80.9549913 95.3209624
-130.8187991 96.6426358 96.7659354
-132.4325055 101.5846878 98.5288024
-131.8246424 82.6448500 95.0653106
87.9143625 -94.8801637 -54.2266294
83.0286443 -128.1910688 -67.3526153
78.6804780 -105.8731154 -59.1842048
75.3598660 -129.4249743 -68.5111880
74.1035193 -121.7046455 -65.6957254
73.8426745 -115.9045473 -63.4352192
68.0473372 -126.0943562 -67.8377450
59.4183691 -104.2985097 -60.2377169
55.2895889 -98.5792130 -58.4022216
49.5839156 -105.3527445 -61.4232756
65.7989308 -112.0696813 -62.7802759
61.6398454 -127.3318380 -68.8768104
59.0053722 -120.2198714 -66.4031282
58.6256087 -117.6143810 -65.3936118
54.3141589 -123.9852160 -68.1852475
53.4151122 -119.4721833 -66.5499792
38.6094972 -21.7037760 18.3204226
27.0096846 -28.9966110 22.9453929
43.4887148 -37.4701172 3.9012809
30.4772109 -50.4750051 6.6240113
46.8735620 -112.3120710 -64.3372610
40.1649587 -114.8024723 -65.8964664
21.4248877 -9.6643986 35.9691419
17.3152797 -8.8401288 38.5731682
24.6870816 -28.1868856 24.9305479
20.4049591 -29.4996146 26.8420540
23.1627207 -45.7067750 14.2202983
3.3522511 13.9520653 54.6009429
-1.7722453 7.7081872 54.1272387
-2.9377788 1.5567914 52.0494506
-7.2531556 8.9915497 56.6073768
3.5540755 -10.4105501 44.3121046
2.4610481 -16.3247120 42.1206430
-3.4796114 -4.9506524 49.4813137
-5.5356687 -5.8852821 49.8832576
-14.3018113 26.9061513 65.6957403
-21.2117936 10.0288177 61.4839680
-24.4353432 24.1057687 67.7267089
-27.0259958 25.3175013 68.8845664
-21.0267287 5.1371786 59.5375448
-38.1239653 44.7657742 78.5052031
-33.2242697 40.1156954 75.7484883
-33.5936435 28.0322675 71.5704039
-37.1684097 41.5879078 77.2474259
-33.4611647 9.6382443 64.7101775
-50.3222533 42.9685228 80.4457068
-50.4375957 17.9642476 71.7072710
-66.0190135 56.5522276 87.1385112
-65.7974407 40.8927314 82.2147802
-66.4169639 48.8849469 84.8522782
-73.2308626 45.0335406 84.3795091
-78.5627738 43.8037552 84.4393373
-64.8937374 30.1130842 78.4218237
-69.3353638 35.4376547 80.8066428
-71.1737648 33.1750847 80.2145973
-81.4572573 60.2437072 89.7135958
-90.6019583 65.1641265 91.6482434
-85.3803307 35.6520265 82.2041258
-89.5609036 49.1371341 86.8102089
-89.7139162 51.0966219 87.3960406
-107.7372134 63.6570603 91.7058364
-107.7888608 69.3581700 93.3283865
-109.0702787 66.6583329 92.6086456
-110.0158840 68.5936809 93.0785164
-113.0880415 64.1274229 91.8289572
-99.5990336 51.7113619 87.9690647
-116.8157607 59.1031946 90.2520046
-118.8972592 70.2934414 93.4774876
-119.7438836 58.7944724 90.0202543
-121.0582256 60.8013384 90.5360579
-122.1692413 70.0547844 93.3067948
-128.5473853 71.3828728 93.3422372
-129.5714527 56.3646257 88.6689276
-130.4910332 70.5197081 92.9446593
-115.6498194 50.0578992 87.2752592
-118.4838936 48.8019437 86.8541822
-132.5616986 71.5638846 93.0780470
-135.6156617 71.5575516 93.4145302
-131.7635924 60.4061484 89.7865221
-134.4832927 69.7154030 92.3509151
-136.6907060 52.0931520 87.4177814
-131.8721473 46.9246805 85.3702202
-133.6799860 44.4038250 84.3016580
54.8778251 -127.9304475 -69.7112307
15.9432534 -41.8826714 22.5415528
9.9383723 -55.7707176 15.8098117
18.0298816 -68.6830282 3.9423779
16.8156903 -64.7055954 7.4654953
31.3694812 -127.0662993 -71.4278966
-2.8323592 -18.3819253 43.2914346
5.3481772 -28.3066668 35.1333320
-4.0998883 -33.5073993 36.6195776
6.6984310 -44.9048094 25.6762356
-8.7104226 -49.5710224 30.0118979
0.0510604 -54.2083010 20.6044745
-10.5948169 -15.5647481 47.4410243
-13.9712105 -18.5210463 47.2234488
-21.6501243 -16.6014936 50.5438223
-23.1397133 -13.8283297 52.2130094
-23.4687999 -26.0562804 46.7974395
-14.5490775 -27.7893730 43.1840122
-16.0971284 -35.0810774 40.3326377
-18.6216123 -36.0553525 40.6897403
-26.5654251 -30.4793231 45.6773639
-40.9727506 6.6746059 65.3687716
-38.8041586 -5.4887668 59.9058494
-42.0271419 -7.5194505 59.7643554
-44.1399552 -3.0634822 62.0914772
-35.7128456 -17.1805024 54.1238263
-39.8814864 -23.7514675 52.1324612
-50.3386222 13.1522277 69.8585883
-54.8701696 9.2674326 69.1869631
-56.4558022 1.3938538 66.3485602
-56.9704324 8.5948594 69.2585334
-60.3793897 16.2231755 72.7007240
-60.5047792 18.3505956 73.4910145
-48.4067798 -15.1128378 57.9044186
-53.1228520 -12.9184015 59.7140305
-58.0491312 -16.4878443 59.0364002
-58.9253455 -4.2473655 64.4408539
-74.4734183 7.8662429 71.2564215
-76.1600658 3.7637744 69.8454604
-66.0798550 -7.4200840 64.1460121
-81.2694952 27.9399008 79.2626143
-85.7226700 28.5416506 79.8078626
-91.1840647 21.3909354 77.5823072
-91.8291733 30.2497447 80.6334466
-81.9733068 15.9993861 75.0604942
-82.4281946 13.3842118 74.1150081
-86.2913728 0.2926873 69.4027469
-101.4096215 24.0112841 78.7820593
-101.4856473 33.2699940 81.8765461
-103.0433327 8.6959852 73.2347444
-106.0310304 1.2650342 70.4164132
-123.6431599 32.2833657 81.0618177
-127.6149452 20.3739777 76.6424686
-129.2984635 18.2158742 75.6266117
-127.2780299 11.1907590 73.2964054
-131.0361624 10.1888562 72.6038069
-132.3808432 13.4244598 73.5938996
-6.0917740 -78.9023936 10.9976241
0.2202327 -87.2261897 3.2387332
-8.1560658 -92.8557068 4.1062483
-24.2375061 -38.5518037 41.1781371
-27.7440827 -42.9938696 40.1054062
-27.3272116 -54.9534224 33.6359404
-10.6113134 -57.0775345 23.1827311
-21.9656918 -66.8144748 22.6772781
-22.7716509 -74.3039548 19.3876904
-25.4672468 -60.7705973 26.3046231
-26.9693173 -70.9517747 22.2462360
-18.0657674 -84.6860036 12.7251633
-19.4494035 -78.0675635 16.5526830
-32.5701460 -46.5236977 39.7324786
-40.5819006 -44.8391289 42.5616279
-36.6865285 -63.1512552 28.1675290
-39.9001986 -67.7959770 27.0473156
-42.0746021 -64.1484186 29.0685557
-28.2023363 -77.0357773 19.7616722
-46.8985103 -25.5190302 52.9065691
-54.3161929 -21.9932385 55.9514426
-57.9613484 -30.1491451 52.9236495
-59.2202842 -31.6996239 52.4203889
-59.2480525 -50.9436168 43.4096754
-53.2112643 -65.6810477 30.8537204
-66.8090880 -17.1360336 60.0172766
-63.6642128 -28.3648316 54.6418615
-75.9698972 -32.2062597 54.4253998
-79.9576491 -27.3295641 57.0323505
-80.3573206 -26.0927882 57.5900376
-75.7601112 -37.7255790 51.9099273
-81.6450268 -7.1491431 65.9574047
-85.0152001 -7.7908882 65.9874007
-91.3129374 -6.3927146 66.9849738
-92.1078995 -4.0229792 68.0069402
-92.2311023 -9.1200992 65.9238696
-98.8404080 -9.5577063 65.9663603
-100.4525200 -14.0948761 64.0008897
-105.3482071 -10.6815035 65.5926764
-104.6504080 -35.2502167 54.7811538
-104.9851850 -29.1677266 57.4484617
-105.3205505 -24.3202765 59.5937446
-106.9470197 -26.5682749 58.6339012
-112.0509952 -29.1828886 57.4762933
-122.3989725 2.8177495 70.5290660
-127.6323497 2.3889446 69.9393749
-116.2298694 -5.3536780 67.5863698
-118.3591932 -13.3431377 64.1557127
-125.6471276 -11.3501912 64.5304918
-120.5820143 -31.7302905 56.1167300
-138.8419569 -2.4138854 67.1449825
-133.6513162 -17.6507421 61.2201951
-138.0093545 -10.8293360 63.3211359
-138.9670521 -18.9095605 60.0295067
-139.0147507 -8.2285572 64.6622926
-137.5180483 -24.1787732 58.0663271
-140.0766373 -27.5751445 56.6270873
-17.2326434 -96.3222682 6.1700842
-42.8895801 -77.1743879 23.5775523
-39.9439558 -95.3257307 14.2822191
-40.5842140 -81.7606300 20.8787471
-43.8552983 -92.0868143 16.8673377
-37.2082740 -111.0030636 4.8245564
-41.4830074 -109.1929674 7.3450594
-51.1546098 -78.1747103 25.0328220
-50.0659272 -85.6385455 21.3995166
-51.1321127 -89.3570110 19.8845938
-57.5788580 -97.7007002 17.4208898
-46.1484157 -111.3021970 7.4648433
-64.2310828 -59.0834543 40.0236323
-69.5603713 -60.6455989 39.9894789
-73.5966936 -55.7987839 43.0885628
-75.4972473 -54.1781858 44.0850258
-70.9050894 -68.2563037 32.6441936
-79.8035115 -69.2393705 33.2928933
-75.6900087 -95.0025544 21.7748489
-84.2741951 -48.8670766 47.5543402
-84.4525322 -46.9548889 48.4535545
-87.4962732 -53.5477884 45.5412753
-94.7455838 -49.4443402 47.8906631
-96.0188508 -43.6040908 50.6852232
-98.0873927 -54.2329215 45.7126983
-83.1787139 -63.6118203 39.9519876
-104.9498171 -59.4012365 43.4098504
-99.5287970 -82.2235197 28.8435724
-116.9162914 -53.8793467 46.1057015
-118.5485646 -46.7710979 49.3612662
-117.9471239 -62.3582900 41.9773459
-130.6898147 -60.5030619 42.3700772
-125.9221286 -76.2001276 30.2279890
-126.6406775 -80.6827843 28.3126459
-131.3136071 -73.7325624 30.6918174
-134.0713054 -33.2262628 54.5453988
-132.9803914 -46.2006293 48.9650741
-141.4176524 -54.3298610 44.6767993
-68.1392550 -106.9158986 14.9364751
-76.7530128 -106.4840779 16.4713636
-78.7258893 -104.7347039 17.5486840
-109.4601080 -92.5504714 24.5082658
-114.7094443 -92.4025401 24.3293513
-111.7354557 -117.0885637 13.3460909
-122.4329770 -86.4672288 26.2830015
-116.0249636 -94.9618891 23.2244842
-122.9047254 -92.9234028 23.6235764
-124.0642443 -98.8001749 21.1296082
-126.3267547 -96.2216035 21.9633728
-127.2503585 -100.1403630 20.3078743
-131.9209337 -89.1035870 24.3843477
-123.2992336 -108.1556082 17.2249172
-126.0495484 -116.7991310 12.7805155
-126.0434836 -109.5116436 16.4402220
-126.9788593 -114.5037115 13.9721520
-130.3405315 -116.0797179 12.8248278
-130.3535402 -108.8520139 16.3890012
-140.9569681 -87.5016674 23.9100996
-134.4771385 -92.3996642 22.7811132
-134.9994838 -96.3451341 21.1000331
-137.9932910 -91.9271111 22.4868152
