# .PCD v.5 - Point Cloud Data file format
VERSION .5
FIELDS x y z
SIZE 4 4 4
TYPE F F F
COUNT 1 1 1
WIDTH 1574
HEIGHT 1
POINTS 1574
DATA ascii
34.789902 96.461036 -69.284109
32.697034 97.752702 -70.058707
34.321123 96.748900 -69.550001
30.156733 98.887687 -71.234409
29.340399 99.158297 -71.572471
36.984857 94.364483 -69.029931
33.974322 96.793600 -70.717842
34.646338 96.322221 -70.486272
32.802417 97.505512 -71.254381
33.251735 97.206928 -71.279711
31.831667 98.031334 -71.798932
36.259507 94.836375 -70.404951
29.765332 98.916907 -72.992498
35.008942 95.937230 -71.102807
35.411780 95.571199 -71.151715
29.981567 98.791555 -73.561556
32.881366 97.256571 -73.017970
30.714901 98.448291 -73.835324
35.100305 95.665420 -72.306457
31.911183 97.805215 -73.840475
33.981798 96.475393 -73.082873
33.960796 96.462972 -73.375545
36.864819 93.913112 -72.293562
30.415824 98.548757 -74.703150
32.806752 97.204393 -73.897058
35.452762 95.256422 -72.950784
34.382788 96.122183 -73.417917
35.027920 95.610778 -73.191961
32.575323 97.362604 -74.159475
35.858865 94.895743 -72.994221
34.796335 95.771111 -73.458169
31.624935 97.925775 -74.707188
36.668744 94.143639 -72.819240
35.636553 95.063586 -73.267143
36.249408 94.522911 -73.338593
31.135975 98.201447 -75.258197
37.284808 93.623540 -73.170586
36.022847 94.708934 -73.882115
34.333981 96.146827 -74.830926
37.994028 93.246292 -73.458347
35.186605 95.460896 -74.625299
32.086778 97.717932 -75.826221
32.782708 97.284629 -75.571911
35.399225 95.293296 -74.643703
34.338622 96.172595 -75.106721
31.848770 97.870368 -76.103451
37.600646 93.667016 -73.956066
34.124391 96.357291 -75.364496
37.398925 93.870407 -74.207796
31.614854 98.030533 -76.376660
31.864563 97.913348 -76.371291
31.397064 98.202331 -76.637406
34.140631 96.400429 -75.632858
38.128940 93.506180 -74.206169
30.921724 98.485941 -76.908707
33.935498 96.598085 -75.886677
33.509592 96.952248 -76.127461
34.389139 96.305325 -75.907124
36.342250 94.796627 -75.219639
31.931294 98.046862 -76.885452
32.615942 97.596848 -76.634165
36.585284 94.674794 -75.219034
31.724494 98.244389 -77.139926
34.658496 96.241024 -76.167827
35.313783 95.744330 -75.936347
36.638227 94.774578 -75.461904
32.224096 98.015204 -77.133529
34.245790 96.613916 -76.399807
34.477898 96.476609 -76.404628
35.423753 95.948267 -76.419133
36.761089 94.991302 -75.944148
33.045275 97.804383 -77.352400
35.011269 96.322056 -76.649788
35.670891 95.829559 -76.420211
37.738518 94.497863 -75.656105
37.012261 94.888474 -75.931645
33.300967 97.699836 -77.345533
37.272837 94.797114 -75.916244
36.573346 95.220296 -76.181742
34.209772 97.101208 -77.101702
32.003619 98.730487 -78.076514
32.379298 98.817915 -78.274569
33.070271 98.382692 -78.013056
39.249825 94.347641 -75.748490
35.671501 96.375971 -77.091864
34.653213 97.311477 -77.535376
37.263135 95.319182 -76.606623
32.746890 98.906266 -78.465010
34.107380 97.996995 -77.958795
37.089281 95.569795 -76.832638
33.128389 99.002927 -78.658404
37.761036 95.616677 -76.999370
32.939507 99.224477 -78.901000
38.183907 95.777292 -77.169334
33.797965 99.047310 -78.819936
34.770825 98.544420 -78.539676
33.311263 99.312598 -79.094922
34.612391 98.817401 -78.754314
34.280487 99.314155 -79.223004
39.692540 95.636916 -77.248931
34.561259 99.257545 -79.190875
35.833453 98.720993 -78.868866
39.663779 96.108843 -77.677751
40.640853 95.628253 -77.378433
36.284331 99.456789 -79.695809
36.058233 99.641738 -79.950381
36.649156 99.544547 -79.887662
36.933660 99.487713 -79.858790
37.220663 99.430908 -79.830474
37.505061 99.378094 -79.798937
37.015769 99.625620 -80.084454
37.309043 99.571126 -80.055956
36.502828 99.834884 -80.385658
20.716697 100.279763 -63.755117
17.976416 100.263408 -65.041560
20.654216 100.273068 -64.347226
17.288507 100.242282 -65.433040
18.965215 100.252565 -65.171379
17.948172 100.235243 -65.612083
20.281328 100.256266 -64.976346
17.564500 100.216369 -65.971161
18.252505 100.232903 -65.856171
16.880370 100.209203 -66.361241
18.462459 100.213289 -67.822493
17.704166 100.173091 -69.370873
19.049068 100.196387 -69.156229
20.026850 100.211029 -69.290887
19.677869 100.198197 -69.630405
18.941460 100.196899 -71.446345
20.244308 100.179205 -71.253680
19.908558 100.188829 -71.586212
19.868012 100.201173 -72.445534
19.160482 100.193288 -73.132962
20.195249 100.197923 -72.952512
20.092002 100.179610 -74.407422
19.728440 100.170568 -75.314928
20.044250 100.167623 -75.550694
29.729016 98.895498 -73.563615
29.136435 99.072630 -74.744287
29.351428 98.978095 -75.866796
29.086628 99.108890 -76.436440
30.369355 98.597928 -76.395511
29.620969 98.978583 -76.962716
30.407803 98.694801 -76.926057
30.860939 98.947860 -77.908680
30.922316 99.065986 -78.142499
16.502746 100.202068 -67.550642
16.763898 100.180875 -68.376892
17.626177 100.169793 -70.809236
17.839544 100.174760 -73.336889
18.441350 100.175980 -74.664239
57.247584 79.876517 78.197250
56.702822 79.027631 77.274384
57.075541 78.148009 77.189944
57.485843 75.341825 76.334550
56.813724 76.263132 75.883709
57.300798 75.052525 76.026245
56.389133 77.128562 75.456104
57.142251 74.817788 75.731532
57.522835 73.915083 75.901357
57.356464 73.652746 75.594315
57.441282 73.278188 75.546430
56.638034 75.542831 75.003993
56.486222 75.835619 74.506082
56.724960 74.696982 74.637791
56.535767 75.417936 74.189689
57.121962 72.355754 74.100639
56.724667 74.222836 73.781758
56.950707 73.151877 72.330610
56.660413 75.246869 71.791235
57.032950 72.808339 72.025080
56.981900 73.258377 71.284086
57.131043 72.514066 71.194875
56.830642 75.132173 70.194070
56.934196 74.832993 69.629151
57.394447 72.548569 68.555271
57.674501 73.695602 66.062523
57.881760 73.056612 65.453467
58.001854 72.809672 65.157109
62.524330 72.829716 52.878873
63.246879 72.595881 51.807478
55.973917 81.775198 78.375225
56.949711 80.865774 78.567079
55.760967 81.466386 77.807106
56.305126 80.840184 78.010098
55.412813 81.895709 77.576798
56.452013 80.584137 77.986347
55.537112 81.615399 77.553454
56.748823 80.078146 77.942283
55.468850 81.514047 77.272801
56.021181 79.468952 76.519594
56.245775 78.836303 76.449802
56.350212 78.506083 76.412512
55.406620 81.017685 75.898634
55.598169 80.319145 75.817962
56.101376 78.642108 75.896039
55.671916 79.954314 75.512101
55.750976 79.597417 75.472353
55.930223 78.897283 75.393361
55.419049 81.072507 74.852627
55.912651 78.865500 75.122673
56.184848 77.809278 75.267648
55.822613 79.238606 74.902868
56.081529 78.138949 75.038154
56.212553 77.373280 74.684819
55.760335 79.697474 74.168342
55.142140 82.713986 73.472340
55.245565 82.379636 73.171798
55.328681 82.018459 73.129249
55.564874 80.894021 73.258680
55.360801 82.110463 72.616756
56.154702 77.886611 73.164536
55.403059 82.219727 72.106743
56.373593 76.745358 72.764315
55.860910 79.964525 72.099342
55.977276 79.686130 71.541597
55.928555 80.113876 71.331671
55.661132 81.710571 71.000261
55.824815 80.967660 70.911521
56.021761 79.808238 71.031419
56.282859 78.228708 71.101502
55.925064 80.674198 70.613127
56.414525 77.434579 71.004546
56.490306 77.572982 70.234476
55.881017 81.646713 69.686197
56.652949 76.317363 70.342010
56.698914 77.506313 68.912605
56.368933 80.532851 68.243353
57.204276 74.850054 67.788967
57.043074 77.139215 67.294142
56.391749 82.139729 66.619565
56.756839 80.262547 66.642581
56.845392 80.435473 66.142897
56.593700 82.579922 65.369144
57.448956 75.879981 66.081244
57.257363 78.112985 65.845829
56.985879 80.724909 65.396004
57.763870 74.414287 65.365830
57.318596 79.777537 64.757268
57.697227 75.329511 65.222167
57.463656 78.522111 64.852066
57.780760 74.969463 64.911902
57.474876 81.642528 62.914483
57.245289 82.816885 62.537179
57.712556 81.077052 62.578955
58.064618 80.679353 61.752276
58.017813 81.119232 61.547862
58.064353 81.742472 60.846862
57.891004 82.471559 60.678311
57.983164 82.655139 60.181872
58.550044 81.071376 59.987116
58.580599 82.206751 58.831043
59.034730 80.937990 58.934921
58.971600 81.895966 58.014794
59.107824 81.623452 57.981508
59.300029 81.457768 57.702856
59.189471 81.784443 57.482166
59.348000 81.530602 57.456311
60.801306 81.652652 53.331099
61.397038 80.642783 52.948099
61.493536 80.814580 52.716361
61.799233 80.313585 52.657629
61.986766 81.201196 51.482264
62.825938 78.549930 51.904444
62.438812 80.975934 50.943971
63.045324 79.977064 50.820262
63.136665 80.135505 50.588689
63.653653 80.024890 49.810012
48.552602 87.762123 51.940546
49.148415 87.313260 50.841412
51.271436 87.238371 50.965335
48.591871 87.002924 49.692647
49.098218 86.874096 48.908006
49.076981 86.844325 48.640024
49.699998 86.845934 48.680808
53.062088 86.813681 48.361211
51.167402 86.773620 47.703316
51.127178 86.761625 47.164191
52.373295 86.777274 47.247708
51.101891 86.761193 46.630261
50.482326 86.775654 46.063203
51.732643 86.767862 46.411600
51.100164 86.770237 46.103477
50.691136 86.753001 43.944711
50.374899 86.752980 43.658228
53.194564 86.782018 44.384376
50.990202 86.796001 42.643903
53.440556 86.784874 42.543768
52.786589 86.777588 41.963302
54.048481 86.784935 42.320208
51.596301 86.881574 41.366689
52.514383 86.867268 41.162981
53.425157 86.890366 40.697614
52.281434 87.083969 39.852305
52.652226 87.195790 39.363345
53.005525 87.319493 38.880165
54.135570 87.128374 39.193144
46.302653 89.420333 54.449717
46.619321 89.426973 54.472871
45.483154 88.693183 53.483859
42.816761 87.978405 52.683311
47.072129 88.751136 53.585426
42.170307 87.506564 52.034546
41.381230 87.264328 51.687241
44.706780 88.028633 52.535011
47.439587 88.391947 53.021311
43.000243 87.371521 51.532434
39.455129 86.791644 50.425220
44.459790 87.686018 51.932288
43.677218 87.455987 51.584513
46.579770 88.042330 52.393232
38.126429 86.738997 49.531362
38.435106 86.729980 49.549048
43.154330 87.163032 50.975902
42.757563 87.042139 50.669579
40.682141 86.781779 49.964949
41.338308 86.813063 50.014093
43.763854 87.143243 50.749383
37.096662 86.676777 48.650243
40.654318 86.755506 49.692082
46.874798 87.587920 51.541393
46.052934 87.316238 50.913983
41.595742 86.771109 49.486619
47.742636 87.502927 51.316955
40.930867 86.725203 49.171670
38.032180 86.661177 48.177382
37.712595 86.714696 47.359282
41.830309 86.719590 48.160248
46.010351 86.864984 49.245228
42.757729 86.734457 47.951393
39.558529 86.696434 46.937487
39.245258 86.715368 46.652555
43.702819 86.745113 48.013227
40.514603 86.700612 47.001750
48.204582 86.901670 49.125657
46.559870 86.800193 48.471491
40.501036 86.716525 46.467457
43.025793 86.718128 47.164279
44.312016 86.740169 47.520449
48.143878 86.835127 48.580625
44.942740 86.741621 47.562705
45.873275 86.743255 47.621000
40.802277 86.737426 45.954236
39.031065 86.978267 45.073886
46.472842 86.749534 47.125855
47.734109 86.764526 47.474919
41.426258 86.767509 45.464441
38.814333 87.152850 44.550634
44.224200 86.707620 46.171498
40.529041 86.867823 44.886151
47.402797 86.753879 46.921601
39.415877 87.135519 44.321241
48.655847 86.767241 47.268648
47.709878 86.753711 46.940532
42.672872 86.803183 44.750070
41.496826 86.957516 44.161616
42.394835 86.881588 44.209334
45.439590 86.717252 45.185831
39.645469 87.566519 43.066138
39.419658 87.716662 42.806307
40.771551 87.364941 43.109336
41.055640 87.313882 43.119097
39.478032 87.829931 42.563705
46.050495 86.716899 44.694243
47.325647 86.745804 45.050567
43.630228 86.883558 43.757551
44.219534 86.841545 43.790052
43.062260 87.023599 43.207306
47.618648 86.741092 44.537537
42.796534 87.109820 42.935418
45.156739 86.841042 43.586556
45.468993 86.834664 43.607141
43.673779 87.024993 42.982118
42.577574 87.302606 42.420197
43.705673 87.083866 42.726065
41.308448 87.791567 41.877572
46.367315 86.808058 43.395552
41.095345 87.965511 41.625218
40.358325 88.294390 41.358727
40.630272 88.228015 41.365588
45.771198 86.874697 43.098743
48.834844 86.752318 43.820670
44.920320 87.033765 42.532269
48.193207 86.745382 43.508433
45.810976 87.001126 42.322132
42.587378 87.880780 41.178701
45.280265 87.142699 42.040334
49.436571 86.763640 43.329094
45.565492 87.103714 42.053867
48.495584 86.784086 43.000494
44.249022 87.547153 41.238050
47.015990 86.945303 42.127798
48.227337 86.884157 42.200357
42.353792 88.550559 40.202168
46.502869 87.130260 41.587309
43.614464 88.058566 40.473419
43.407349 88.247208 40.228264
42.694312 88.610536 39.969808
47.666840 87.011813 41.649399
45.999572 87.369046 41.061372
43.220251 88.453097 39.978454
47.695907 87.075351 41.395427
47.137546 87.195118 41.110207
46.391174 87.522455 40.579325
44.159217 88.492146 39.520803
49.806491 86.978462 41.258663
48.932085 87.097526 40.951617
43.807521 88.948911 39.039732
45.506656 88.153358 39.554618
46.545458 87.813223 39.838412
43.654756 89.205877 38.796800
49.834602 87.066353 40.742554
45.738971 88.562264 38.837560
44.604749 89.262165 38.345632
47.772747 87.819299 39.393256
45.555073 88.781168 38.597213
47.549218 87.969817 39.134861
50.798083 87.170601 40.028875
51.116855 87.207886 39.792376
45.815270 89.237935 37.896587
49.787182 87.577368 39.226350
49.679502 87.940978 38.479079
46.784349 89.319908 37.442464
49.464422 88.117625 38.232552
52.094536 87.335385 39.085167
48.531538 88.631083 37.717600
49.337156 88.435032 37.743576
51.397059 87.732410 38.300805
47.083998 89.839210 36.758321
49.146171 88.638889 37.498573
50.681669 88.104863 37.780706
49.499855 88.717077 37.266257
49.763575 88.647004 37.276013
47.960203 89.765963 36.542161
52.575426 87.659543 37.840055
50.192650 88.867027 36.813034
49.608981 89.439565 36.331469
49.186780 89.770502 36.096072
49.862765 89.350795 36.334506
49.535133 89.844851 35.866289
50.837733 89.474367 35.633473
65.514967 87.385975 -24.012901
65.452316 87.298965 -24.324166
65.192772 87.391600 -24.578584
65.405293 87.232488 -24.589245
66.380782 86.811120 -24.589790
65.786854 86.865560 -24.930579
66.887862 86.631926 -24.573762
67.318323 85.860782 -25.523879
64.698350 86.181947 -26.889036
65.748081 85.861018 -26.545205
68.956382 85.007706 -25.549405
65.388885 85.793579 -26.874381
69.435641 84.782184 -25.545721
66.638800 85.294249 -26.579228
64.233687 85.958540 -27.525148
64.460564 85.823657 -27.524436
72.982991 82.524234 -26.000455
17.437863 93.909296 82.019389
36.188622 86.748709 48.072891
35.566020 86.777652 47.769451
35.558723 86.805490 47.502574
35.864517 86.785137 47.519135
36.472826 86.784429 47.021245
36.787944 86.800786 46.775732
35.994017 87.094063 45.967314
34.952545 87.457816 45.418426
37.193172 86.995410 45.759063
35.037926 87.631973 44.916240
34.786668 87.745065 44.648685
37.502545 87.016345 45.515974
36.329690 87.714223 43.674299
38.293077 87.336344 44.277351
36.630064 87.719190 43.693029
37.852495 87.705012 43.235937
39.545953 87.952594 42.321744
40.792751 89.043724 40.173138
40.365428 89.371892 39.934332
41.051952 88.960380 40.178610
56.497141 92.044720 -27.474461
56.677673 91.369016 -27.888982
56.429796 91.482206 -28.168971
57.958085 89.432312 -28.231727
57.730786 89.587157 -28.776825
56.999269 89.951596 -29.318818
56.520202 90.201102 -29.585988
58.549297 88.401072 -28.978987
57.602078 89.416625 -29.385364
58.712436 88.150922 -29.029315
55.966029 90.345566 -30.168952
57.990741 89.040690 -29.432102
58.348014 88.616448 -29.494100
57.236082 89.367905 -29.983920
58.115494 88.767964 -29.748590
56.261130 89.837444 -30.537501
62.131236 86.621148 -28.440517
58.945741 87.597528 -29.947969
58.569681 87.999035 -30.180049
58.134018 88.320490 -30.423150
58.744444 87.771525 -30.225473
56.962714 88.980698 -30.941846
58.320829 88.123235 -30.445077
57.845285 88.377621 -30.712560
12.850334 100.311831 86.802263
10.926610 100.387165 85.694921
10.545759 100.362972 84.886961
10.826816 100.313009 84.888449
9.250522 100.423394 84.051121
10.185830 100.359217 84.341641
13.354761 99.304727 85.388878
11.527628 99.960904 84.609369
12.233590 99.577169 84.842688
11.735294 99.801044 84.597404
9.495046 100.360057 83.521551
11.961817 99.236583 84.277002
11.054427 99.811099 83.786906
11.633985 99.248543 84.000792
11.334026 99.296431 83.724752
11.572187 98.726109 83.664799
9.396394 100.277365 82.715655
9.081732 100.313528 82.441335
12.228474 97.843743 83.598269
11.128422 98.604204 83.115600
11.685767 98.005333 83.325988
11.227835 98.284813 83.073846
10.617166 99.276988 82.640005
10.263204 99.706615 82.414661
11.070615 98.079906 82.774280
11.675750 97.561064 83.013352
9.287041 100.189939 81.903163
10.484252 99.099751 82.341703
12.214038 96.957174 82.968928
10.587613 98.350031 82.262776
14.114967 96.415379 83.494432
10.376634 98.962802 82.053875
9.394522 99.946916 81.084017
10.061042 98.157655 81.164963
9.927434 98.881666 80.975355
9.913398 98.404330 80.915409
9.790357 99.157608 80.735371
9.473615 99.650091 80.525125
16.090559 94.707172 82.583157
29.770180 99.644359 38.798277
29.460963 99.676535 38.513528
28.833528 99.736340 37.938182
28.025899 99.960168 37.653854
27.953392 99.870557 37.368261
28.469162 99.691424 37.377616
29.046570 99.610372 37.404276
30.605910 99.546525 37.775683
27.820085 99.716587 36.541093
29.940846 99.546005 37.191106
25.856083 99.672918 35.848576
31.498180 99.469993 37.562433
29.618992 99.546515 36.903646
26.176902 99.743281 35.603413
26.462233 99.687318 35.354979
31.774434 99.436556 37.045505
29.230947 99.503943 35.802151
32.966110 99.358426 36.850049
27.904350 99.494628 35.157270
32.921021 99.346658 36.045046
27.528898 99.461179 34.322222
32.585566 99.341383 35.751305
27.809712 99.433859 34.068186
33.785085 99.269345 35.560009
34.062765 99.234475 35.307167
29.658471 99.343001 33.666400
28.669010 99.344089 33.051686
33.997493 99.192531 34.494495
33.675781 99.191218 34.205915
33.036801 99.204765 33.891638
29.809129 99.223709 32.045888
34.831804 99.094762 33.473999
29.478006 99.220143 31.752527
32.259633 99.109378 32.209664
27.808531 99.202364 30.277952
33.465288 99.039036 31.760074
28.401285 99.154306 30.047387
30.909085 99.086919 30.760986
31.531247 99.061594 30.806638
30.581336 99.087218 30.468312
29.642247 99.107237 30.135632
30.891475 99.073546 30.490715
35.570540 98.924198 31.629129
29.588187 99.073430 29.586466
31.801524 99.010878 30.288017
27.987351 99.104179 28.927315
34.616213 98.926588 31.027274
33.661643 98.942737 30.686205
28.293148 99.090908 28.947552
32.653194 98.919978 29.797443
30.736822 98.959027 28.848205
33.855282 98.852051 29.609889
34.795284 98.823518 29.683496
33.190178 98.841438 29.019606
36.032313 98.779906 29.775114
36.341399 98.768306 29.798082
30.647911 98.882268 27.759372
34.093815 98.783128 28.815514
33.165453 98.799513 28.486288
35.359425 98.763441 29.181408
33.768835 98.774259 28.524320
31.224924 98.831061 27.523109
29.954020 98.859777 26.891691
32.421637 98.741587 27.334656
30.845057 98.796026 26.680213
32.398523 98.721229 27.062034
33.333839 98.683317 27.134790
36.749145 98.590332 27.919363
32.335156 98.688366 26.507520
32.319646 98.671281 26.238183
35.766893 98.566380 27.040041
37.004496 98.519284 27.134969
35.375488 98.520888 26.192802
32.824505 98.563524 24.919373
36.276698 98.462906 25.990063
33.135910 98.548717 24.943991
32.500518 98.564068 24.626375
33.428050 98.516598 24.697583
30.589229 98.625767 23.669208
33.091269 98.517046 24.398015
29.952763 98.643597 23.350708
34.012062 98.465679 24.466757
33.368973 98.481331 24.144491
32.434171 98.508836 23.807981
33.038233 98.476185 23.848386
34.260617 98.412435 23.937235
34.512588 98.357918 23.409516
33.212477 98.361405 22.495805
35.727800 98.283182 23.234265
37.838852 98.163071 23.118522
36.246991 98.182424 22.187050
38.725382 98.113588 22.910382
38.089089 98.114185 22.590942
36.524420 98.149099 21.934185
33.680082 98.240569 20.630249
36.162628 98.136783 21.358230
31.491629 98.325748 19.656545
31.128502 98.330963 19.077581
31.749568 98.286653 19.128694
36.686274 98.029490 20.313651
33.862070 98.136723 19.278563
33.496977 98.125710 18.699356
37.231760 97.957506 19.803553
31.964944 98.215409 18.053039
33.786206 98.093172 18.451444
38.775305 97.890390 19.929633
35.648944 97.994812 18.870777
35.592399 97.967491 18.316222
31.869325 98.159578 16.950839
37.457345 97.878607 18.737997
36.528607 97.907839 18.398441
39.570785 97.763251 18.893346
32.440095 98.094329 16.450185
33.980855 97.999576 16.839403
33.061011 98.056263 16.502177
39.810729 97.701151 18.098185
34.524939 97.921481 16.063064
37.597463 97.756654 16.840026
40.369224 97.626880 17.334297
32.619961 98.014456 14.826202
39.094538 97.655146 16.684157
32.613296 98.005709 14.558470
35.996322 97.798533 15.628513
35.072666 97.846921 15.288487
33.214201 97.959086 14.601892
39.072912 97.638163 16.410799
38.139873 97.674223 16.065996
39.055572 97.620781 16.139817
33.505536 97.928118 14.354758
33.803976 97.903861 14.375643
36.257130 97.749390 15.103900
34.078579 97.872697 14.120236
38.375005 97.603494 15.267104
37.741952 97.625082 14.943243
34.670380 97.818773 13.895423
40.492673 97.443242 15.699493
40.167374 97.452443 15.399972
38.013267 97.593071 14.686956
33.716689 97.868852 13.274352
37.386593 97.614442 14.102515
35.548141 97.733148 13.421839
39.200054 97.474651 14.509029
39.491762 97.438839 14.528565
37.370995 97.603966 13.831132
39.457993 97.409897 14.248869
40.848187 97.137038 14.317312
33.636786 97.835708 11.910613
34.867121 97.754341 12.278797
40.247597 97.206281 14.003471
33.937007 97.813831 11.932765
40.528014 97.149399 14.020153
41.689849 96.977131 14.365034
38.775817 97.398104 13.109857
36.666694 97.598314 12.413751
42.491579 96.785998 14.128656
37.566534 97.514709 12.483002
38.431632 97.392159 12.537608
35.721227 97.663083 11.528856
38.985549 97.285437 12.562571
38.127787 97.427627 12.247330
33.855533 97.775156 10.567477
41.799650 96.748298 12.987148
35.975559 97.606645 10.735600
34.116760 97.736930 10.040308
37.743884 97.407300 11.124999
38.873975 97.196685 11.452335
40.548764 96.851159 11.806623
34.403800 97.706979 9.791237
42.909390 96.583251 12.510176
34.693372 97.678595 9.543447
38.535658 97.204229 10.619171
42.579346 96.579045 11.945142
39.643380 96.963510 10.937679
38.810668 97.137996 10.633502
38.228950 97.248656 10.324128
36.465665 97.509795 9.137472
43.465463 96.543236 11.214066
40.689902 96.685167 10.173263
36.133403 97.539279 8.566698
38.682565 97.057367 8.982978
38.952161 96.989835 8.993421
41.821927 96.534301 9.707932
35.489944 97.595199 7.435604
35.182176 97.618661 7.142784
35.478487 97.591477 7.164269
36.692758 97.479993 7.531738
38.632197 97.043142 8.161596
39.731893 96.782395 8.217543
36.070653 97.537954 6.941592
42.093329 96.521834 8.922678
40.241809 96.647396 7.693093
43.355091 96.585374 8.515222
37.198642 97.372807 6.471886
39.650251 96.753111 7.114519
42.354688 96.500237 7.867068
36.900593 97.437049 5.915368
41.383956 96.498662 7.232959
37.987509 97.167204 5.963485
41.074150 96.524691 6.938428
42.323897 96.490565 7.322237
41.380581 96.506036 6.965462
42.655203 96.516062 7.359582
39.062353 96.887883 6.006128
41.057558 96.524706 6.664916
39.609602 96.762630 6.032092
41.041378 96.527322 6.391416
38.242672 97.106291 5.435821
41.356285 96.510957 6.422498
35.967066 97.551811 4.495006
41.035332 96.536281 5.856728
36.247986 97.524620 4.243331
42.254868 96.485456 5.696374
40.711827 96.586947 5.022609
42.218987 96.481753 5.148640
38.763921 97.049896 3.849609
40.716571 96.630288 4.225542
36.815687 97.530901 2.408004
44.255573 96.745494 4.600241
37.389028 97.471007 2.178175
39.577232 96.938610 2.551496
44.138837 96.653775 3.486327
37.939952 97.402105 1.404686
43.090331 96.499485 3.080385
39.044457 97.144505 1.729786
37.348252 97.490905 1.091464
39.847068 96.933680 1.762403
40.115996 96.886038 1.507234
39.857011 96.981444 1.232951
40.957169 96.710182 1.556936
41.240537 96.663285 1.574852
37.644552 97.505050 0.312620
37.930950 97.492081 0.064633
39.613084 97.148588 0.431466
38.795741 97.359388 0.124431
43.608821 96.467190 1.230475
38.238102 97.511299 -0.709926
44.957724 96.594000 1.398649
40.726142 96.958086 -0.039206
41.282068 96.834561 -0.008277
41.027612 96.963467 -0.547708
44.526341 96.478762 0.515805
41.865363 96.799374 -0.498250
38.233282 97.571570 -1.781822
39.706634 97.417423 -1.666143
42.734084 96.685967 -0.702866
44.493690 96.474745 -0.298185
41.646645 97.016416 -1.555779
44.782129 96.471843 -0.543450
38.818238 97.570443 -2.539427
39.422899 97.521812 -2.486355
43.330351 96.677887 -1.185816
41.940918 97.002212 -1.799588
41.438433 97.215508 -2.344344
40.621900 97.450594 -2.918874
44.230939 96.672429 -1.906706
42.271091 97.075973 -2.561365
43.111182 96.911178 -2.510358
40.915604 97.460515 -3.429583
39.422934 97.622744 -4.091391
41.220491 97.457282 -3.668963
42.328736 97.209491 -3.337931
41.505682 97.416263 -3.648949
40.633425 97.555896 -4.250173
40.631294 97.572954 -4.518389
45.466391 96.719414 -3.119148
41.838888 97.498852 -4.409076
44.636207 96.930373 -3.700312
44.092369 97.080267 -3.994591
45.804555 96.788201 -3.609007
43.294607 97.336357 -4.562910
44.431163 97.153831 -4.483625
42.148973 97.548857 -5.447859
45.586557 96.994438 -4.397269
42.743431 97.503030 -5.396376
43.043399 97.483948 -5.369232
41.221499 97.649767 -6.072594
43.948378 97.415287 -5.287668
43.959887 97.457767 -5.548229
44.854323 97.408728 -5.735115
42.462403 97.641099 -6.750971
41.563428 97.714651 -7.099434
45.183237 97.430132 -5.964733
42.767258 97.647705 -6.988672
44.897644 97.520205 -6.517239
42.770364 97.687712 -7.521918
43.681182 97.641755 -7.434929
44.603701 97.602499 -7.342937
43.978970 97.643377 -7.675150
45.226721 97.610222 -7.544440
43.976059 97.662869 -7.943146
42.175518 97.805301 -8.644303
43.979660 97.709435 -8.475220
41.880478 97.907506 -9.739885
44.625744 97.747486 -8.934901
42.178222 97.933256 -10.247726
44.957740 97.790158 -9.428119
42.182957 97.951644 -10.513710
43.709869 97.888226 -10.361522
42.799621 97.946899 -10.718220
44.331432 97.889885 -10.563352
44.648576 97.882187 -10.528101
44.050818 98.058118 -12.455287
44.686452 98.061327 -12.651191
43.748392 98.119099 -13.019577
45.002130 98.129563 -13.416646
43.754620 98.246895 -14.622256
45.012969 98.226162 -14.480838
44.079442 98.265879 -14.850658
45.331264 98.309109 -15.513150
45.366886 98.445184 -17.104089
45.387681 98.623473 -19.236945
56.276842 92.681666 -27.339790
55.588356 93.136589 -28.117297
55.769863 92.428425 -28.283622
55.893666 92.133985 -28.340889
54.499517 93.947654 -29.422793
55.826841 91.091552 -29.434838
55.151203 91.532007 -29.963603
54.499657 92.013295 -30.474033
54.146279 92.467721 -30.667448
54.639648 91.747010 -30.519535
52.948442 95.579864 -31.378154
55.787936 90.556818 -30.139998
52.940640 94.610058 -31.904300
55.009083 90.863261 -30.977145
52.390298 95.747716 -32.218694
53.411593 92.859487 -31.754564
54.340357 91.326773 -31.488291
51.794740 96.309806 -32.701766
53.209161 93.048003 -32.007094
52.575798 95.066971 -32.370130
53.583113 92.139511 -31.924309
53.347881 91.808661 -32.585913
53.878702 91.144033 -32.418244
53.099671 91.919109 -32.871689
50.943460 96.536525 -34.120731
51.729313 95.289953 -33.797182
50.559879 96.936254 -34.335194
52.976791 91.743384 -33.208462
53.502900 91.075323 -33.039203
55.356549 89.493354 -32.391446
50.485892 96.841940 -34.641400
53.829006 90.603762 -33.116455
51.780045 93.878638 -34.176909
50.772705 96.304025 -34.754913
52.403936 91.883167 -34.068735
51.263371 95.114745 -34.722010
51.134449 94.920405 -35.071712
50.595523 96.078629 -35.375717
50.848404 94.511696 -35.767034
50.953168 93.659295 -35.715249
52.350346 90.870016 -35.163301
50.568987 94.600294 -36.330405
51.387384 91.392984 -36.261995
50.246052 94.620610 -36.918661
50.551717 93.101556 -36.735207
52.044709 90.435589 -36.151252
50.825442 92.033309 -36.711081
52.400532 89.524609 -36.624656
51.060957 90.939069 -37.249313
51.201703 90.664389 -37.305288
50.820348 91.070283 -37.524571
50.957868 90.788822 -37.584728
52.458171 89.128204 -37.007460
50.180631 91.131019 -38.694596
49.580091 91.732901 -39.437116
49.165263 92.587818 -39.819408
50.156118 90.628519 -39.390663
49.229662 92.204064 -39.911008
50.440336 90.084645 -39.499777
49.994221 90.408843 -40.026405
49.332696 91.394603 -40.394794
50.528846 89.249537 -39.991128
49.653324 90.407660 -40.624385
50.356417 88.988738 -40.367919
49.196015 90.719803 -41.152820
49.227620 89.801354 -41.674114
48.926565 90.302806 -41.878703
49.299624 89.397815 -41.789047
7.606265 100.410538 83.461698
6.545230 100.406599 82.355906
7.160508 100.404545 81.584103
8.138614 100.401581 81.884413
7.469742 100.395898 81.330490
6.795824 100.406745 80.773906
8.072414 100.367187 81.081972
6.442489 100.406991 80.228746
8.596879 100.230796 80.555392
9.292046 99.844383 80.538063
8.551471 100.200563 80.023583
7.977229 100.327438 79.747640
8.786745 100.079316 80.020058
8.518317 100.174163 79.754398
8.470768 100.134058 79.476696
7.881311 100.263529 78.935678
9.206276 99.355187 79.413586
8.785620 99.704776 78.902223
8.358889 100.035015 78.670027
9.203680 98.943033 78.832448
8.842701 99.403635 78.077927
7.472877 100.279167 77.062395
8.561937 99.519823 77.281023
10.952102 100.233616 57.739338
11.173858 100.089765 57.732042
10.730901 100.414330 57.217358
11.425809 100.006961 57.465305
11.627560 99.834894 57.451200
10.728361 100.437486 56.952430
11.472643 100.092458 57.212962
11.281394 100.290860 56.961126
11.302836 100.342841 56.703041
10.729152 100.480613 56.422481
12.368873 99.573559 56.646765
11.841425 100.233305 56.182879
11.613195 100.381757 55.923251
11.020958 100.494536 55.637121
12.494445 99.786122 56.150281
11.621035 100.415568 55.661036
11.010303 100.498848 55.368979
12.808543 99.807857 55.640632
13.254969 99.545712 55.357047
12.527509 100.415746 54.374452
12.802417 100.467754 52.790737
11.826079 100.478740 52.466090
13.662295 100.439089 51.228388
13.290211 100.455676 49.868729
12.634688 100.470662 49.295644
13.158471 100.430132 47.707617
15.429186 100.411417 48.119142
15.052152 100.396978 47.287246
13.044070 100.402724 46.080082
14.662664 100.381548 46.185550
15.587431 100.366897 45.969514
16.864857 100.348565 45.785008
15.212230 100.350692 44.606755
14.514427 100.343134 44.016445
17.445659 100.316668 44.748505
15.436537 100.310445 43.535622
14.453122 100.309186 43.200990
18.995572 100.258777 44.308096
17.057214 100.288722 43.646983
17.996018 100.272643 43.702226
19.253940 100.234449 43.779515
15.372370 100.285950 42.453963
15.985248 100.257205 41.957076
18.560549 100.224145 42.661534
17.564364 100.221450 42.320753
15.286541 100.247965 41.364301
15.608650 100.247050 41.386113
16.893796 100.211946 41.473491
18.172681 100.200459 41.558605
15.843774 100.188777 40.318247
21.655059 100.131423 42.050128
20.677396 100.102213 41.714479
18.083166 100.158458 40.469024
15.122212 100.169100 39.185455
18.374647 100.134603 40.216372
19.654243 100.108117 40.568396
20.275572 100.088460 40.605435
19.631478 100.086599 40.296914
18.321222 100.102833 39.668283
19.187909 100.011827 38.908772
19.480742 99.966810 38.922389
15.960452 100.088401 37.615973
17.572041 100.065013 37.995893
20.081752 99.918924 38.688378
18.508850 100.042465 38.054244
20.640975 99.795142 38.706216
20.098383 99.956065 38.427923
19.783396 100.002870 38.142781
20.075951 99.986896 37.891118
18.455554 100.007008 37.240703
16.130159 100.005457 35.991556
20.959433 99.901775 37.403738
19.364401 99.962984 36.760417
22.394596 99.640939 37.731566
21.552405 99.845353 37.168952
22.951598 99.531021 37.484504
21.238101 99.881241 36.882487
18.343392 99.942475 35.875245
17.377456 99.963273 35.539266
16.351437 99.938724 34.916443
20.548475 99.884597 36.023047
16.313725 99.909276 34.637413
17.655407 99.937524 35.015957
17.320733 99.946395 34.721822
23.589095 99.562663 36.730918
16.278663 99.880040 34.359470
17.940296 99.918714 34.760285
23.607249 99.632280 36.476255
19.871342 99.864474 35.169544
21.773988 99.811251 35.568204
23.903590 99.611251 36.226006
23.336177 99.736385 35.937629
18.221588 99.887400 34.238784
17.247183 99.907356 33.898241
19.497748 99.847848 34.596126
24.195364 99.584025 35.974465
22.380095 99.779882 35.338306
22.349844 99.766105 35.062415
23.623674 99.723695 35.420106
20.418000 99.802603 34.386726
24.780806 99.528844 35.739522
24.219347 99.651256 35.452396
23.603395 99.716452 35.148204
23.906778 99.689699 35.166480
24.511439 99.638542 35.202335
21.342379 99.750139 34.180408
23.575601 99.702186 34.873609
23.549268 99.686188 34.599329
25.126422 99.613416 34.976760
20.328468 99.750114 33.293639
19.993969 99.750434 32.999346
24.437119 99.603270 34.117520
23.429625 99.605317 33.232938
17.941754 99.685909 31.482017
21.200250 99.664867 32.273571
18.247477 99.673786 31.234876
20.186321 99.671557 31.649056
20.816303 99.648829 31.693724
18.442674 99.561864 30.150687
26.460860 99.419763 32.622960
26.413706 99.384766 32.077273
20.347329 99.568471 30.020714
21.591189 99.510334 29.840555
21.559805 99.499893 29.562543
23.150808 99.433941 29.950162
18.855736 99.366525 28.519303
23.459492 99.417356 29.970902
22.504751 99.451959 29.632563
23.421022 99.389379 29.426688
24.672375 99.342169 29.780938
21.782816 99.422334 28.224622
19.396963 99.284065 27.467546
20.069164 99.345477 27.260662
26.818418 99.218124 29.395335
25.213218 99.262627 28.734724
27.724415 99.155828 29.451491
22.029215 99.362828 27.425533
23.309991 99.317099 27.794022
22.324574 99.350371 27.440042
21.358955 99.361322 27.097131
21.655700 99.344661 26.847418
25.156793 99.215390 27.919575
21.290012 99.302884 26.539690
22.277314 99.323725 26.625471
26.691711 99.135392 28.023115
25.100271 99.182050 27.367054
20.876324 99.213253 25.947985
26.946894 99.084488 27.494344
21.533304 99.240880 25.738463
21.779289 99.181165 25.203156
26.878957 99.038965 26.673635
26.229041 99.056372 26.351272
22.418104 99.184322 24.987862
23.711761 99.164806 25.362896
22.724354 99.173153 24.742655
23.005586 99.140060 24.487466
23.947986 99.103315 24.559291
28.637011 98.886990 25.973901
23.602668 99.090934 24.257464
27.289807 98.864377 24.252476
26.338495 98.908758 23.908823
25.386568 98.955519 23.564907
25.662738 98.919850 23.308341
23.009385 98.870918 21.997238
28.765935 98.732552 23.808556
25.284267 98.888809 22.196632
24.333103 98.929574 21.852918
29.290254 98.646208 22.756554
27.412853 98.744303 22.077180
26.468798 98.780450 21.736281
23.526306 98.755600 20.672451
27.078887 98.746226 21.778501
25.193330 98.833140 21.096773
28.639148 98.661524 22.166518
27.694906 98.709723 21.823944
28.937917 98.640918 22.185052
26.109136 98.779259 21.160240
25.777807 98.771985 20.598220
28.254427 98.638704 21.315544
24.397224 98.700466 19.651345
29.142129 98.548296 20.840951
26.003648 98.704538 19.789262
24.642893 98.650876 19.114987
25.964410 98.684672 19.506426
25.323696 98.688124 19.185968
30.294400 98.434524 20.369395
26.876121 98.624778 19.039171
24.497136 98.501348 18.258919
29.022867 98.488591 19.463438
25.193759 98.584815 18.068553
27.736437 98.540408 18.549579
28.981629 98.465317 18.915185
25.824357 98.592441 17.852548
27.409080 98.535304 17.988218
25.767685 98.530388 17.298421
27.348467 98.507130 17.429870
28.600707 98.440522 17.798907
30.116293 98.326741 17.642805
30.706784 98.288001 17.678249
30.994670 98.253276 17.428828
26.842582 98.373777 15.195302
31.499528 98.148675 16.103182
27.680269 98.302619 13.896534
28.008245 98.315915 13.928315
29.271351 98.257992 14.305599
32.043201 98.063202 15.060124
29.228632 98.239179 13.754568
32.500617 97.965731 12.913870
31.880046 98.006835 12.595321
28.762426 98.173361 11.530196
30.629029 98.081328 11.953901
30.011641 98.120551 11.636980
31.229715 98.036611 11.997173
32.141175 97.962000 11.802621
29.277634 98.092111 10.202377
30.506172 98.026116 10.035008
29.877048 98.063716 9.711529
29.838147 98.051791 8.893753
33.210157 97.809609 9.704038
30.976510 97.965188 7.352847
30.330738 97.973931 7.021229
34.336607 97.706725 8.163322
34.019080 97.729305 7.599937
32.459076 97.840147 6.924498
32.755521 97.814678 6.945654
30.886848 97.925024 5.977789
31.512290 97.912392 6.033803
34.262703 97.693571 6.797573
31.427272 97.907843 4.392192
32.978268 97.800412 4.798074
32.644528 97.828100 4.224873
32.334601 97.853777 3.929759
33.208775 97.790410 3.186246
31.656851 97.904158 2.242337
33.801632 97.758887 2.695399
35.611796 97.598277 3.111093
32.254355 97.883955 1.752646
32.556202 97.866108 1.777183
31.938903 97.907086 1.454126
31.906313 97.896799 0.904036
36.510458 97.551331 2.381289
33.444131 97.808217 1.307902
34.345741 97.746522 0.845606
34.938939 97.703802 0.891091
36.161130 97.622665 0.731116
37.054855 97.537560 0.802339
32.102075 97.880764 -1.262636
35.236352 97.729770 -0.424410
33.103913 97.920513 -1.146223
32.762178 97.923279 -1.456678
37.337377 97.564324 -0.250143
35.823889 97.725767 -1.183601
33.041024 97.926257 -2.246059
34.276698 97.860866 -2.132026
33.668113 97.913715 -2.453621
33.353662 97.944503 -2.753000
32.724503 97.961628 -3.084089
33.359332 97.954896 -3.019190
32.364356 97.931683 -3.403295
33.639037 97.946243 -3.539674
34.872781 97.864631 -3.156699
35.173895 97.843577 -3.130946
37.914413 97.621524 -2.350195
34.561711 97.917889 -3.991602
35.469523 97.897671 -4.448522
37.897990 97.696597 -3.695593
35.778363 97.874526 -4.419422
36.667986 97.807136 -4.346794
37.893182 97.713153 -3.965273
36.066409 97.904964 -5.471924
38.500395 97.714535 -4.714136
37.902652 97.770030 -5.033394
33.911149 98.073912 -6.481141
33.905489 98.105281 -7.020891
32.876651 98.039111 -7.422760
36.972173 97.886546 -6.196539
35.459668 98.041378 -7.137176
33.225190 98.093463 -7.915286
39.709379 97.720016 -5.943940
33.904960 98.147336 -7.828093
36.659764 97.955453 -7.032526
38.209452 97.850896 -6.612563
32.828684 98.033601 -8.521158
34.520012 98.136269 -8.038044
39.111631 97.816046 -6.799622
34.817178 98.130587 -8.281800
36.051381 98.050973 -7.893664
36.963088 97.987871 -7.809809
34.815642 98.146139 -8.551334
35.120939 98.133337 -8.522459
40.036949 97.787110 -6.977034
36.046975 98.082771 -8.432544
36.353786 98.062032 -8.403423
37.887191 97.996164 -8.524716
36.959063 98.059563 -8.884938
36.046980 98.137158 -9.238297
33.159875 98.202384 -10.634365
39.722142 97.906058 -8.617096
32.769916 98.116936 -10.970928
40.024817 97.907899 -8.856602
36.048362 98.208983 -10.312364
36.353767 98.190865 -10.283400
40.318822 97.909482 -9.099434
38.182414 98.080092 -10.109646
33.475700 98.279236 -11.677517
34.802858 98.335695 -11.514673
35.112353 98.320127 -11.483752
33.813652 98.316267 -11.903662
37.565340 98.144796 -10.708008
33.087091 98.243286 -12.551693
40.025293 98.027161 -10.463785
37.255945 98.211759 -11.544912
35.131205 98.410677 -12.551873
37.566162 98.214457 -11.782095
39.111984 98.135843 -11.356384
36.037961 98.375546 -12.735888
36.647346 98.333882 -12.677503
39.426118 98.165338 -11.859296
34.800153 98.456312 -13.400025
33.804499 98.428210 -13.793790
38.195207 98.275431 -12.788779
33.451728 98.429542 -14.654481
34.159109 98.517104 -14.551620
33.085285 98.400556 -15.251671
34.141156 98.556112 -15.096247
34.803519 98.579229 -15.013939
38.814441 98.322470 -13.799224
37.270901 98.443789 -14.494234
35.427076 98.566791 -15.218312
37.589598 98.443194 -14.727868
33.808517 98.587620 -15.947976
35.121562 98.633806 -15.786254
39.752958 98.350433 -14.503898
40.357989 98.323997 -14.444447
42.218367 98.255099 -14.247576
41.910329 98.288484 -14.547678
42.221432 98.275892 -14.514352
39.175790 98.489041 -15.894721
36.663618 98.641672 -16.704958
41.920995 98.333232 -15.079414
42.529525 98.308522 -15.017615
33.799956 98.709168 -17.840039
37.897870 98.576726 -16.577567
42.228711 98.387692 -15.850878
41.316891 98.445541 -16.211770
40.385633 98.501305 -16.579928
35.445268 98.800474 -18.173238
34.492543 98.819824 -18.552362
40.085408 98.533727 -16.877748
35.127592 98.829313 -18.478538
39.143220 98.578224 -17.251146
35.128593 98.854847 -18.747251
39.432463 98.588719 -17.494397
34.149004 98.851952 -19.409681
41.933968 98.487408 -16.950614
38.537971 98.677472 -18.117354
37.935442 98.735398 -18.444940
40.082585 98.617367 -17.953043
42.864032 98.477230 -17.117936
34.171240 98.920343 -19.939009
43.174398 98.468182 -17.083953
40.072614 98.644097 -18.224603
43.501650 98.481550 -17.311639
42.560766 98.536610 -17.684746
34.813008 98.976772 -20.401199
36.371886 98.891686 -19.962970
43.496030 98.529961 -17.849013
36.054692 98.925478 -20.268314
44.104252 98.511528 -17.785299
40.424870 98.709827 -18.980379
40.110533 98.740317 -19.284383
40.415322 98.728631 -19.252780
40.099892 98.759332 -19.557459
41.643087 98.681907 -19.122438
34.822956 99.060418 -21.476746
39.176230 98.854478 -20.462889
40.394570 98.786141 -20.067291
35.469975 99.065400 -21.668877
39.495421 98.865981 -20.694466
41.045500 98.783081 -20.256161
44.757811 98.630362 -19.310509
41.052967 98.805447 -20.521938
36.080606 99.087104 -22.144455
35.154852 99.135882 -22.514079
44.129781 98.673741 -19.650061
36.710774 99.085155 -22.342676
39.520324 98.928724 -21.491623
43.535163 98.739362 -20.245510
45.384133 98.671828 -19.773214
38.572132 99.006338 -22.139229
41.982253 98.841358 -21.224814
39.500702 98.990167 -22.306684
35.763310 99.182348 -23.531563
39.503233 99.008965 -22.575000
36.070141 99.190927 -23.768917
45.712133 98.757650 -20.802054
37.026728 99.175059 -23.654781
44.779637 98.797581 -21.176371
44.158766 98.836315 -21.514709
41.995342 98.945718 -22.292650
45.096110 98.814565 -21.406679
43.237804 98.904108 -22.152829
40.754710 99.023734 -22.969534
38.884821 99.129138 -23.719192
41.710078 99.005292 -22.854861
42.622126 98.969681 -22.757685
41.384169 99.039862 -23.164252
36.094766 99.299616 -25.108326
42.614601 98.993741 -23.028884
41.398061 99.058165 -23.427992
45.749691 98.897987 -22.394394
42.033970 99.057878 -23.620608
39.219572 99.237448 -25.291549
44.517054 99.069123 -24.141417
36.727269 99.395066 -26.654732
38.280939 99.317400 -26.209423
42.015023 99.195581 -25.511081
41.404460 99.235801 -25.847179
37.960112 99.391856 -27.058239
40.148596 99.302895 -26.534441
37.973009 99.410935 -27.323015
44.212987 99.201733 -25.785864
42.361299 99.272773 -26.536928
42.646758 99.336057 -27.316861
43.266833 99.323524 -27.244470
39.863916 99.465171 -28.445976
45.800629 99.305440 -27.199871
42.060049 99.455411 -28.451125
45.178570 99.336194 -27.542502
45.806650 99.330108 -27.465621
38.283283 99.631486 -30.528985
40.484015 99.569978 -29.992335
40.823565 99.654431 -31.022094
44.860355 99.520177 -30.002449
40.180141 99.697241 -31.645570
39.542756 99.720234 -31.996887
43.637478 99.631064 -31.219779
39.537121 99.756252 -32.539929
40.501917 99.740098 -32.414409
42.369703 99.711191 -32.188900
45.498006 99.610876 -31.265261
39.867333 99.799867 -33.305711
40.484334 99.786089 -33.233161
43.332723 99.756614 -32.871436
40.171604 99.843140 -34.082538
40.795177 99.831091 -34.006707
46.406147 99.639380 -32.510754
45.805767 99.704287 -32.844692
45.500050 99.732927 -33.149358
41.745408 99.854196 -34.425833
46.376867 99.647630 -33.334146
40.466645 99.913800 -35.404640
43.640789 99.877116 -34.722845
46.355929 99.645261 -33.882903
46.632835 99.588903 -33.863008
43.320156 99.894616 -35.035633
44.868527 99.826428 -34.578435
45.127783 99.791613 -35.376637
45.973861 99.649124 -35.575362
42.346258 99.980313 -36.792345
47.291541 99.236759 -35.237851
46.495730 99.487323 -35.553452
49.181054 98.238865 -34.716090
46.998291 99.296232 -35.545077
48.719473 98.514629 -34.975190
48.006754 98.888994 -35.247104
46.723120 99.371400 -35.830054
49.124991 98.171224 -35.012608
42.659135 100.012897 -37.564301
41.722635 100.063264 -37.951661
44.750152 99.809886 -37.071071
48.561140 98.323724 -35.870788
49.199098 97.834527 -35.644303
49.770060 97.238961 -35.457985
48.094505 98.592221 -36.134487
44.149748 99.892015 -37.676051
48.513185 98.266964 -36.168283
44.430057 99.842014 -37.655089
48.045377 98.534564 -36.430077
49.848193 96.884999 -35.822388
44.980874 99.717030 -37.616770
45.254210 99.647239 -37.596676
44.696250 99.770819 -37.906730
45.779644 99.479731 -37.567269
49.395753 97.206340 -36.331701
47.457889 98.653784 -37.297538
48.751291 97.699026 -36.838637
46.232405 99.228534 -37.854637
47.876305 98.327959 -37.332259
44.644492 99.735564 -38.477701
42.310261 100.077441 -39.245705
44.908488 99.653123 -38.462681
45.165666 99.562715 -38.452368
48.004065 98.058155 -37.662102
45.905740 99.249109 -38.444144
42.887960 100.010866 -39.462845
45.131785 99.528986 -38.740479
45.381326 99.429424 -38.736411
47.759511 98.183994 -37.936355
47.315002 98.488141 -38.186426
47.942737 97.983833 -37.961634
49.075948 96.783993 -37.586453
47.056313 98.593672 -38.464339
49.215724 96.508854 -37.646375
45.827973 99.163541 -39.020998
44.263425 99.700085 -39.630180
43.703305 99.835993 -39.949171
48.223055 97.461290 -38.344256
42.832150 99.980964 -40.305079
47.982505 97.595794 -38.612713
48.546199 96.992976 -38.423836
47.567626 97.943251 -38.851209
45.503556 99.190009 -39.614958
42.807176 99.964230 -40.590122
47.742390 97.726833 -38.887070
49.683900 94.795007 -38.047681
44.690131 99.436249 -40.210292
44.160896 99.607496 -40.502497
48.745667 96.342957 -38.852121
49.383894 94.848713 -38.626499
42.761859 99.930621 -41.155951
46.357717 98.580323 -39.939230
47.005053 98.103152 -39.706639
44.906563 99.294875 -40.483307
44.122111 99.573514 -40.800253
46.556244 98.399304 -39.965799
49.030719 95.313809 -39.098777
46.932303 98.006355 -40.023683
45.824005 98.767072 -40.507864
46.491002 98.318778 -40.268345
47.285774 97.578899 -40.092895
47.615158 97.121010 -40.167147
46.623986 98.061248 -40.588494
42.950459 99.789842 -41.996411
47.540430 97.022929 -40.480600
48.694164 94.831629 -40.109501
44.959566 98.969334 -41.676863
48.254437 95.673760 -40.478186
48.991058 92.825568 -40.054655
42.879905 99.707628 -42.568349
45.133714 98.769902 -41.981597
47.378747 96.800206 -41.123660
46.183426 97.933673 -41.800631
48.043367 95.378525 -41.142443
47.431978 96.422250 -41.488975
44.300451 99.003892 -42.860139
43.536929 99.309411 -43.156107
48.191397 94.637624 -41.322180
45.230648 98.470495 -42.604487
45.861498 97.965890 -42.380067
45.425336 98.283910 -42.629922
48.013854 94.876743 -41.552935
43.493206 99.258538 -43.446423
46.890299 96.612684 -42.340188
46.526329 97.051906 -42.536326
44.427548 98.750970 -43.458278
47.946449 94.286085 -42.008717
46.444588 96.937616 -42.861749
44.846203 98.422602 -43.496506
46.049564 97.320529 -43.085790
45.654355 97.707012 -43.303299
44.096957 98.767022 -44.066390
43.812967 98.836077 -44.349748
47.085610 95.499052 -43.167303
44.258336 98.549495 -44.362644
43.530201 98.907900 -44.650764
46.069694 96.901926 -43.752164
46.890526 95.691535 -43.425009
48.066732 91.537112 -42.743375
46.572182 96.201057 -43.598534
43.253143 98.986585 -44.935101
44.844077 97.991841 -44.442952
47.307711 94.370148 -43.454095
47.936325 91.327500 -43.109642
43.916773 98.548334 -44.969000
47.142504 94.609969 -43.692929
47.763412 91.599275 -43.319981
48.046405 90.503739 -43.327067
44.502099 97.988321 -45.048741
46.862103 94.706005 -44.256605
46.425605 95.532849 -44.641410
47.735118 90.597146 -43.871983
47.182773 92.223709 -44.347449
47.768795 90.140636 -44.001431
47.012553 93.491306 -44.564114
46.312974 94.915837 -45.377964
47.231568 90.345168 -44.853682
45.622241 95.861377 -46.037775
46.709361 90.555807 -45.711323
44.159925 97.117355 -47.269655
45.896941 93.377946 -47.258921
45.987543 92.533720 -47.199182
45.592141 93.932841 -47.696983
45.863277 92.356014 -47.546140
45.426346 94.188931 -47.923586
44.867174 95.320128 -48.235833
43.595019 96.827250 -48.825380
43.732599 96.104175 -49.565927
43.796219 95.729752 -49.945010
44.899361 93.469110 -49.593033
44.742547 93.716261 -49.832899
44.759421 92.796526 -50.363214
44.100923 93.348252 -51.692286
43.850137 93.943923 -51.845591
44.161257 92.948726 -51.799294
43.260133 94.579734 -52.571534
43.750212 92.894939 -52.983608
43.487685 93.470973 -53.144406
43.577049 93.104797 -53.243982
43.220050 93.583238 -53.711470
33.837167 98.951197 -20.522002
34.189589 99.057606 -21.550552
34.516767 99.084581 -21.779321
34.827071 99.195199 -23.365606
35.155487 99.383370 -25.754737
35.777126 99.360675 -25.685412
34.840649 99.458258 -26.873607
36.411447 99.422694 -26.962210
35.167987 99.601820 -28.996092
37.346659 99.537869 -29.017426
36.388537 99.894369 -34.009331
37.964390 99.847333 -33.816146
37.968917 99.859559 -34.085060
35.439347 99.949892 -34.941382
37.322198 99.917329 -34.983592
37.614508 99.919779 -35.226261
39.846842 99.875325 -34.667648
34.775492 100.028501 -36.392536
39.532208 99.893230 -34.977692
39.832047 99.905587 -35.215610
