# .PCD v0.7 - Point Cloud Data file format
VERSION 0.7
FIELDS x y z
SIZE 4 4 4
TYPE F F F
COUNT 1 1 1
WIDTH 1729
HEIGHT 1
VIEWPOINT 0 0 0 1 0 0 0
POINTS 1729
DATA ascii
0.035166 0.096299 -0.011575
0.034653 0.096261 -0.012072
0.034142 0.096223 -0.012569
0.033634 0.096184 -0.013065
0.032994 0.096133 -0.013565
0.032482 0.096097 -0.014061
0.031972 0.096055 -0.014557
0.031462 0.096014 -0.015054
0.030952 0.095977 -0.015553
0.030567 0.095947 -0.016050
0.030053 0.095910 -0.016549
0.029545 0.095871 -0.017049
0.029162 0.095842 -0.017548
0.028525 0.095793 -0.018041
0.028139 0.095763 -0.018543
0.027374 0.095704 -0.019036
0.026737 0.095658 -0.019535
0.025971 0.095596 -0.020032
0.024061 0.095453 -0.020522
0.022663 0.095346 -0.021017
0.022280 0.095317 -0.021513
0.020498 0.095185 -0.022005
0.019350 0.095098 -0.022504
0.018967 0.095067 -0.023001
0.017945 0.094989 -0.023495
0.014639 0.094740 -0.023980
0.013873 0.094683 -0.024475
0.013361 0.094644 -0.024973
0.012852 0.094602 -0.025470
0.012468 0.094574 -0.025969
0.012084 0.094541 -0.026467
0.011574 0.094505 -0.026967
0.009790 0.094370 -0.027460
0.008897 0.094304 -0.027955
0.008511 0.094273 -0.028453
0.006729 0.094138 -0.028945
0.006602 0.094128 -0.029444
0.006346 0.094107 -0.029944
0.006090 0.094089 -0.030442
0.005317 0.094028 -0.030940
0.001814 0.093788 -0.031422
0.000328 0.093688 -0.031920
-0.000884 0.093601 -0.032413
-0.000750 0.093610 -0.032912
-0.004118 0.093379 -0.033394
-0.005196 0.093306 -0.033890
-0.012200 0.092823 -0.034859
0.042924 0.097648 0.019643
0.043053 0.097658 0.019142
0.043178 0.097664 0.018640
0.043175 0.097666 0.018140
0.043174 0.097664 0.017640
0.043298 0.097674 0.017141
0.043539 0.097684 0.014139
0.043663 0.097691 0.013640
0.043663 0.097692 0.013140
0.043660 0.097690 0.012640
0.043656 0.097689 0.012140
0.043779 0.097696 0.011639
0.043779 0.097696 0.011139
0.043775 0.097695 0.010639
0.043900 0.097702 0.010139
0.043900 0.097701 0.009639
0.043894 0.097697 0.008139
0.043894 0.097697 0.007638
0.043893 0.097697 0.007138
0.043762 0.097686 0.006639
0.043760 0.097684 0.006139
0.043629 0.097673 0.005640
0.043626 0.097673 0.005140
0.043499 0.097664 0.004640
0.043495 0.097663 0.004140
0.043239 0.097642 0.003642
0.043109 0.097632 0.003141
0.042981 0.097621 0.002643
0.042854 0.097610 0.002143
0.042721 0.097599 0.001642
0.042592 0.097588 0.001146
0.042462 0.097578 0.000645
0.042334 0.097571 0.000145
0.042078 0.097548 -0.000355
0.041948 0.097540 -0.000854
0.041821 0.097527 -0.001353
0.041564 0.097507 -0.001851
0.041305 0.097486 -0.002348
0.041178 0.097473 -0.002850
0.040922 0.097456 -0.003347
0.040789 0.097445 -0.003847
0.040533 0.097427 -0.004347
0.040150 0.097396 -0.004845
0.039765 0.097366 -0.005340
0.039507 0.097348 -0.005840
0.039252 0.097329 -0.006338
0.038613 0.097279 -0.006838
0.038360 0.097258 -0.007338
0.038101 0.097239 -0.007835
0.037846 0.097219 -0.008332
0.037461 0.097189 -0.008830
0.037077 0.097161 -0.009330
0.036693 0.097131 -0.009830
0.036185 0.097090 -0.010325
0.035802 0.097061 -0.010824
0.035290 0.097024 -0.011325
0.034779 0.096984 -0.011823
0.034395 0.096953 -0.012319
0.033757 0.096908 -0.012816
0.033245 0.096867 -0.013316
0.032608 0.096819 -0.013810
0.031969 0.096772 -0.014308
0.031332 0.096720 -0.014808
0.030821 0.096683 -0.015301
0.030310 0.096646 -0.015800
0.029927 0.096616 -0.016300
0.029415 0.096578 -0.016796
0.029033 0.096548 -0.017294
0.028395 0.096498 -0.017792
0.028012 0.096470 -0.018291
0.027246 0.096414 -0.018786
0.026864 0.096383 -0.019286
0.026226 0.096337 -0.019782
0.025077 0.096247 -0.020278
0.022154 0.096030 -0.020768
0.022152 0.096029 -0.021268
0.021131 0.095952 -0.021762
0.019603 0.095838 -0.022254
0.018712 0.095769 -0.022750
0.014388 0.095445 -0.023232
0.014128 0.095426 -0.023728
0.013618 0.095389 -0.024223
0.012978 0.095340 -0.024723
0.012214 0.095283 -0.025217
0.011831 0.095253 -0.025715
0.011574 0.095231 -0.026215
0.010301 0.095134 -0.026711
0.008647 0.095011 -0.027202
0.007748 0.094945 -0.027701
0.007368 0.094914 -0.028200
0.006346 0.094838 -0.028693
0.005962 0.094811 -0.029195
0.006089 0.094820 -0.029696
0.005581 0.094782 -0.030194
0.004913 0.094733 -0.030689
0.001680 0.094512 -0.031174
-0.000881 0.094336 -0.031661
-0.001424 0.094299 -0.032158
-0.001293 0.094308 -0.032659
0.042298 0.098310 0.021892
0.042795 0.098344 0.018891
0.042917 0.098355 0.018392
0.042915 0.098353 0.017892
0.043042 0.098362 0.017390
0.043167 0.098369 0.016889
0.043281 0.098370 0.013887
0.043404 0.098378 0.013385
0.043526 0.098388 0.012886
0.043529 0.098387 0.012385
0.043524 0.098386 0.011885
0.043647 0.098394 0.011385
0.043647 0.098390 0.010885
0.043645 0.098391 0.010384
0.043643 0.098389 0.009884
0.043642 0.098389 0.009384
0.043641 0.098386 0.008884
0.043768 0.098398 0.008386
0.043637 0.098385 0.007884
0.043634 0.098384 0.007384
0.043632 0.098382 0.006885
0.043503 0.098374 0.006386
0.043499 0.098372 0.005886
0.043371 0.098362 0.005386
0.043238 0.098354 0.004887
0.043237 0.098351 0.004387
0.043107 0.098340 0.003888
0.042978 0.098328 0.003391
0.042722 0.098308 0.002890
0.042719 0.098310 0.002390
0.042592 0.098298 0.001893
0.042463 0.098289 0.001393
0.042335 0.098279 0.000892
0.042205 0.098267 0.000392
0.042075 0.098257 -0.000107
0.041948 0.098247 -0.000606
0.041818 0.098235 -0.001104
0.041561 0.098216 -0.001604
0.041305 0.098193 -0.002101
0.041048 0.098175 -0.002600
0.040920 0.098162 -0.003097
0.040792 0.098154 -0.003595
0.040532 0.098134 -0.004095
0.040021 0.098098 -0.004595
0.039766 0.098074 -0.005096
0.039507 0.098055 -0.005593
0.039250 0.098036 -0.006093
0.038739 0.098001 -0.006591
0.038483 0.097978 -0.007090
0.038228 0.097957 -0.007586
0.037973 0.097939 -0.008089
0.037588 0.097910 -0.008583
0.037330 0.097892 -0.009082
0.036946 0.097863 -0.009582
0.036434 0.097821 -0.010078
0.035923 0.097785 -0.010575
0.035542 0.097754 -0.011075
0.034905 0.097704 -0.011574
0.034521 0.097678 -0.012074
0.034008 0.097639 -0.012568
0.033498 0.097599 -0.013067
0.032860 0.097551 -0.013565
0.032220 0.097506 -0.014062
0.031329 0.097436 -0.014559
0.030819 0.097397 -0.015054
0.030308 0.097361 -0.015551
0.029671 0.097313 -0.016051
0.029288 0.097284 -0.016546
0.028776 0.097244 -0.017047
0.028266 0.097205 -0.017543
0.027884 0.097179 -0.018043
0.027375 0.097140 -0.018543
0.026734 0.097090 -0.019040
0.025971 0.097034 -0.019532
0.025205 0.096976 -0.020031
0.024693 0.096938 -0.020529
0.021895 0.096730 -0.021019
0.021764 0.096719 -0.021520
0.019982 0.096588 -0.022008
0.018963 0.096511 -0.022500
0.018199 0.096456 -0.023000
0.013366 0.096097 -0.023476
0.012597 0.096041 -0.023972
0.012344 0.096018 -0.024471
0.011706 0.095971 -0.024967
0.011067 0.095923 -0.025467
0.009412 0.095802 -0.025961
0.008519 0.095735 -0.026454
0.008263 0.095714 -0.026953
0.006734 0.095601 -0.027449
0.006474 0.095577 -0.027947
0.005840 0.095531 -0.028447
0.005453 0.095505 -0.028944
0.005314 0.095493 -0.029443
0.004642 0.095447 -0.029941
0.000871 0.095191 -0.030421
0.000333 0.095152 -0.030917
-0.001556 0.095024 -0.031407
-0.002366 0.094972 -0.031904
-0.004253 0.094842 -0.032401
0.042038 0.099000 0.021644
0.042164 0.099009 0.021142
0.042289 0.099017 0.020642
0.042533 0.099033 0.018638
0.042910 0.099056 0.016639
0.043147 0.099065 0.013636
0.043146 0.099066 0.013137
0.043269 0.099076 0.012636
0.043268 0.099073 0.012136
0.043266 0.099074 0.011636
0.043389 0.099082 0.011136
0.043390 0.099082 0.010636
0.043385 0.099079 0.010136
0.043384 0.099078 0.009636
0.043510 0.099085 0.009136
0.043383 0.099075 0.008637
0.043381 0.099075 0.008137
0.043376 0.099073 0.007638
0.043375 0.099071 0.007138
0.043373 0.099072 0.006637
0.043243 0.099060 0.006135
0.043114 0.099049 0.005638
0.043111 0.099049 0.005138
0.042982 0.099039 0.004638
0.042852 0.099028 0.004139
0.042723 0.099017 0.003638
0.042593 0.099008 0.003136
0.042591 0.099007 0.002636
0.042463 0.099000 0.002139
0.042333 0.098985 0.001641
0.042331 0.098986 0.001141
0.042075 0.098967 0.000640
0.041946 0.098958 0.000142
0.041815 0.098945 -0.000355
0.041688 0.098936 -0.000855
0.041431 0.098914 -0.001355
0.041175 0.098894 -0.001853
0.041046 0.098883 -0.002353
0.040788 0.098864 -0.002853
0.040659 0.098853 -0.003351
0.040405 0.098831 -0.003847
0.040019 0.098805 -0.004345
0.039763 0.098785 -0.004845
0.039508 0.098765 -0.005345
0.039250 0.098743 -0.005844
0.038867 0.098719 -0.006342
0.038484 0.098689 -0.006840
0.038226 0.098669 -0.007338
0.037967 0.098649 -0.007837
0.037712 0.098629 -0.008337
0.037331 0.098599 -0.008839
0.037074 0.098583 -0.009337
0.036563 0.098543 -0.009832
0.036177 0.098512 -0.010330
0.035666 0.098474 -0.010829
0.035284 0.098447 -0.011328
0.034773 0.098408 -0.011826
0.034390 0.098378 -0.012323
0.033622 0.098322 -0.012822
0.033113 0.098283 -0.013317
0.032477 0.098237 -0.013814
0.031709 0.098179 -0.014312
0.030816 0.098112 -0.014807
0.030308 0.098075 -0.015307
0.029670 0.098029 -0.015801
0.029160 0.097992 -0.016299
0.028648 0.097953 -0.016801
0.028137 0.097913 -0.017297
0.027755 0.097885 -0.017793
0.027115 0.097839 -0.018291
0.026353 0.097781 -0.018790
0.025714 0.097731 -0.019284
0.025077 0.097686 -0.019781
0.024691 0.097656 -0.020281
0.021639 0.097430 -0.020768
0.021639 0.097431 -0.021267
0.021382 0.097411 -0.021765
0.019217 0.097252 -0.022256
0.018196 0.097178 -0.022753
0.011965 0.096721 -0.023222
0.011835 0.096709 -0.023721
0.011703 0.096697 -0.024219
0.010939 0.096640 -0.024715
0.008014 0.096427 -0.025206
0.007881 0.096418 -0.025705
0.007501 0.096389 -0.026205
0.006989 0.096352 -0.026700
0.005462 0.096238 -0.027194
0.005714 0.096253 -0.027694
0.005052 0.096210 -0.028193
0.004647 0.096180 -0.028695
0.004107 0.096144 -0.029188
-0.001825 0.095746 -0.029658
-0.001555 0.095763 -0.030162
-0.002767 0.095679 -0.030656
-0.010990 0.095124 -0.032618
0.041780 0.099689 0.021390
0.041904 0.099697 0.020891
0.042651 0.099742 0.016388
0.042775 0.099749 0.015891
0.042891 0.099758 0.014389
0.042890 0.099756 0.013889
0.042887 0.099754 0.013389
0.042886 0.099755 0.012888
0.043012 0.099762 0.012389
0.043010 0.099764 0.011890
0.043134 0.099771 0.011389
0.043131 0.099770 0.010889
0.043130 0.099767 0.010389
0.043127 0.099768 0.009888
0.043122 0.099766 0.009388
0.043251 0.099774 0.008889
0.043123 0.099764 0.008388
0.043122 0.099763 0.007888
0.043118 0.099763 0.007388
0.042987 0.099750 0.006890
0.042986 0.099750 0.006390
0.042854 0.099739 0.005888
0.042853 0.099737 0.005388
0.042726 0.099730 0.004888
0.042597 0.099719 0.004388
0.042595 0.099718 0.003888
0.042466 0.099705 0.003388
0.042336 0.099694 0.002890
0.042335 0.099696 0.002390
0.042201 0.099685 0.001889
0.042200 0.099682 0.001388
0.041945 0.099666 0.000892
0.041816 0.099656 0.000391
0.041688 0.099646 -0.000109
0.041429 0.099626 -0.000604
0.041301 0.099613 -0.001105
0.041046 0.099594 -0.001605
0.040915 0.099584 -0.002106
0.040785 0.099572 -0.002605
0.040531 0.099555 -0.003105
0.040274 0.099533 -0.003600
0.039890 0.099504 -0.004097
0.039632 0.099486 -0.004596
0.039378 0.099465 -0.005094
0.039122 0.099446 -0.005594
0.038865 0.099428 -0.006094
0.038609 0.099409 -0.006594
0.038226 0.099378 -0.007089
0.037966 0.099359 -0.007587
0.037711 0.099341 -0.008087
0.037327 0.099312 -0.008589
0.036945 0.099283 -0.009088
0.036687 0.099264 -0.009587
0.036303 0.099234 -0.010081
0.035792 0.099196 -0.010581
0.035276 0.099159 -0.011081
0.034770 0.099122 -0.011575
0.034515 0.099102 -0.012074
0.033877 0.099057 -0.012573
0.033240 0.099007 -0.013069
0.032729 0.098968 -0.013567
0.032092 0.098922 -0.014065
0.030944 0.098838 -0.014558
0.030306 0.098793 -0.015057
0.029668 0.098746 -0.015553
0.029156 0.098710 -0.016051
0.028393 0.098653 -0.016548
0.027881 0.098612 -0.017044
0.027623 0.098594 -0.017544
0.026606 0.098516 -0.018040
0.026092 0.098479 -0.018537
0.025457 0.098433 -0.019032
0.024819 0.098382 -0.019533
0.024308 0.098345 -0.020029
0.023670 0.098296 -0.020526
0.021632 0.098152 -0.021019
0.021381 0.098134 -0.021516
0.020867 0.098096 -0.022014
0.019084 0.097964 -0.022507
0.015651 0.097715 -0.022990
0.011199 0.097389 -0.023467
0.007000 0.097087 -0.023951
0.006997 0.097087 -0.024450
0.007121 0.097095 -0.024952
0.006739 0.097063 -0.025451
0.006225 0.097026 -0.025950
0.002499 0.096772 -0.026434
0.003034 0.096805 -0.026934
0.003170 0.096815 -0.027435
-0.000064 0.096597 -0.027919
0.000336 0.096623 -0.028420
0.000200 0.096614 -0.028920
-0.002495 0.096433 -0.029409
-0.002232 0.096451 -0.029910
-0.011253 0.095848 -0.030870
-0.011121 0.095858 -0.031371
0.041522 0.100375 0.021143
0.041646 0.100386 0.020642
0.041774 0.100396 0.020141
0.042634 0.100444 0.014138
0.042630 0.100444 0.013638
0.042628 0.100442 0.013138
0.042755 0.100452 0.012635
0.042754 0.100451 0.012135
0.042878 0.100460 0.011634
0.042877 0.100457 0.011134
0.042874 0.100457 0.010635
0.042873 0.100457 0.010135
0.042869 0.100454 0.009635
0.042866 0.100453 0.009135
0.042864 0.100453 0.008635
0.042863 0.100452 0.008135
0.042863 0.100452 0.007635
0.042733 0.100437 0.007135
0.042730 0.100438 0.006635
0.042599 0.100430 0.006138
0.042596 0.100428 0.005638
0.042596 0.100426 0.005138
0.042466 0.100418 0.004638
0.042336 0.100404 0.004137
0.042335 0.100404 0.003637
0.042208 0.100393 0.003140
0.042204 0.100395 0.002640
0.042073 0.100384 0.002141
0.042070 0.100382 0.001642
0.041815 0.100364 0.001141
0.041686 0.100352 0.000641
0.041557 0.100344 0.000142
0.041300 0.100326 -0.000357
0.041171 0.100315 -0.000856
0.040915 0.100293 -0.001355
0.040787 0.100282 -0.001853
0.040656 0.100271 -0.002356
0.040271 0.100246 -0.002853
0.040145 0.100235 -0.003352
0.039758 0.100206 -0.003850
0.039630 0.100194 -0.004348
0.039248 0.100166 -0.004845
0.039121 0.100155 -0.005346
0.038864 0.100137 -0.005846
0.038605 0.100121 -0.006344
0.038224 0.100090 -0.006843
0.038094 0.100079 -0.007342
0.037709 0.100051 -0.007839
0.037452 0.100032 -0.008341
0.036941 0.099994 -0.008840
0.036686 0.099975 -0.009337
0.036300 0.099945 -0.009835
0.035790 0.099907 -0.010334
0.035406 0.099879 -0.010826
0.034894 0.099840 -0.011325
0.034513 0.099813 -0.011826
0.034001 0.099777 -0.012323
0.033487 0.099740 -0.012824
0.032726 0.099683 -0.013319
0.032089 0.099636 -0.013816
0.031323 0.099579 -0.014309
0.030558 0.099523 -0.014806
0.029789 0.099470 -0.015303
0.029154 0.099424 -0.015803
0.028389 0.099367 -0.016300
0.027753 0.099320 -0.016793
0.027368 0.099293 -0.017293
0.026476 0.099224 -0.017788
0.025840 0.099177 -0.018286
0.025076 0.099125 -0.018782
0.024563 0.099086 -0.019279
0.024055 0.099048 -0.019779
0.023667 0.099018 -0.020279
0.021506 0.098863 -0.020768
0.021248 0.098843 -0.021264
0.020612 0.098794 -0.021764
0.019336 0.098703 -0.022256
0.019079 0.098683 -0.022755
0.005731 0.097724 -0.023197
0.006112 0.097752 -0.023700
0.005594 0.097713 -0.024198
0.002909 0.097531 -0.024683
0.002770 0.097522 -0.025184
0.002231 0.097486 -0.025681
0.002094 0.097478 -0.026181
0.002090 0.097474 -0.026681
-0.000740 0.097289 -0.027168
-0.000471 0.097305 -0.027669
-0.000068 0.097331 -0.028172
-0.003168 0.097125 -0.028657
-0.003308 0.097113 -0.029157
-0.003308 0.097112 -0.029657
-0.011123 0.096599 -0.030622
0.000405 0.098243 0.050578
0.041262 0.101069 0.020891
0.041387 0.101074 0.020391
0.041386 0.101076 0.019891
0.041509 0.101081 0.019392
0.041879 0.101103 0.016892
0.042003 0.101111 0.016389
0.042249 0.101125 0.014391
0.042375 0.101134 0.013887
0.042373 0.101133 0.013387
0.042369 0.101132 0.012887
0.042496 0.101140 0.012386
0.042495 0.101138 0.011885
0.042620 0.101147 0.011384
0.042491 0.101137 0.010885
0.042617 0.101146 0.010384
0.042615 0.101146 0.009884
0.042610 0.101142 0.009384
0.042606 0.101144 0.008884
0.042609 0.101141 0.008384
0.042478 0.101130 0.007885
0.042477 0.101130 0.007385
0.042476 0.101129 0.006885
0.042345 0.101119 0.006387
0.042345 0.101119 0.005887
0.042210 0.101108 0.005390
0.042212 0.101107 0.004891
0.042210 0.101104 0.004391
0.042080 0.101096 0.003889
0.042076 0.101094 0.003389
0.042075 0.101094 0.002889
0.041948 0.101083 0.002390
0.041815 0.101070 0.001892
0.041682 0.101061 0.001391
0.041428 0.101043 0.000891
0.041428 0.101042 0.000391
0.041170 0.101025 -0.000110
0.041042 0.101015 -0.000607
0.040658 0.100987 -0.001107
0.040529 0.100974 -0.001605
0.040402 0.100965 -0.002106
0.040142 0.100945 -0.002602
0.039885 0.100926 -0.003102
0.039630 0.100906 -0.003600
0.039500 0.100896 -0.004099
0.039243 0.100877 -0.004598
0.038988 0.100858 -0.005099
0.038731 0.100837 -0.005596
0.038477 0.100819 -0.006095
0.038346 0.100808 -0.006592
0.037966 0.100779 -0.007094
0.037577 0.100751 -0.007595
0.037323 0.100734 -0.008093
0.036942 0.100703 -0.008591
0.036683 0.100686 -0.009088
0.036302 0.100658 -0.009589
0.035787 0.100618 -0.010086
0.035404 0.100590 -0.010582
0.034895 0.100555 -0.011074
0.034510 0.100525 -0.011576
0.034001 0.100490 -0.012075
0.033489 0.100454 -0.012571
0.032851 0.100406 -0.013074
0.032214 0.100359 -0.013569
0.031448 0.100303 -0.014064
0.030683 0.100248 -0.014562
0.030046 0.100205 -0.015055
0.029406 0.100158 -0.015556
0.028642 0.100102 -0.016054
0.027750 0.100034 -0.016547
0.027113 0.099991 -0.017044
0.026475 0.099944 -0.017541
0.025583 0.099879 -0.018036
0.024820 0.099824 -0.018531
0.024306 0.099787 -0.019032
0.023797 0.099748 -0.019532
0.023541 0.099729 -0.020028
0.021376 0.099574 -0.020517
0.021119 0.099555 -0.021016
0.020357 0.099501 -0.021514
0.019210 0.099418 -0.022010
0.019204 0.099415 -0.022510
0.014882 0.099109 -0.022990
0.002242 0.098225 -0.023431
0.002510 0.098241 -0.023932
0.002368 0.098229 -0.024431
0.001963 0.098204 -0.024931
0.000750 0.098126 -0.025423
0.001015 0.098140 -0.025925
-0.001007 0.098005 -0.026416
-0.001011 0.098005 -0.026916
-0.000876 0.098014 -0.027417
-0.004382 0.097782 -0.027904
-0.004113 0.097800 -0.028406
-0.004114 0.097800 -0.028907
0.040507 0.101728 0.023145
0.041001 0.101757 0.020140
0.041123 0.101763 0.019641
0.041248 0.101771 0.019140
0.041991 0.101813 0.014138
0.041992 0.101814 0.013638
0.042117 0.101820 0.013137
0.042112 0.101818 0.012637
0.042110 0.101817 0.012137
0.042235 0.101828 0.011635
0.042232 0.101828 0.011135
0.042232 0.101825 0.010636
0.042357 0.101836 0.010135
0.042230 0.101823 0.009636
0.042224 0.101825 0.009136
0.042353 0.101834 0.008635
0.042223 0.101819 0.008136
0.042221 0.101819 0.007636
0.042218 0.101818 0.007136
0.042091 0.101807 0.006637
0.042085 0.101806 0.006137
0.042085 0.101806 0.005637
0.042083 0.101807 0.005137
0.041954 0.101794 0.004638
0.041951 0.101792 0.004138
0.041951 0.101792 0.003638
0.041819 0.101783 0.003137
0.041691 0.101773 0.002638
0.041564 0.101761 0.002138
0.041559 0.101762 0.001638
0.041301 0.101743 0.001139
0.041173 0.101732 0.000641
0.041044 0.101722 0.000141
0.040784 0.101704 -0.000357
0.040656 0.101694 -0.000858
0.040401 0.101675 -0.001356
0.040145 0.101656 -0.001852
0.039891 0.101639 -0.002352
0.039757 0.101626 -0.002851
0.039500 0.101606 -0.003350
0.039244 0.101588 -0.003851
0.039115 0.101577 -0.004351
0.038858 0.101558 -0.004847
0.038730 0.101547 -0.005346
0.038476 0.101529 -0.005844
0.038219 0.101511 -0.006344
0.037834 0.101481 -0.006845
0.037453 0.101453 -0.007346
0.037194 0.101434 -0.007845
0.036938 0.101416 -0.008340
0.036556 0.101387 -0.008839
0.036172 0.101361 -0.009339
0.035785 0.101330 -0.009836
0.035402 0.101302 -0.010335
0.034893 0.101269 -0.010834
0.034510 0.101239 -0.011331
0.033996 0.101203 -0.011828
0.033614 0.101175 -0.012325
0.032978 0.101127 -0.012822
0.032337 0.101082 -0.013322
0.031575 0.101028 -0.013817
0.030809 0.100971 -0.014314
0.030174 0.100930 -0.014808
0.029662 0.100892 -0.015308
0.029024 0.100844 -0.015805
0.027879 0.100763 -0.016302
0.027238 0.100714 -0.016797
0.026346 0.100652 -0.017291
0.025582 0.100596 -0.017788
0.024689 0.100530 -0.018286
0.024436 0.100516 -0.018786
0.023543 0.100452 -0.019282
0.023284 0.100429 -0.019780
0.021504 0.100306 -0.020270
0.020992 0.100268 -0.020771
0.020228 0.100212 -0.021262
0.019081 0.100129 -0.021763
0.018826 0.100112 -0.022262
0.014499 0.099803 -0.022741
-0.000723 0.098761 -0.023169
-0.000860 0.098753 -0.023668
-0.000322 0.098790 -0.024172
-0.000460 0.098777 -0.024671
-0.000869 0.098749 -0.025169
-0.001815 0.098685 -0.025666
-0.002086 0.098669 -0.026165
-0.001549 0.098703 -0.026668
-0.004784 0.098491 -0.027152
0.040124 0.102411 0.023395
0.040376 0.102428 0.022894
0.040497 0.102434 0.022395
0.040495 0.102431 0.021895
0.040744 0.102446 0.019890
0.040868 0.102452 0.019392
0.040992 0.102458 0.018890
0.041362 0.102482 0.016386
0.041733 0.102504 0.013886
0.041732 0.102505 0.013386
0.041856 0.102511 0.012885
0.041854 0.102510 0.012385
0.041853 0.102508 0.011885
0.041977 0.102519 0.011384
0.041974 0.102517 0.010884
0.041975 0.102517 0.010384
0.041975 0.102515 0.009884
0.041970 0.102513 0.009384
0.041966 0.102513 0.008883
0.041966 0.102512 0.008383
0.041838 0.102501 0.007885
0.041834 0.102499 0.007385
0.041829 0.102497 0.006885
0.041831 0.102496 0.006385
0.041826 0.102496 0.005885
0.041826 0.102496 0.005385
0.041823 0.102495 0.004886
0.041693 0.102483 0.004385
0.041691 0.102480 0.003885
0.041561 0.102474 0.003386
0.041559 0.102473 0.002886
0.041431 0.102461 0.002385
0.041302 0.102453 0.001888
0.041173 0.102440 0.001389
0.041042 0.102431 0.000889
0.040788 0.102413 0.000391
0.040658 0.102404 -0.000109
0.040401 0.102386 -0.000607
0.040273 0.102374 -0.001106
0.040016 0.102356 -0.001605
0.039760 0.102337 -0.002106
0.039503 0.102320 -0.002602
0.039245 0.102297 -0.003101
0.038985 0.102279 -0.003599
0.038859 0.102269 -0.004099
0.038731 0.102257 -0.004599
0.038476 0.102241 -0.005100
0.038219 0.102221 -0.005597
0.037837 0.102194 -0.006096
0.037583 0.102174 -0.006595
0.037322 0.102153 -0.007093
0.037067 0.102136 -0.007591
0.036809 0.102118 -0.008092
0.036424 0.102091 -0.008590
0.036041 0.102061 -0.009087
0.035786 0.102043 -0.009588
0.035274 0.102004 -0.010085
0.034890 0.101980 -0.010585
0.034506 0.101951 -0.011080
0.034127 0.101923 -0.011580
0.033613 0.101889 -0.012075
0.032973 0.101840 -0.012575
0.032338 0.101796 -0.013075
0.031445 0.101733 -0.013569
0.030809 0.101688 -0.014066
0.030296 0.101651 -0.014559
0.029658 0.101608 -0.015056
0.029148 0.101571 -0.015555
0.028003 0.101489 -0.016052
0.027367 0.101441 -0.016548
0.026217 0.101359 -0.017042
0.025451 0.101305 -0.017541
0.024562 0.101241 -0.018037
0.024305 0.101225 -0.018535
0.023159 0.101143 -0.019032
0.022901 0.101124 -0.019532
0.021886 0.101052 -0.020026
0.020737 0.100972 -0.020520
0.020098 0.100922 -0.021015
0.018824 0.100833 -0.021512
0.018441 0.100808 -0.022012
0.018439 0.100806 -0.022511
-0.001266 0.099463 -0.022918
-0.001129 0.099469 -0.023424
-0.001536 0.099442 -0.023921
-0.005723 0.099172 -0.025903
0.039990 0.103107 0.023143
0.040117 0.103117 0.022643
0.040240 0.103126 0.022143
0.040612 0.103143 0.019641
0.040609 0.103140 0.019141
0.040734 0.103150 0.018641
0.040979 0.103161 0.016640
0.041105 0.103170 0.016139
0.041473 0.103193 0.013636
0.041474 0.103193 0.013136
0.041600 0.103201 0.012633
0.041597 0.103199 0.012133
0.041594 0.103199 0.011633
0.041593 0.103197 0.011133
0.041590 0.103196 0.010634
0.041587 0.103195 0.010134
0.041713 0.103204 0.009633
0.041710 0.103202 0.009133
0.041708 0.103203 0.008633
0.041580 0.103191 0.008133
0.041705 0.103197 0.007634
0.041574 0.103186 0.007133
0.041569 0.103186 0.006632
0.041571 0.103185 0.006133
0.041442 0.103177 0.005636
0.041565 0.103185 0.005133
0.041563 0.103184 0.004633
0.041433 0.103173 0.004136
0.041433 0.103170 0.003637
0.041301 0.103163 0.003138
0.041171 0.103151 0.002638
0.041044 0.103143 0.002139
0.040915 0.103131 0.001638
0.040785 0.103122 0.001140
0.040528 0.103104 0.000641
0.040402 0.103096 0.000143
0.040272 0.103087 -0.000359
0.040012 0.103066 -0.000857
0.039758 0.103046 -0.001355
0.039502 0.103027 -0.001856
0.039245 0.103011 -0.002353
0.038989 0.102991 -0.002851
0.038861 0.102981 -0.003352
0.038475 0.102955 -0.003850
0.038346 0.102943 -0.004350
0.038089 0.102925 -0.004849
0.037834 0.102906 -0.005350
0.037579 0.102886 -0.005849
0.037322 0.102866 -0.006344
0.037066 0.102847 -0.006845
0.036809 0.102829 -0.007343
0.036552 0.102812 -0.007842
0.036295 0.102794 -0.008342
0.036037 0.102773 -0.008841
0.035655 0.102747 -0.009335
0.035400 0.102727 -0.009836
0.034889 0.102692 -0.010335
0.034507 0.102663 -0.010835
0.033995 0.102627 -0.011331
0.033484 0.102590 -0.011831
0.032973 0.102557 -0.012329
0.032208 0.102500 -0.012824
0.031568 0.102457 -0.013322
0.030800 0.102401 -0.013818
0.030167 0.102356 -0.014312
0.029782 0.102332 -0.014811
0.029017 0.102279 -0.015306
0.028255 0.102221 -0.015806
0.027235 0.102147 -0.016299
0.026213 0.102076 -0.016796
0.025324 0.102015 -0.017290
0.024555 0.101961 -0.017787
0.024047 0.101929 -0.018286
0.022647 0.101827 -0.018781
0.022265 0.101801 -0.019278
0.021881 0.101772 -0.019773
0.020354 0.101664 -0.020270
0.019715 0.101621 -0.020767
0.018061 0.101505 -0.021261
0.017932 0.101497 -0.021759
0.017803 0.101486 -0.022259
0.001295 0.100358 -0.022684
-0.007193 0.099819 -0.023147
-0.007466 0.099798 -0.023647
0.039734 0.103801 0.023393
0.039732 0.103801 0.022893
0.039861 0.103809 0.022393
0.040354 0.103832 0.019390
0.040477 0.103841 0.018888
0.040724 0.103855 0.016889
0.040849 0.103862 0.016389
0.040845 0.103862 0.015889
0.041095 0.103875 0.013887
0.041091 0.103876 0.013387
0.041216 0.103884 0.012885
0.041214 0.103883 0.012385
0.041211 0.103880 0.011885
0.041334 0.103887 0.011386
0.041332 0.103887 0.010886
0.041330 0.103885 0.010386
0.041329 0.103882 0.009886
0.041326 0.103885 0.009385
0.041323 0.103883 0.008885
0.041323 0.103883 0.008386
0.041322 0.103879 0.007886
0.041321 0.103878 0.007387
0.041313 0.103878 0.006887
0.041310 0.103878 0.006387
0.041183 0.103866 0.005885
0.041182 0.103865 0.005385
0.041178 0.103863 0.004886
0.041176 0.103864 0.004385
0.041048 0.103852 0.003886
0.041046 0.103855 0.003386
0.040916 0.103843 0.002889
0.040913 0.103843 0.002389
0.040657 0.103820 0.001888
0.040527 0.103812 0.001388
0.040272 0.103794 0.000891
0.040142 0.103787 0.000394
0.039887 0.103767 -0.000107
0.039760 0.103759 -0.000606
0.039499 0.103737 -0.001107
0.039119 0.103710 -0.001604
0.038863 0.103694 -0.002100
0.038479 0.103665 -0.002602
0.038349 0.103656 -0.003101
0.038092 0.103637 -0.003601
0.037836 0.103621 -0.004100
0.037707 0.103609 -0.004600
0.037450 0.103591 -0.005098
0.037194 0.103574 -0.005596
0.037065 0.103562 -0.006096
0.036938 0.103550 -0.006596
0.036679 0.103531 -0.007092
0.036297 0.103505 -0.007593
0.036041 0.103486 -0.008091
0.035782 0.103466 -0.008590
0.035524 0.103448 -0.009089
0.035143 0.103420 -0.009589
0.034760 0.103394 -0.010086
0.034378 0.103367 -0.010586
0.033992 0.103341 -0.011083
0.033483 0.103304 -0.011580
0.032969 0.103270 -0.012080
0.032078 0.103209 -0.012574
0.031442 0.103162 -0.013070
0.030803 0.103117 -0.013568
0.030164 0.103073 -0.014064
0.029656 0.103038 -0.014563
0.028890 0.102984 -0.015055
0.028251 0.102940 -0.015556
0.027105 0.102858 -0.016048
0.026340 0.102803 -0.016545
0.025194 0.102723 -0.017042
0.024428 0.102673 -0.017540
0.023536 0.102611 -0.018034
0.023283 0.102591 -0.018534
0.021502 0.102467 -0.019026
0.021245 0.102448 -0.019525
0.019846 0.102350 -0.020017
0.019336 0.102316 -0.020517
0.017427 0.102186 -0.021009
0.017295 0.102177 -0.021508
0.002237 0.101153 -0.021940
0.000891 0.101065 -0.022432
-0.007195 0.100555 -0.022899
-0.007197 0.100553 -0.023400
-0.007600 0.100526 -0.023897
0.039602 0.104503 0.022642
0.039728 0.104508 0.022141
0.039852 0.104512 0.021640
0.040097 0.104522 0.019139
0.040220 0.104533 0.018637
0.040594 0.104553 0.016635
0.040589 0.104552 0.016135
0.040586 0.104553 0.015635
0.040836 0.104566 0.014135
0.040833 0.104563 0.013636
0.040832 0.104565 0.013136
0.040829 0.104565 0.012636
0.040955 0.104572 0.012136
0.040951 0.104568 0.011636
0.040949 0.104568 0.011137
0.041073 0.104576 0.010635
0.041073 0.104573 0.010135
0.041071 0.104575 0.009635
0.041070 0.104573 0.009135
0.041063 0.104573 0.008635
0.041060 0.104571 0.008136
0.041062 0.104570 0.007636
0.041058 0.104567 0.007136
0.040926 0.104559 0.006635
0.040923 0.104556 0.006136
0.040925 0.104557 0.005636
0.040923 0.104555 0.005136
0.040790 0.104545 0.004636
0.040788 0.104544 0.004136
0.040662 0.104535 0.003634
0.040662 0.104537 0.003134
0.040530 0.104526 0.002634
0.040401 0.104515 0.002137
0.040145 0.104498 0.001638
0.040016 0.104487 0.001139
0.039759 0.104469 0.000640
0.039505 0.104451 0.000143
0.039376 0.104440 -0.000356
0.038993 0.104409 -0.000853
0.038479 0.104378 -0.001353
0.038223 0.104361 -0.001851
0.037968 0.104339 -0.002350
0.037839 0.104332 -0.002849
0.037581 0.104312 -0.003349
0.037451 0.104306 -0.003846
0.037196 0.104285 -0.004347
0.037067 0.104275 -0.004845
0.036941 0.104268 -0.005349
0.036683 0.104247 -0.005846
0.036553 0.104236 -0.006346
0.036424 0.104224 -0.006843
0.036168 0.104208 -0.007343
0.035912 0.104190 -0.007841
0.035655 0.104170 -0.008341
0.035399 0.104152 -0.008841
0.035013 0.104124 -0.009338
0.034630 0.104097 -0.009837
0.034119 0.104064 -0.010334
0.033863 0.104045 -0.010833
0.033226 0.104001 -0.011329
0.032714 0.103967 -0.011827
0.031951 0.103912 -0.012323
0.031309 0.103868 -0.012819
0.030672 0.103824 -0.013318
0.030161 0.103787 -0.013818
0.029524 0.103746 -0.014313
0.028760 0.103689 -0.014810
0.027996 0.103637 -0.015306
0.026720 0.103550 -0.015800
0.026211 0.103513 -0.016300
0.025065 0.103436 -0.016795
0.023920 0.103357 -0.017285
0.023153 0.103303 -0.017785
0.022389 0.103251 -0.018284
0.020357 0.103111 -0.018772
0.020481 0.103119 -0.019273
0.019333 0.103038 -0.019765
0.018570 0.102989 -0.020262
0.016280 0.102829 -0.020756
0.016405 0.102838 -0.021257
0.002373 0.101894 -0.021691
0.000214 0.101754 -0.022180
0.000480 0.101769 -0.022679
-0.003966 0.101492 -0.023167
-0.007875 0.101244 -0.023648
0.038971 0.105168 0.024395
0.039344 0.105193 0.022393
0.039469 0.105197 0.021893
0.039595 0.105206 0.021392
0.039590 0.105204 0.020893
0.039835 0.105216 0.018888
0.040084 0.105229 0.017388
0.040208 0.105239 0.016887
0.040204 0.105237 0.016387
0.040203 0.105234 0.015887
0.040327 0.105244 0.015386
0.040326 0.105238 0.014886
0.040450 0.105248 0.014387
0.040450 0.105247 0.013887
0.040447 0.105246 0.013386
0.040573 0.105258 0.012887
0.040571 0.105256 0.012387
0.040568 0.105254 0.011887
0.040694 0.105259 0.011386
0.040691 0.105259 0.010886
0.040687 0.105260 0.010386
0.040686 0.105260 0.009885
0.040686 0.105257 0.009385
0.040682 0.105255 0.008885
0.040679 0.105254 0.008385
0.040677 0.105254 0.007885
0.040676 0.105254 0.007386
0.040674 0.105252 0.006886
0.040671 0.105248 0.006386
0.040541 0.105238 0.005887
0.040540 0.105238 0.005387
0.040537 0.105236 0.004887
0.040407 0.105227 0.004385
0.040277 0.105218 0.003887
0.040275 0.105216 0.003387
0.040150 0.105209 0.002887
0.039890 0.105191 0.002390
0.039890 0.105190 0.001890
0.039760 0.105180 0.001388
0.039503 0.105160 0.000892
0.039121 0.105132 0.000392
0.038737 0.105107 -0.000104
0.038354 0.105077 -0.000605
0.038098 0.105061 -0.001103
0.037840 0.105042 -0.001601
0.037456 0.105014 -0.002098
0.037326 0.105008 -0.002600
0.037324 0.105008 -0.003100
0.037067 0.104991 -0.003598
0.036939 0.104979 -0.004098
0.036812 0.104972 -0.004600
0.036556 0.104951 -0.005097
0.036428 0.104941 -0.005597
0.036297 0.104931 -0.006096
0.036040 0.104913 -0.006595
0.035912 0.104903 -0.007093
0.035779 0.104894 -0.007592
0.035397 0.104865 -0.008092
0.035141 0.104850 -0.008590
0.034882 0.104830 -0.009090
0.034500 0.104800 -0.009586
0.033990 0.104766 -0.010083
0.033606 0.104741 -0.010582
0.033095 0.104705 -0.011080
0.032458 0.104665 -0.011578
0.031821 0.104616 -0.012076
0.031056 0.104565 -0.012570
0.030671 0.104539 -0.013071
0.030031 0.104493 -0.013569
0.029268 0.104443 -0.014063
0.028376 0.104381 -0.014560
0.027740 0.104336 -0.015057
0.026213 0.104232 -0.015550
0.025827 0.104208 -0.016049
0.024937 0.104146 -0.016546
0.023280 0.104035 -0.017035
0.022644 0.103987 -0.017533
0.021370 0.103903 -0.018027
0.019717 0.103789 -0.018518
0.019207 0.103755 -0.019014
0.018314 0.103696 -0.019516
0.017424 0.103633 -0.020009
0.015008 0.103467 -0.020497
0.015131 0.103475 -0.021002
0.001966 0.102600 -0.021442
0.001965 0.102600 -0.021942
-0.000059 0.102471 -0.022431
-0.003970 0.102230 -0.022916
-0.003836 0.102238 -0.023416
-0.008960 0.101913 -0.023892
0.038712 0.105861 0.024141
0.039205 0.105890 0.021638
0.039206 0.105889 0.021138
0.039329 0.105897 0.020639
0.039577 0.105908 0.019137
0.039824 0.105922 0.017137
0.039821 0.105919 0.016638
0.039946 0.105924 0.016137
0.039944 0.105925 0.015637
0.039940 0.105924 0.015137
0.040064 0.105930 0.014635
0.040065 0.105931 0.014135
0.040064 0.105933 0.013635
0.040189 0.105940 0.013137
0.040187 0.105939 0.012637
0.040188 0.105938 0.012137
0.040311 0.105944 0.011635
0.040309 0.105943 0.011136
0.040305 0.105943 0.010636
0.040300 0.105942 0.010136
0.040300 0.105940 0.009636
0.040300 0.105936 0.009136
0.040297 0.105935 0.008636
0.040419 0.105944 0.008137
0.040293 0.105935 0.007635
0.040291 0.105934 0.007135
0.040286 0.105932 0.006635
0.040285 0.105929 0.006136
0.040156 0.105923 0.005637
0.040153 0.105920 0.005137
0.040026 0.105909 0.004636
0.039896 0.105902 0.004137
0.039895 0.105900 0.003637
0.039766 0.105891 0.003138
0.039636 0.105881 0.002636
0.039504 0.105872 0.002138
0.039251 0.105853 0.001638
0.038869 0.105829 0.001140
0.038481 0.105803 0.000642
0.038228 0.105784 0.000142
0.037972 0.105763 -0.000355
0.037712 0.105747 -0.000852
0.037585 0.105736 -0.001352
0.037329 0.105717 -0.001851
0.037198 0.105708 -0.002349
0.037069 0.105699 -0.002849
0.036810 0.105685 -0.003349
0.036682 0.105673 -0.003849
0.036425 0.105656 -0.004348
0.036296 0.105647 -0.004849
0.036168 0.105637 -0.005347
0.035912 0.105620 -0.005847
0.035784 0.105610 -0.006345
0.035526 0.105590 -0.006844
0.035524 0.105589 -0.007345
0.035267 0.105569 -0.007843
0.034884 0.105544 -0.008342
0.034628 0.105525 -0.008841
0.034242 0.105500 -0.009338
0.033733 0.105465 -0.009833
0.033224 0.105430 -0.010333
0.032838 0.105401 -0.010833
0.032072 0.105351 -0.011328
0.031691 0.105325 -0.011826
0.030929 0.105271 -0.012322
0.030419 0.105237 -0.012821
0.029907 0.105199 -0.013318
0.028631 0.105116 -0.013812
0.028251 0.105088 -0.014311
0.027100 0.105009 -0.014806
0.025828 0.104925 -0.015298
0.025446 0.104898 -0.015799
0.025060 0.104874 -0.016300
0.022900 0.104724 -0.016786
0.022260 0.104681 -0.017285
0.019973 0.104530 -0.017775
0.019205 0.104479 -0.018269
0.017935 0.104394 -0.018765
0.017677 0.104374 -0.019261
0.015898 0.104253 -0.019754
0.008397 0.103750 -0.020224
0.004932 0.103519 -0.020708
0.005063 0.103528 -0.021208
0.000617 0.103249 -0.021689
-0.000732 0.103166 -0.022179
-0.004238 0.102948 -0.022664
-0.004108 0.102954 -0.023166
-0.010171 0.102576 -0.023637
0.039077 0.106588 0.020888
0.039072 0.106586 0.020389
0.039197 0.106594 0.019890
0.039439 0.106603 0.017387
0.039436 0.106602 0.016887
0.039562 0.106610 0.016386
0.039561 0.106611 0.015886
0.039686 0.106618 0.015385
0.039684 0.106617 0.014886
0.039682 0.106612 0.014386
0.039808 0.106623 0.013886
0.039805 0.106623 0.013386
0.039804 0.106621 0.012886
0.039927 0.106631 0.012386
0.039927 0.106628 0.011885
0.039923 0.106625 0.011385
0.039922 0.106625 0.010885
0.039921 0.106625 0.010385
0.040041 0.106630 0.009884
0.039914 0.106621 0.009386
0.039914 0.106617 0.008886
0.039911 0.106620 0.008386
0.039909 0.106617 0.007886
0.039906 0.106616 0.007386
0.039904 0.106615 0.006886
0.039902 0.106615 0.006386
0.039773 0.106605 0.005886
0.039771 0.106604 0.005386
0.039640 0.106595 0.004887
0.039641 0.106592 0.004387
0.039512 0.106585 0.003886
0.039382 0.106575 0.003386
0.039252 0.106567 0.002889
0.038993 0.106548 0.002387
0.038611 0.106520 0.001891
0.038483 0.106513 0.001393
0.038102 0.106484 0.000894
0.037969 0.106475 0.000395
0.037842 0.106466 -0.000106
0.037584 0.106450 -0.000604
0.037328 0.106428 -0.001104
0.037199 0.106419 -0.001603
0.036941 0.106403 -0.002101
0.036815 0.106392 -0.002599
0.036683 0.106388 -0.003100
0.036428 0.106368 -0.003599
0.036169 0.106350 -0.004097
0.036040 0.106341 -0.004598
0.035787 0.106323 -0.005096
0.035656 0.106313 -0.005596
0.035526 0.106305 -0.006095
0.035270 0.106288 -0.006594
0.035139 0.106277 -0.007092
0.035010 0.106268 -0.007593
0.034501 0.106234 -0.008093
0.034245 0.106215 -0.008590
0.033734 0.106179 -0.009086
0.033348 0.106153 -0.009584
0.032839 0.106116 -0.010083
0.032458 0.106090 -0.010581
0.031946 0.106056 -0.011077
0.031307 0.106013 -0.011577
0.030672 0.105968 -0.012074
0.030288 0.105940 -0.012571
0.029523 0.105890 -0.013069
0.028249 0.105808 -0.013564
0.027865 0.105781 -0.014059
0.026463 0.105685 -0.014555
0.025697 0.105636 -0.015052
0.025190 0.105601 -0.015550
0.024933 0.105584 -0.016050
0.022515 0.105420 -0.016536
0.019972 0.105254 -0.017025
0.018317 0.105142 -0.017518
0.017174 0.105067 -0.018011
0.017169 0.105064 -0.018511
0.011068 0.104656 -0.018986
0.010430 0.104613 -0.019483
0.009158 0.104528 -0.019974
0.007885 0.104447 -0.020470
0.004525 0.104225 -0.020955
0.003444 0.104158 -0.021453
-0.001407 0.103860 -0.021933
-0.001275 0.103866 -0.022432
-0.004511 0.103663 -0.022917
-0.004514 0.103664 -0.023417
0.038687 0.107271 0.020139
0.039057 0.107288 0.017640
0.039178 0.107295 0.017138
0.039178 0.107297 0.016639
0.039303 0.107303 0.016138
0.039303 0.107302 0.015638
0.039300 0.107301 0.015138
0.039297 0.107301 0.014638
0.039423 0.107305 0.014138
0.039420 0.107305 0.013638
0.039418 0.107305 0.013138
0.039416 0.107304 0.012638
0.039540 0.107311 0.012139
0.039539 0.107308 0.011639
0.039538 0.107309 0.011139
0.039535 0.107307 0.010639
0.039532 0.107306 0.010139
0.039528 0.107304 0.009638
0.039528 0.107302 0.009138
0.039528 0.107302 0.008639
0.039523 0.107301 0.008139
0.039521 0.107300 0.007639
0.039524 0.107300 0.007139
0.039392 0.107290 0.006639
0.039389 0.107293 0.006139
0.039384 0.107288 0.005639
0.039256 0.107280 0.005136
0.039126 0.107269 0.004638
0.039123 0.107270 0.004138
0.038869 0.107252 0.003638
0.038740 0.107241 0.003140
0.038610 0.107234 0.002639
0.038354 0.107216 0.002143
0.038100 0.107196 0.001643
0.037971 0.107186 0.001144
0.037843 0.107178 0.000646
0.037583 0.107157 0.000146
0.037328 0.107144 -0.000355
0.037073 0.107124 -0.000851
0.036944 0.107113 -0.001351
0.036811 0.107106 -0.001851
0.036557 0.107089 -0.002347
0.036428 0.107079 -0.002847
0.036171 0.107063 -0.003346
0.036043 0.107052 -0.003847
0.035786 0.107034 -0.004343
0.035525 0.107017 -0.004844
0.035398 0.107007 -0.005343
0.035270 0.107002 -0.005844
0.035012 0.106982 -0.006344
0.034757 0.106964 -0.006842
0.034500 0.106946 -0.007341
0.034117 0.106920 -0.007838
0.033737 0.106892 -0.008336
0.033354 0.106870 -0.008834
0.032845 0.106834 -0.009331
0.032457 0.106808 -0.009831
0.032074 0.106779 -0.010330
0.031568 0.106741 -0.010828
0.031054 0.106711 -0.011325
0.030413 0.106668 -0.011825
0.029526 0.106608 -0.012317
0.028631 0.106551 -0.012815
0.028123 0.106517 -0.013314
0.027228 0.106456 -0.013807
0.026210 0.106387 -0.014304
0.025318 0.106328 -0.014799
0.024934 0.106302 -0.015297
0.024677 0.106284 -0.015797
0.019463 0.105940 -0.016276
0.017556 0.105814 -0.016765
0.016920 0.105773 -0.017265
0.015138 0.105655 -0.017756
0.014625 0.105619 -0.018254
0.012592 0.105485 -0.018742
0.011448 0.105408 -0.019237
0.009918 0.105304 -0.019733
0.007757 0.105168 -0.020222
0.007377 0.105137 -0.020719
-0.001274 0.104600 -0.021182
-0.001544 0.104583 -0.021681
-0.001546 0.104584 -0.022181
-0.005185 0.104359 -0.022666
-0.010172 0.104053 -0.023141
0.038055 0.107946 0.021893
0.038427 0.107963 0.019891
0.038800 0.107981 0.017388
0.038797 0.107982 0.016888
0.038794 0.107978 0.016388
0.038921 0.107984 0.015887
0.038917 0.107984 0.015387
0.038915 0.107986 0.014887
0.039038 0.107992 0.014388
0.039038 0.107992 0.013888
0.039037 0.107988 0.013388
0.039032 0.107988 0.012888
0.039156 0.107997 0.012387
0.039154 0.107994 0.011887
0.039153 0.107996 0.011387
0.039150 0.107994 0.010887
0.039146 0.107991 0.010387
0.039147 0.107991 0.009887
0.039144 0.107988 0.009387
0.039142 0.107988 0.008887
0.039144 0.107987 0.008387
0.039012 0.107975 0.007888
0.039011 0.107976 0.007388
0.039010 0.107972 0.006888
0.039006 0.107976 0.006388
0.038876 0.107966 0.005888
0.038746 0.107957 0.005386
0.038747 0.107957 0.004886
0.038615 0.107947 0.004388
0.038485 0.107938 0.003891
0.038358 0.107926 0.003390
0.038228 0.107915 0.002891
0.038100 0.107909 0.002392
0.037843 0.107892 0.001894
0.037713 0.107880 0.001395
0.037587 0.107871 0.000894
0.037331 0.107852 0.000397
0.037072 0.107837 -0.000103
0.036943 0.107827 -0.000603
0.036689 0.107809 -0.001104
0.036562 0.107798 -0.001600
0.036299 0.107783 -0.002099
0.036300 0.107783 -0.002599
0.036043 0.107765 -0.003098
0.035661 0.107744 -0.003596
0.035531 0.107729 -0.004094
0.035402 0.107720 -0.004594
0.035143 0.107702 -0.005095
0.034886 0.107686 -0.005593
0.034631 0.107668 -0.006092
0.034246 0.107642 -0.006590
0.033991 0.107623 -0.007092
0.033735 0.107604 -0.007589
0.033352 0.107581 -0.008090
0.032971 0.107554 -0.008584
0.032585 0.107532 -0.009083
0.032076 0.107494 -0.009584
0.031565 0.107461 -0.010081
0.031053 0.107425 -0.010578
0.030291 0.107376 -0.011072
0.029398 0.107317 -0.011568
0.028759 0.107275 -0.012066
0.028379 0.107250 -0.012566
0.027866 0.107218 -0.013066
0.026595 0.107132 -0.013558
0.025955 0.107087 -0.014054
0.025063 0.107028 -0.014547
0.024680 0.107003 -0.015049
0.021499 0.106797 -0.015537
0.018827 0.106625 -0.016024
0.017936 0.106561 -0.016519
0.016792 0.106488 -0.017014
0.015899 0.106429 -0.017510
0.014754 0.106351 -0.018004
0.013355 0.106260 -0.018497
0.012083 0.106176 -0.018993
0.010811 0.106093 -0.019488
0.008391 0.105937 -0.019976
0.007118 0.105852 -0.020470
-0.000330 0.105390 -0.020933
-0.001413 0.105323 -0.021433
-0.001820 0.105301 -0.021929
-0.006534 0.105017 -0.022410
-0.010579 0.104767 -0.022892
0.037173 0.108601 0.024146
0.037797 0.108636 0.021644
0.038046 0.108648 0.020139
0.038292 0.108658 0.018140
0.038420 0.108666 0.017639
0.038415 0.108667 0.017139
0.038412 0.108664 0.016639
0.038408 0.108661 0.016139
0.038536 0.108669 0.015639
0.038533 0.108672 0.015139
0.038532 0.108671 0.014639
0.038527 0.108670 0.014139
0.038526 0.108667 0.013638
0.038653 0.108672 0.013137
0.038647 0.108673 0.012637
0.038772 0.108678 0.012134
0.038642 0.108670 0.011636
0.038642 0.108669 0.011136
0.038769 0.108676 0.010635
0.038637 0.108671 0.010136
0.038763 0.108674 0.009635
0.038633 0.108665 0.009137
0.038633 0.108665 0.008637
0.038630 0.108663 0.008138
0.038624 0.108661 0.007638
0.038498 0.108651 0.007137
0.038495 0.108653 0.006637
0.038364 0.108642 0.006139
0.038365 0.108641 0.005639
0.038361 0.108641 0.005139
0.038235 0.108634 0.004639
0.038103 0.108623 0.004141
0.037975 0.108614 0.003640
0.037847 0.108604 0.003142
0.037716 0.108592 0.002645
0.037586 0.108585 0.002144
0.037458 0.108574 0.001645
0.037329 0.108563 0.001143
0.037072 0.108546 0.000646
0.036945 0.108538 0.000146
0.036688 0.108521 -0.000354
0.036430 0.108505 -0.000851
0.036302 0.108492 -0.001353
0.036171 0.108488 -0.001853
0.035915 0.108469 -0.002350
0.035785 0.108461 -0.002849
0.035530 0.108442 -0.003350
0.035272 0.108426 -0.003844
0.035145 0.108417 -0.004342
0.034891 0.108398 -0.004844
0.034507 0.108373 -0.005343
0.034249 0.108358 -0.005842
0.033991 0.108338 -0.006342
0.033733 0.108322 -0.006841
0.033353 0.108295 -0.007340
0.033096 0.108278 -0.007838
0.032712 0.108250 -0.008338
0.032076 0.108211 -0.008833
0.031693 0.108186 -0.009331
0.031181 0.108151 -0.009830
0.030417 0.108101 -0.010323
0.029779 0.108061 -0.010823
0.029270 0.108027 -0.011324
0.028757 0.107991 -0.011821
0.028121 0.107949 -0.012317
0.027612 0.107917 -0.012815
0.026463 0.107841 -0.013308
0.025826 0.107798 -0.013808
0.024809 0.107730 -0.014304
0.024171 0.107688 -0.014802
0.021117 0.107493 -0.015284
0.019465 0.107385 -0.015779
0.018190 0.107303 -0.016275
0.017677 0.107268 -0.016773
0.015899 0.107152 -0.017262
0.014881 0.107084 -0.017758
0.013481 0.106995 -0.018253
0.012335 0.106918 -0.018745
0.010173 0.106781 -0.019234
0.008138 0.106652 -0.019724
0.007247 0.106589 -0.020222
-0.000330 0.106123 -0.020690
-0.000872 0.106089 -0.021186
-0.002087 0.106019 -0.021682
-0.006941 0.105726 -0.022161
-0.002610 0.106849 0.045071
0.037662 0.109333 0.019891
0.037904 0.109344 0.017891
0.037904 0.109345 0.017391
0.037902 0.109345 0.016890
0.038026 0.109350 0.016391
0.038023 0.109349 0.015891
0.038022 0.109349 0.015390
0.038019 0.109348 0.014890
0.038143 0.109355 0.014391
0.038141 0.109353 0.013891
0.038141 0.109351 0.013390
0.038140 0.109350 0.012890
0.038137 0.109348 0.012390
0.038260 0.109354 0.011890
0.038258 0.109355 0.011390
0.038255 0.109353 0.010890
0.038255 0.109352 0.010390
0.038251 0.109351 0.009890
0.038249 0.109349 0.009390
0.038121 0.109344 0.008890
0.038121 0.109341 0.008390
0.038118 0.109338 0.007890
0.038111 0.109339 0.007390
0.037985 0.109331 0.006891
0.037984 0.109326 0.006391
0.037980 0.109328 0.005891
0.037853 0.109316 0.005390
0.037851 0.109319 0.004890
0.037723 0.109311 0.004389
0.037594 0.109301 0.003892
0.037461 0.109290 0.003393
0.037335 0.109283 0.002891
0.037333 0.109277 0.002391
0.037077 0.109262 0.001892
0.036944 0.109249 0.001392
0.036816 0.109240 0.000894
0.036689 0.109232 0.000393
0.036430 0.109215 -0.000105
0.036171 0.109201 -0.000604
0.036044 0.109191 -0.001105
0.035915 0.109182 -0.001603
0.035530 0.109156 -0.002100
0.035404 0.109147 -0.002599
0.035274 0.109137 -0.003098
0.035018 0.109120 -0.003596
0.034761 0.109103 -0.004095
0.034508 0.109086 -0.004595
0.034249 0.109072 -0.005094
0.033993 0.109054 -0.005594
0.033737 0.109036 -0.006094
0.033481 0.109016 -0.006593
0.033096 0.108992 -0.007089
0.032711 0.108970 -0.007588
0.032329 0.108940 -0.008087
0.031820 0.108908 -0.008585
0.031437 0.108883 -0.009081
0.030670 0.108836 -0.009579
0.030161 0.108801 -0.010077
0.029650 0.108766 -0.010573
0.029266 0.108742 -0.011072
0.028630 0.108699 -0.011573
0.027863 0.108650 -0.012065
0.027225 0.108608 -0.012563
0.026463 0.108557 -0.013059
0.025443 0.108488 -0.013555
0.023408 0.108358 -0.014048
0.021879 0.108262 -0.014540
0.020864 0.108199 -0.015037
0.019843 0.108132 -0.015532
0.018824 0.108069 -0.016029
0.017934 0.108007 -0.016527
0.016149 0.107893 -0.017019
0.015260 0.107834 -0.017511
0.013985 0.107753 -0.018006
0.012461 0.107655 -0.018498
0.011061 0.107563 -0.018994
0.008393 0.107395 -0.019480
0.007243 0.107321 -0.019974
-0.000198 0.106867 -0.020442
-0.000873 0.106823 -0.020943
-0.001817 0.106771 -0.021433
-0.003707 0.106653 -0.021928
-0.006541 0.106489 -0.022414
0.036279 0.109968 0.024645
0.036653 0.109983 0.022642
0.036780 0.109990 0.022144
0.037391 0.110020 0.017643
0.037516 0.110032 0.017141
0.037516 0.110032 0.016641
0.037513 0.110030 0.016141
0.037636 0.110035 0.015641
0.037634 0.110034 0.015141
0.037635 0.110036 0.014641
0.037759 0.110042 0.014139
0.037631 0.110029 0.013641
0.037755 0.110037 0.013139
0.037754 0.110036 0.012639
0.037751 0.110034 0.012139
0.037747 0.110032 0.011639
0.037745 0.110030 0.011138
0.037744 0.110030 0.010638
0.037743 0.110031 0.010138
0.037738 0.110031 0.009638
0.037736 0.110030 0.009139
0.037610 0.110018 0.008640
0.037608 0.110018 0.008140
0.037604 0.110015 0.007640
0.037602 0.110015 0.007140
0.037600 0.110013 0.006641
0.037473 0.110007 0.006142
0.037470 0.110004 0.005642
0.037341 0.109995 0.005143
0.037339 0.109996 0.004643
0.037209 0.109988 0.004141
0.037082 0.109975 0.003641
0.036949 0.109969 0.003143
0.036949 0.109965 0.002643
0.036819 0.109958 0.002144
0.036561 0.109937 0.001643
0.036432 0.109928 0.001143
0.036176 0.109912 0.000646
0.036048 0.109903 0.000146
0.035790 0.109888 -0.000355
0.035662 0.109880 -0.000855
0.035408 0.109863 -0.001353
0.035277 0.109850 -0.001852
0.035021 0.109837 -0.002349
0.035018 0.109835 -0.002849
0.034888 0.109825 -0.003349
0.034504 0.109801 -0.003847
0.034246 0.109783 -0.004345
0.033990 0.109767 -0.004846
0.033862 0.109758 -0.005346
0.033607 0.109743 -0.005846
0.033223 0.109714 -0.006342
0.032968 0.109697 -0.006841
0.032456 0.109668 -0.007338
0.032073 0.109640 -0.007837
0.031688 0.109615 -0.008337
0.031179 0.109584 -0.008832
0.030544 0.109540 -0.009328
0.030032 0.109509 -0.009826
0.029649 0.109482 -0.010324
0.029010 0.109441 -0.010822
0.028500 0.109408 -0.011321
0.027608 0.109350 -0.011817
0.027098 0.109318 -0.012313
0.026334 0.109266 -0.012813
0.023535 0.109090 -0.013299
0.022644 0.109032 -0.013793
0.022007 0.108991 -0.014294
0.020860 0.108919 -0.014789
0.020220 0.108876 -0.015286
0.019331 0.108823 -0.015780
0.018185 0.108748 -0.016275
0.016279 0.108625 -0.016766
0.015382 0.108566 -0.017262
