# .PCD v0.7 - Point Cloud Data file format
VERSION 0.7
FIELDS x y z
SIZE 4 4 4
TYPE F F F
COUNT 1 1 1
WIDTH 1527
HEIGHT 1
VIEWPOINT 0 0 0 0.707107 -0.707107 0 0
POINTS 1527
DATA ascii
-1.7499524 -68.059639 27.348242
-1.9193836 118.26206 52.946304
-2.0009899 56.651501 35.659401
-1.958617 66.570503 43.081169
-1.9206774 119.83061 55.049828
-1.2567046 41.511353 32.665173
-1.8788652 71.760719 44.383175
-1.4398171 48.202034 45.088085
-1.9076474 -69.610596 27.376844
-1.5823509 -42.386108 46.061272
-1.7835802 61.074345 35.767868
-2.5665281 40.744686 49.88047
-1.8288009 77.695534 46.95665
-1.7919419 38.052929 26.851271
0.0040918002 -64.302086 45.60466
-1.4323988 -68.590469 26.230467
-0.50522959 -76.117195 31.969061
-1.2497196 34.135418 55.741875
-0.062076699 -65.929741 45.208015
-1.8118254 82.797661 50.312847
-1.2540869 -44.525143 45.304329
-0.63057959 31.869505 57.375214
-1.823989 53.519512 35.333675
-0.54411423 29.398111 58.886757
-1.2566993 120.12469 53.634678
-2.1361012 25.176722 21.036146
-0.82858998 -74.595749 22.2444
-1.7245947 -64.713516 27.077162
-1.2409497 43.727474 47.453487
-1.8097924 67.298042 36.823971
-1.7319664 89.758446 53.279236
-1.1258525 -70.228806 24.714565
-1.7086372 75.046036 39.233845
-0.4613086 26.752762 60.28772
-1.6658753 -66.445625 27.980829
-1.1036872 -49.408195 21.80382
-1.6518102 95.819038 54.743446
-1.1392549 45.830853 46.247299
-1.1132271 -39.759365 19.002979
-1.2474294 23.744913 61.546776
0.099294573 -56.52586 44.693081
-1.6412479 80.849358 42.073292
0.0031749899 -75.973511 34.727779
-1.0239444 -72.562477 23.225292
-1.4583155 -69.076469 25.464127
-0.95456278 -74.771477 23.036243
0.026104391 -68.176239 44.237297
-1.5696459 112.48888 56.442165
-1.5551593 -66.691208 27.437458
-1.5594523 85.053215 44.997326
-0.00060022 19.960398 62.952362
-0.91418803 -45.558052 21.074095
-0.01937538 -22.179483 14.944659
-0.7591778 -42.038193 19.915213
-1.5381081 87.788795 46.50494
-1.1534473 -12.762073 62.142887
-1.0631179 -8.3153877 63.342651
-1.1127146 117.75644 57.007397
-1.490519 -70.909164 27.258879
-0.99850297 -77.873024 25.364223
-0.15224069 -28.546114 14.863879
0.00047838999 15.672589 63.986877
-0.99131787 -15.970918 61.114029
-1.4867675 92.991524 48.580578
-1.0118546 11.420224 64.630989
-1.1519232 120.43958 54.607502
-0.1628862 -19.501957 15.246807
-1.439795 97.777328 49.699238
-0.68903625 120.42271 55.982365
-0.80929375 24.460575 21.857582
-1.3808665 107.59882 50.843849
-1.5019914 119.24473 56.441345
-1.3520976 116.71633 52.193726
-0.76161629 27.057592 21.570591
-0.51833814 20.49748 22.838758
-0.89990979 -50.346546 44.374779
-0.80215001 -76.965935 23.394005
-0.4520939 -76.836449 29.20845
-0.89888358 -67.260384 26.533079
-0.83036524 -73.856354 24.378654
-0.56008214 -77.398697 24.634382
0.7180441 -38.373119 48.133095
-0.8690412 -57.732357 21.48959
-1.1672306 -72.866524 23.644714
-0.75992048 119.5108 52.851696
-1.1864178 51.619808 43.849346
0.33416682 -73.956848 38.781445
-1.2870952 -78.00708 25.798344
-1.1595936 54.416443 43.342293
-0.71192461 -65.254326 27.876307
-1.1553847 9.0609465 24.547495
-0.47100839 -65.317719 25.732643
-1.043806 -66.359695 28.35429
-0.79831582 -76.859329 25.897053
-0.56102091 -71.045021 23.996229
0.20639925 3.736537 26.426636
-0.60181177 45.420963 35.647434
-1.0289147 60.549061 43.064899
-0.5556128 49.593513 35.354439
0.0036824399 -70.275925 42.736874
-0.4302921 43.7817 35.182545
-0.05696651 -7.7798228 19.580072
-0.91389853 12.218543 23.82477
-0.71245706 -73.519814 20.9797
-0.99339658 67.423256 43.775822
-0.76665831 -71.051788 25.205593
-0.95799965 72.901802 45.367279
-0.86529219 61.705097 35.385578
-0.50100112 -69.746536 27.97691
-0.99400485 53.692028 35.13868
-0.37239474 -75.225098 22.463034
-0.92152053 77.540871 47.53083
-0.9124769 -68.000183 27.86994
-0.91306853 82.441307 50.739014
-0.0032017899 -76.217033 33.486607
-1.1490631 -69.74028 25.915285
-0.87169302 88.919312 53.567089
-0.84442276 69.325691 36.906113
0.00137192 -35.663593 16.811003
-0.30465123 42.640377 48.455967
-0.76383322 36.604294 53.798603
-0.84088683 95.561798 55.241817
-0.12908627 37.350235 26.647909
-0.80250609 76.314491 39.377388
-0.62614357 -64.315956 26.331377
-0.056885701 42.364536 33.887199
-0.80630779 100.72871 55.721546
-0.6449036 -74.070488 23.036573
-0.5006429 80.982925 41.686798
-0.78620082 112.19801 56.880787
-0.01317507 -31.828691 15.488182
-0.39414346 16.032162 23.479902
-0.7632913 86.44194 45.519539
-0.27755079 39.593056 29.83836
-0.48485664 -78.171799 26.272303
-0.71999496 92.390694 48.092628
0.10815197 35.534008 24.793736
0.45680982 -1.516117 64.835236
0.18407434 -12.556595 17.241905
0.37139478 2.5070589 65.204971
-0.71088958 97.522614 49.400295
0.31253749 6.7604342 65.154823
-0.44688752 -64.279816 21.607111
-0.34248751 -67.669022 26.342804
-0.66920978 111.05595 51.047501
-0.26777759 -77.632622 24.770729
-0.73563874 119.81348 56.699333
0.00202096 -73.684418 23.041298
-0.036189821 -16.594343 15.842282
-1.637449 -68.025383 21.577997
0.23073164 -71.915535 41.178219
0.69834936 -67.830452 21.412378
0.56057507 -74.791801 22.213593
0.0020058199 -71.420685 24.201317
0.19474407 30.631578 22.328587
-0.070456527 17.641304 23.590252
0.00221832 -73.890594 22.704248
-0.034061249 33.598019 23.381962
0.32628089 -78.416435 25.698742
0.063606389 -75.400993 22.648331
0.069539897 -70.410385 24.529848
-0.058641411 -76.771873 23.384937
0.30898225 13.62393 23.829868
0.21173531 -4.9324155 21.77808
2.9227571 -32.541962 15.656898
0.53800195 -39.926105 19.009298
0.82909095 -45.528107 21.028147
2.7249763 2.5096855 26.171671
0.00108076 9.860507 24.437407
0.61885005 11.312829 64.685768
0.72890937 23.710958 61.607124
0.31703666 44.456593 47.173431
0.35510039 47.302402 45.698174
0.00012755 51.39666 44.122074
0 53.71236 35.068035
0 54.65863 43.526569
0 61.903088 35.275101
-0 60.884842 43.2603
0 69.077827 36.729176
0 68.157387 44.113678
-0 73.430496 45.780792
0 76.216751 39.207432
0 77.331154 47.621807
-0 81.886307 50.606083
0.37816522 85.162003 44.582745
-0 86.269859 52.746944
0.40708321 87.562485 45.977634
0 92.598083 48.080879
-0 91.737839 54.585587
-0 97.639656 49.337944
0 96.599014 55.558357
-0 100.63135 55.868069
-0 106.82893 50.397884
-0 111.83976 56.997395
-0.24008761 118.10364 52.19286
0 118.17726 57.266594
0.5684045 119.85126 56.749462
0.75021982 120.10738 53.315693
-0 120.63905 54.436832
1.1187524 -49.412685 21.794027
1.0560372 -12.841857 62.133282
0.0036273501 -53.479027 22.222006
0.70669019 -55.894104 21.634781
0.93659908 -57.709042 21.491148
1.1639981 -22.261911 58.095734
-0.1467723 -70.759544 20.709282
0.62326515 -30.814575 52.61908
0.48159981 -64.289268 26.266844
0.48820743 -65.294342 25.742664
0.23442341 -73.703743 20.952307
0.6978386 -64.526054 27.080292
-0.24704672 -31.247227 52.339146
1.1265512 -69.690102 25.930141
0.0021385399 -66.294945 28.460815
0.6198926 -74.177711 23.005293
0.45869356 -74.569572 23.169216
0.58114034 -68.001961 27.979528
2.3095434 -42.823215 45.791695
0.82009786 -44.514156 45.304684
-0.45452076 -70.893005 27.639212
0.23946713 -48.112164 44.827065
0.46786648 -51.697552 44.382645
0.15063184 -53.020531 44.546711
0.27752098 25.020845 21.85017
0.39573795 18.215509 23.700388
0.57419264 27.406725 21.708084
0.80658501 -76.965157 23.392942
0.66242182 -72.593163 23.145035
1.0521486 -75.496613 22.45125
0.32476416 -77.456902 24.844635
0.22987029 -75.345398 23.206791
0.6926353 -76.485374 29.998308
0.61527222 -70.779228 25.366539
0.63408297 -67.671692 26.460394
0.55375242 14.924698 24.070639
0.069245622 -73.629906 25.02137
0.63559604 -72.049484 20.601694
0.80353856 -76.859291 25.896845
1.0009943 -73.435638 21.05682
1.1664071 -73.621674 23.181206
1.130559 118.41409 52.500641
0.82581574 31.958931 22.999765
2.6692774 -17.844143 15.625853
0.1628499 -74.954094 37.176563
0.66636086 116.65553 51.950085
0.77018493 -76.07048 32.017334
1.2563514 -53.617535 22.12649
1.0493798 120.27612 55.869392
1.2756417 -78.019966 25.750401
0.66780776 107.71161 50.60384
0.71088958 97.522614 49.400295
0.98313212 -18.848694 59.910927
1.7162901 -72.72789 25.439373
1.5719804 -77.152313 25.426083
1.728816 -11.731539 17.668676
1.1127146 117.75644 57.007397
0.71999496 92.390694 48.092628
1.0638118 -15.963177 61.106529
1.1426636 -8.1479359 63.37257
1.1519232 120.43958 54.607502
0.0037324999 -63.001827 45.739494
2.8494208 -28.370176 14.696372
1.4188007 -42.093193 19.991932
1.9306171 -74.098129 23.301796
0.78620082 112.19801 56.880787
0.80777854 80.940651 41.754295
1.9397184 -7.6540694 19.733557
2.7178216 -30.812355 15.137075
1.461871 36.240955 26.209803
1.2488089 -70.90506 27.428423
0.80630779 100.72871 55.721546
0.80250609 76.314491 39.377388
0.84088683 95.561798 55.241817
0.98329049 17.283012 23.628868
2.8873372 42.568962 34.324173
1.1329154 21.721767 22.25613
0.84442276 69.325691 36.906113
1.491828 39.460567 51.270004
1.3581251 37.641998 27.695793
1.0036378 -77.872902 25.363974
1.3411785 35.119316 55.004658
0.87169302 88.919312 53.567089
0.86529219 61.705097 35.385578
0.90087444 -67.209518 26.525951
1.3181064 43.107346 47.863949
1.7075886 23.329603 21.526714
0.91306853 82.441307 50.739014
0.99400485 53.692028 35.13868
0.92152053 77.540871 47.53083
1.4644631 -69.669708 27.657528
1.5212245 -64.712143 26.795025
1.1731919 -70.144745 24.711184
0.95799965 72.901802 45.367279
1.7736447 43.270748 34.896439
0.99339658 67.423256 43.775822
0.99054354 49.686596 35.414661
1.0480876 -66.359604 28.354088
1.0289147 60.549061 43.064899
1.7766744 9.9057646 24.246725
1.6492521 44.260807 35.464615
3.063601 1.9700857 25.901405
1.6181071 -72.912598 23.351379
1.3251376 33.682034 24.12483
1.1207895 45.734188 35.724167
1.1595936 54.416443 43.342293
1.6823957 12.639868 24.411629
1.5019914 119.24473 56.441345
1.1241709 9.0718431 24.544762
1.7285988 -65.03476 27.442698
1.1861812 51.624283 43.84819
1.4009279 -68.543381 26.236849
3.7699606 -66.078438 44.806435
2.1304421 -14.423393 16.570299
1.1417605 -71.358131 24.432346
1.4131938 28.308386 21.678333
1.4623249 -69.076393 25.463821
1.6226978 -72.774994 21.26893
2.3364677 -75.510551 31.58942
1.921326 -29.484285 53.260921
1.1069957 -64.35672 21.673203
1.7898954 -68.583786 25.558834
1.5804417 40.18108 30.916224
1.375664 111.16667 51.313152
1.8018918 -48.421444 44.497051
1.439795 97.777328 49.699238
1.9115397 -75.875443 30.326603
1.7190841 119.68723 53.672329
2.0923293 -74.125534 22.304794
1.4867675 92.991524 48.580578
1.8270029 25.537529 21.267977
2.9776354 -20.518614 15.208381
2.3236017 -68.942131 21.715664
1.5381081 87.788795 46.50494
1.6596493 30.225195 22.193459
2.0660629 -55.790176 44.367729
1.5696459 112.48888 56.442165
1.5594523 85.053215 44.997326
1.5592628 -66.69101 27.437159
2.4971061 -45.142834 21.256954
2.9243696 -39.305771 19.09597
3.4813683 -70.818565 41.844528
3.7230656 -70.421761 42.349846
1.6412479 80.849358 42.073292
1.6518102 95.819038 54.743446
1.7542793 -68.059494 27.347864
1.8222873 46.324799 45.716202
2.2215261 -76.827415 26.451912
1.6700571 -66.445366 27.980429
1.6307242 17.648693 22.679144
2.1938214 -45.419781 44.955868
3.2645679 -69.248734 43.329216
3.6275632 -24.720387 14.85197
2.7935519 -72.584084 23.144619
1.7086372 75.046036 39.233845
1.7319664 89.758446 53.279236
3.3156862 -59.721371 45.197533
3.0985553 -74.04142 38.013111
3.367867 -34.621063 16.614202
1.823989 53.519512 35.333675
2.3850539 -76.963593 24.487904
2.4662175 26.68215 60.119438
1.8097924 67.298042 36.823971
1.9094552 -70.72229 24.493513
2.8368461 -75.796181 34.736618
2.5110857 29.239967 58.764179
1.7835802 61.074345 35.767868
1.8118254 82.797661 50.312847
2.5417855 31.680662 57.275608
2.5701115 40.738716 49.884853
1.9193836 118.26206 52.946304
2.7177408 -72.770477 22.773569
1.8288009 77.695534 46.95665
1.84881 15.3171 22.941999
3.1055641 9.3222275 24.97156
2.2193615 13.301095 23.226715
1.9206774 119.83061 55.049828
3.1772859 -39.103916 47.587132
1.8788652 71.760719 44.383175
2.4717951 -67.758255 24.724026
2.132504 -70.748611 26.587423
2.4483199 50.902466 35.687866
2.1329684 -56.23288 21.797352
2.0422993 31.801014 22.923513
1.958617 66.570503 43.081169
2.1331375 117.93639 56.056881
2.0474412 59.803253 42.449585
2.7370667 -71.210236 24.774996
3.2480631 -75.880569 33.559914
2.1218214 46.424023 36.068317
3.0303032 -49.873833 43.734249
3.2945993 -69.193176 22.308996
2.2598679 28.249569 21.478928
2.12251 111.37646 51.838383
2.0405743 21.9034 25.176643
2.9204776 -76.003426 23.338055
2.3729849 34.007248 24.454163
2.4038181 118.52724 53.606602
2.1203914 27.347441 25.170031
2.4852443 -75.653938 28.907469
3.133806 -53.202095 43.674072
2.1086466 23.684431 25.395178
2.4081485 -72.174316 24.900173
2.2152905 97.368462 50.16468
4.6794834 1.1852652 25.335663
2.2364092 -75.391457 22.510063
3.0442066 -59.485214 22.016983
3.2163432 4.5417571 25.809105
2.2942073 52.832672 42.901684
2.537843 118.47119 55.240433
3.8060036 -3.5447273 23.206163
2.2958546 -64.111168 22.039007
2.3627381 7.2123199 24.889036
2.2965612 92.219177 48.881008
4.6649179 -62.762486 45.242966
4.5445285 -2.845268 24.385843
2.3163528 112.38621 55.654984
2.6470783 -74.643127 30.300751
4.2114339 -1.6129069 24.958153
2.8344734 -18.810741 59.543587
2.63516 118.52224 54.378971
2.2969401 18.6525 23.961901
2.1429594 55.31863 35.613449
2.3799834 85.755089 46.133713
2.7289691 -48.715206 22.094767
2.5885074 -69.518532 25.773731
2.4573188 49.535568 43.996368
2.4364202 95.92662 53.912457
2.5182636 29.31064 25.117315
2.9012868 44.756245 45.938854
3.7375665 -67.625496 44.259022
3.1328199 7.1545405 64.719353
3.169735 11.59271 64.282509
3.0584121 -70.2276 26.422699
2.5729754 38.935287 29.325317
3.1169171 2.8835027 64.793709
2.5244136 79.969292 42.220627
3.1456816 -16.055733 60.620995
2.7832146 -15.767157 16.144053
4.8236256 -65.089859 44.963364
3.1462986 -1.1663046 64.465858
3.2469227 15.941377 63.536106
2.5474238 89.94207 52.386032
3.2187772 -5.0599599 63.699677
3.2094579 -8.6748381 62.891506
3.2141101 -12.469777 61.851273
2.8838906 11.131711 23.6724
3.2913487 -71.111229 24.221378
3.3761296 20.192892 62.486275
2.6152256 73.841019 39.510105
2.6415558 83.455238 49.666672
2.6633639 67.098969 37.439129
2.7243919 111.69944 52.618332
2.6778784 -67.946136 25.065973
3.0376453 -74.206207 31.080965
3.4250576 43.256443 46.83445
2.8506546 36.951313 27.77483
2.6580687 16.425068 23.190273
2.6992099 29.9963 22.01
2.7049325 77.87709 46.003555
2.7208869 61.100567 36.536846
3.5562632 23.81386 61.192158
3.3425457 -70.746307 22.61709
2.7727401 71.851112 43.419098
2.8439729 112.47201 54.680061
2.7725818 21.492594 24.35076
3.4243333 -73.010536 22.630573
2.9168708 46.534569 36.55455
3.7190318 -51.970116 43.239784
2.9475477 23.693935 24.989878
2.8505609 96.722435 50.846786
2.9331348 56.673889 36.440002
3.7601521 -9.2569942 18.793486
2.8774025 66.161636 42.032112
3.1443686 31.149996 22.559896
3.5189035 -23.990772 56.344257
3.1955795 51.85635 36.189632
4.7450328 -7.4551363 19.852556
2.8018301 -14.043877 16.550829
4.4342194 40.948536 31.748562
2.9869103 112.0992 53.606945
3.0223372 -74.004288 30.710833
3.3340671 44.915714 36.6194
3.708982 -20.541624 58.324284
3.0919893 -73.19445 31.057993
3.6247585 -76.128731 25.234701
3.5555539 -53.535667 22.697159
2.9600992 90.875664 49.255711
2.9961693 96.207794 52.876305
2.9812005 59.653248 41.473927
3.4585161 24.753683 24.7712
3.4767325 43.874043 36.01865
3.7043107 -70.711731 25.46298
2.7359469 42.549892 47.938671
3.7941933 -71.343826 25.204645
3.0578504 -73.015343 32.185509
3.0480247 85.005096 46.632961
3.861727 -55.606949 43.949493
3.1162469 90.282463 51.339741
3.9168799 36.784145 53.138325
3.8022532 34.041584 55.349865
3.2234428 31.469635 25.423882
3.6708655 -32.614292 50.550915
3.3151002 52.698441 41.885231
3.1381743 96.626869 51.828201
3.4119508 -74.476669 32.063351
4.5986791 -5.8699145 21.096016
3.2265766 84.499207 48.877468
3.1814711 -21.815727 15.090313
4.3089266 -46.280544 44.057167
3.2900124 -72.95047 32.735546
3.2162647 79.430344 42.97541
4.2459445 -74.43821 36.984245
3.8219121 -41.15089 20.26812
4.0577927 3.621944 26.10479
3.7246249 -16.114641 16.815783
4.4301496 -66.265038 22.976742
3.2652695 90.490456 50.215179
4.1002731 -74.59848 28.671501
3.1921849 14.146767 22.828894
4.0327897 -75.621971 24.343422
4.1530871 -74.183731 30.007195
3.3275802 78.463638 45.021152
3.2725024 6.0562596 25.27038
3.3130658 73.573952 40.372433
3.365814 84.687996 47.666725
4.678515 40.048805 30.534779
3.8857436 -74.226173 23.034136
3.3563385 66.942566 38.388721
3.5155809 -11.992352 18.191759
3.5627675 -10.80329 18.414227
3.3910623 71.849976 42.208668
4.3595834 -71.556999 23.196606
3.6563179 -71.20507 24.34066
3.4604709 60.135952 37.484215
3.5035501 46.832352 37.079948
4.0889015 0.09893252 25.192944
4.1719356 -75.573334 34.610451
3.4871738 79.260834 44.125519
3.5086117 -14.878161 17.110449
3.7335424 51.674561 36.8391
3.548202 49.4361 43.008057
3.491437 66.707565 40.939297
3.7073393 -72.905434 33.24147
3.5745277 34.575871 26.515892
3.617872 59.077061 40.21487
3.5850768 73.383354 41.501774
3.5078917 -70.405701 24.90163
3.5370107 19.064892 22.744137
3.6587722 66.959 39.64135
3.6596313 56.490101 37.615005
4.1429977 7.9346642 24.750883
4.3886652 -44.30521 44.7481
4.3804049 -70.684326 23.845098
4.3491206 -56.698223 22.624159
3.8331027 57.989231 38.764767
3.994267 21.026424 22.438114
4.1526322 17.480982 21.683992
4.554965 -27.995754 53.391567
5.4151278 37.867676 28.956959
4.1095686 -11.371765 21.652925
3.741245 -72.774368 30.556202
4.8715134 -59.783337 22.803335
4.0882339 25.41382 24.063776
3.9666519 26.782471 24.71456
4.045053 -14.18346 18.451971
4.3405504 -45.751034 22.215225
4.2382698 -49.414917 22.823097
3.8933446 12.197144 22.739412
4.044683 52.3759 40.626545
4.3480034 45.12505 44.345535
4.1180515 51.901836 37.758373
4.1497521 -29.802151 15.083934
4.6675587 5.4355903 26.011925
3.9974015 42.817886 34.872185
5.6893153 -68.272736 24.005543
4.2362738 23.505911 22.37998
4.1967931 46.190025 38.06852
4.7384553 27.425095 24.517757
5.4450102 -59.008564 44.699116
4.1969299 -8.8656492 19.234138
4.0720935 32.566254 25.790138
4.7688961 26.64563 59.589176
4.4551568 -74.58033 32.763081
4.3100743 7.2865152 25.688494
2.5833018 -34.342442 49.958847
4.5788579 -7.6738734 21.926022
4.5636797 -18.14739 59.078911
4.4014363 50.895428 39.266872
4.2452025 -12.437053 20.3734
4.4791698 15.868927 21.279295
4.8733249 2.6816249 26.425756
4.605082 -72.762428 33.649612
5.0593386 38.873596 50.775459
4.7028017 43.718182 45.125221
4.9087248 29.173246 58.18874
5.4487805 -73.41777 26.147699
4.1738563 4.6746893 25.938568
5.4865398 35.00795 27.144861
4.2568264 -74.670311 23.700701
4.5081916 -27.225426 14.99157
6.015069 -61.191463 23.53219
4.5212293 -74.507721 27.699709
4.29356 50.187698 41.262901
4.9013743 -70.259636 43.215916
5.0019021 31.579948 56.667835
4.4641509 44.297718 37.519878
4.4302077 47.914581 42.727024
5.3490548 -55.314861 43.239868
5.3271756 -49.372684 42.635708
4.8542175 19.249054 20.313478
4.6524363 -18.302601 16.630287
5.3547091 -40.929577 46.332806
4.5729394 25.309839 22.197205
4.7634716 24.599985 20.233622
4.6676049 45.950584 39.133427
5.2374482 -67.656158 44.548355
5.1589861 -23.308615 15.700343
5.0412717 -70.774216 41.302799
4.5270901 -15.237 17.949499
4.7292037 -13.404773 19.300619
4.5384398 -72.652557 30.511303
5.0932693 -39.001991 19.660919
5.0043073 -70.523903 42.389297
6.2313628 -73.606537 30.435076
4.6005778 -10.19715 24.447292
4.6632872 10.795917 22.672052
5.0446467 -72.705437 23.896038
4.8343306 -32.691742 16.063837
4.9006457 14.431326 20.986032
4.8318782 47.716267 41.77404
4.935689 -3.9215786 23.089188
6.2207837 -71.94899 38.901627
4.8256578 42.927338 35.558582
5.4846277 27.839722 24.233952
5.0831313 45.577755 41.146744
5.8353438 -74.380608 35.772789
5.3945589 2.6725402 64.009537
5.4920163 11.305535 63.54866
4.8089399 6.99474 64.1875
5.1279335 22.795135 19.436573
5.9031 32.724579 26.148207
5.3262801 -0.93288761 63.731499
4.909946 26.817375 20.63023
3.7653 -75.309341 32.811771
4.8654895 -24.491732 3.1977243
5.0043764 44.763714 43.156136
5.4303102 -4.4012966 63.031673
5.5748243 15.616407 62.851093
5.5186987 -7.9848657 62.183418
5.457274 -41.487404 21.19882
5.358305 -11.021438 21.933743
4.9108601 -11.838 61.377701
5.0841064 -6.9364161 20.88269
5.4305401 -8.8991003 24.095133
5.6034074 -70.282257 24.495092
5.1556635 44.164841 38.775455
5.0022178 -21.761738 3.163826
5.0976963 -24.089327 1.5173414
4.9416847 -72.592491 30.603998
6.2051539 -74.591438 33.878574
5.5482006 -14.654808 60.044182
5.2115793 30.149857 17.70476
5.1517649 -16.154074 17.682577
5.0414801 -35.041229 17.27416
5.6953468 19.79966 61.844704
5.2458715 29.091272 17.649258
5.7341938 -31.617514 50.224392
4.9782543 -22.62723 4.8940177
5.3765464 27.566696 22.664686
6.0110092 -52.22731 41.970325
5.4749155 5.7280054 26.568647
6.2714763 -50.749775 41.784603
4.9508648 3.7398932 26.363102
5.3282619 -22.5158 1.0280646
5.6117043 -53.455875 23.705471
5.3418326 -29.560843 15.537719
6.8930888 -61.486958 44.740841
5.7997198 -72.418739 33.430531
5.5983572 41.701149 33.405922
5.610673 -7.454627 27.394461
5.2833619 -24.624125 4.4903173
5.6869898 -33.467628 49.314106
5.4818749 5.9883299 25.766073
5.9098372 23.232908 60.604706
5.7043862 2.2133648 26.681295
5.2599354 -25.524399 2.5663855
5.9156837 40.604 48.226604
5.420651 44.201111 40.585804
5.5965819 12.061279 20.97106
5.7861657 -38.187767 47.407368
5.493474 -21.9876 6.0341005
5.5898466 31.646692 18.920502
5.4407187 44.149876 42.168293
5.9128633 -73.490074 28.345009
5.3909521 27.879808 17.814638
5.6929388 -2.5546131 25.092529
5.3307347 -72.47184 30.772619
5.2855678 8.850606 23.525015
5.6892505 -26.016703 15.68531
5.9034734 -47.035286 23.488726
6.0111117 40.371487 31.331863
6.0575862 -19.606554 57.316891
5.9554038 -74.019455 32.969296
5.7043014 -23.002747 6.0256958
5.9946599 -49.526997 23.870564
5.4591584 -8.4169893 24.182037
5.6070027 29.095194 20.995182
5.7559772 43.445091 43.393349
5.6075501 -24.766069 1.1174084
6.0918465 -63.356606 44.98819
5.4071755 31.549011 17.865005
5.8514285 14.578574 19.702925
5.4793167 -5.586586 25.170338
5.8818865 -22.209011 55.940464
5.8143482 -6.9800382 26.469017
6.0599303 1.637033 26.218306
5.9749579 -14.009695 19.154049
5.5623207 -70.291229 42.106426
6.6365838 -56.740047 24.052061
5.671771 -19.120935 5.6076326
5.9026952 -1.37507 25.661621
5.7824883 -5.6174564 23.18705
6.9854317 4.0240569 28.073187
5.6073089 42.937836 36.49641
6.1322212 -45.299347 23.151344
6.0061741 -25.997269 2.456821
5.9452372 17.169029 19.050089
5.8329759 29.469038 15.693499
5.555819 34.444908 54.356823
5.9558406 -45.277611 43.538868
5.6723871 -9.5401497 22.105598
6.376358 -70.75985 25.554228
5.6659961 -7.3920522 28.099216
6.7508106 0.98135793 26.267076
6.0489626 -19.448143 6.7189026
6.2996693 -26.895824 53.113365
5.7168202 -72.303963 31.039835
7.2640119 -73.541679 32.789482
5.6995211 -18.503523 4.4029803
5.7866397 23.51053 18.570498
6.1508408 24.520041 18.176254
5.6530261 -17.267002 4.2911363
5.8434982 -25.856524 3.4903378
5.7865114 9.9446955 22.012247
6.3762598 -47.599709 42.276089
6.187191 -11.215073 22.714849
5.7792935 -10.766639 21.3004
6.4315624 -73.199341 31.124435
6.301537 -72.267426 26.390459
7.057888 -42.294064 45.028614
5.8023577 -24.32995 5.2490625
6.2339664 -5.191751 22.504066
6.2128048 -16.552723 17.988176
6.1272359 28.539558 15.951281
6.1809106 -14.497154 9.6528158
7.2392726 -3.2003334 25.569109
6.2167163 34.007404 18.458263
5.8589602 -32.1082 16.417999
6.2070518 -6.798213 25.482843
6.1246009 -10.924509 16.620356
6.3770967 -19.306534 1.4233749
5.9770446 -16.780712 3.8345673
6.1874065 -68.169624 44.929405
6.0688725 33.663551 17.326893
6.5694113 -23.278776 0.5411709
6.0620875 32.39978 15.949327
5.918704 3.1632025 26.938089
7.3604836 36.48354 28.573912
5.9779787 -34.670994 17.459162
6.6698904 -65.692276 45.053528
6.0600896 28.78681 22.924894
6.2180524 -9.8638048 17.663862
5.9948688 -18.082596 3.2059762
6.6579342 -70.577431 43.980442
6.3540263 30.447435 13.561645
6.4435511 -16.592913 9.624692
6.0959473 -12.047192 15.682404
6.5107307 30.521101 21.905413
6.16435 -69.813454 43.026024
5.962575 -9.0184212 23.83153
6.8333359 -20.613586 17.295599
6.0250573 21.730457 4.3885756
6.2287078 -8.3124924 21.552023
6.1164031 22.243153 6.7328949
6.1520638 28.274992 13.291165
6.1854482 -4.6110792 26.349415
6.0763159 -11.608637 21.837555
6.8054709 -70.501068 45.039448
6.1973572 22.531473 4.0794687
6.9167171 -73.329727 32.548157
7.1322656 40.718117 46.416878
6.2035971 -12.718491 16.65239
6.3093805 27.964901 16.877489
6.7123742 25.49448 17.831179
6.0615993 19.165319 3.5692863
5.9185061 7.8338771 23.852846
6.3114953 19.056309 0.61617845
6.3486366 16.769825 1.2688712
6.4723573 -13.00345 9.6240721
5.6303411 28.687838 24.730928
6.7878599 -10.92071 60.634224
6.2736735 -72.110077 32.997486
6.3341527 17.94521 4.4588151
6.393302 16.682583 3.1087158
6.3465786 -6.1003089 21.568661
6.3182402 20.70999 2.0972984
6.3613024 -19.365887 7.2098827
6.8332829 28.874111 24.193464
6.30407 -71.953285 32.108746
6.3295126 24.911615 9.5782223
6.3817263 -15.07142 11.127456
6.9402065 -3.492367 29.599297
6.3631616 -39.748543 20.840845
6.3665795 43.165253 40.157574
6.4438863 19.927345 6.1045856
6.4130082 -26.004169 3.7037542
6.3603959 -69.66256 41.821648
6.5221434 -14.223 7.5038671
7.1785898 -58.600628 43.974739
6.2797098 6.1363201 63.5783
6.3276734 27.741268 14.909253
6.9251876 -19.42807 0.95911384
6.3170552 -12.79665 11.077399
6.591795 17.694777 0.23377179
6.3530302 -28.063801 16.151699
7.0761566 -16.619682 58.096466
6.4592953 25.735706 8.5836802
6.5925493 -68.472931 42.841789
6.7148986 33.892677 15.503021
6.8441305 -8.8910847 17.067936
6.6141644 28.092903 10.514447
6.8006124 42.34621 36.970539
6.6589985 -15.999728 4.1278524
6.7772965 29.460356 23.534109
6.6207428 23.567568 4.0565991
7.233603 -40.464912 45.912521
6.9753003 -64.354988 24.476818
7.7754931 -67.564911 25.917015
6.8844066 -25.632601 1.9331441
6.5409565 -12.336319 22.3585
6.5562625 -13.708781 16.279135
7.1545992 34.81506 20.39497
6.7733049 -23.753962 16.670799
6.7946062 -11.134541 12.642038
6.8984127 -53.99205 24.625458
6.6726933 37.989414 50.4963
6.9139619 -4.8287964 27.146629
7.2322516 25.517635 58.925804
6.9680495 26.502895 7.5399179
7.2858791 9.4619684 20.880373
7.3557191 -21.432018 0.70152843
6.992979 17.025959 4.9759679
7.4360094 -10.7213 22.207058
7.1376567 -25.54291 6.0546508
7.4044557 -41.275776 22.575848
7.1671667 -52.58419 41.204891
6.7774067 -4.5623393 25.420174
7.0134501 -16.932598 3.1147733
6.8360052 -22.651865 6.7229571
6.7681184 26.43688 13.865588
6.6998553 16.836405 18.543976
6.67977 -4.5450501 28.595699
6.9777269 11.882639 19.649096
6.6525517 23.67137 10.014152
7.157455 -67.804291 44.101929
6.7379689 29.317007 57.198677
6.9096336 14.02322 18.932962
7.1007853 -27.19248 3.2195358
6.8826065 41.230755 33.774677
9.0906649 -71.452454 46.892506
7.3482528 -4.3961196 24.40835
7.1045728 -6.8588047 21.568972
7.9594483 2.9974184 29.292637
7.5074892 -55.29319 41.87048
7.0320611 -26.853598 4.4472809
6.7358198 -29.919001 16.654499
6.7371922 33.960003 54.017307
7.189466 -3.7637088 28.053213
7.1152234 30.305397 11.334881
7.3575673 -10.371254 23.393776
7.0483994 -0.84846359 62.852589
7.3047042 2.7444284 27.707987
8.0870838 -21.393736 7.7018428
6.9346609 16.438078 4.0201254
7.3697767 -26.82597 1.7121361
7.733295 -58.60511 24.987509
7.065289 -9.6036673 23.274014
7.3204937 -13.717688 6.8552613
7.3828478 15.41086 1.2071197
7.2049475 -68.171486 41.757919
7.2826858 -66.546761 41.773033
7.2221041 20.382717 7.7447219
7.686832 -23.973164 0.86916506
7.8988199 38.453468 30.367598
8.1768122 -72.353912 30.006372
8.1306744 -64.560234 25.528854
7.2506447 16.881823 0.01120929
7.224093 -37.196655 19.741774
7.6788034 26.993317 16.817537
6.9797587 35.460407 17.269817
7.5872149 -46.425549 41.546562
7.1862965 -66.943115 42.482769
7.4755692 27.551142 16.38727
6.9190516 -32.620663 17.4585
7.4483533 21.474579 1.1447519
7.1543088 7.0788379 23.399557
7.622479 -30.869314 49.398689
7.3200479 27.393312 15.30279
7.3915524 29.035448 25.105957
7.5268078 5.3139777 25.661301
7.2420015 -16.589283 11.260853
7.009182 -48.29108 24.672337
8.5740156 2.342391 28.349068
6.9374757 -73.627754 35.546276
7.0350866 -15.365807 13.075775
7.2833743 -6.8367653 61.456066
7.1979723 23.212574 10.338782
7.7602072 2.6304848 62.731697
7.4159975 -15.216571 4.6550436
7.5624518 -20.034506 7.8499465
7.7943659 -47.364357 25.37962
7.1338954 -13.117455 21.517096
7.0665393 -3.4264445 28.642342
7.5768089 22.370926 17.787868
7.09021 4.28302 27.076099
7.3515644 -25.350464 16.982149
7.3891511 15.728442 3.0921583
7.7137661 36.908409 19.048443
7.5817456 -44.892567 24.468563
7.6197743 42.079613 39.776836
7.2836938 -12.697206 22.30337
7.5915966 -67.623314 45.780788
7.5633721 -5.4766364 23.353052
7.8980818 -32.813488 48.256458
7.237237 -68.589241 44.601215
7.5999112 15.869094 18.314281
8.110095 -1.5094608 27.199305
6.9680257 21.8701 1.7915516
7.4921589 39.98032 31.74251
7.3113017 31.153934 22.667093
7.812655 -12.203877 22.938738
7.756711 -44.54525 42.477253
7.7718029 -54.151436 25.479109
7.5728846 24.843784 4.0876374
7.3049932 -11.909772 9.619935
7.8429265 -23.71644 7.3487973
7.4929247 34.653748 14.738655
7.665597 18.838942 -0.092143416
7.7017775 -17.085947 2.4764981
8.4995594 1.924263 27.727749
7.6818409 41.94775 38.257862
7.8265219 27.508238 7.0959697
7.7178588 -4.4255924 24.835255
8.012846 -18.37282 10.273038
7.8032799 31.983063 11.829671
7.8866153 -70.959099 38.479412
8.0204954 -6.4282961 19.725374
9.3988295 -70.438843 47.61187
8.265234 -71.143211 28.164902
7.5270953 -64.703506 41.181049
7.9664564 23.980145 11.483707
8.3859081 25.51054 17.199739
7.9555197 -25.577635 0.70654041
8.2884827 -11.892269 21.375624
8.102582 -13.216679 58.798088
7.9772067 -63.19466 44.811638
8.1600266 -5.3007817 24.346577
8.4490795 25.899628 14.067837
8.6788521 -60.06567 43.860348
8.2324038 28.881563 25.084448
7.9316711 -27.098774 17.49021
7.835804 -64.41777 40.071827
7.8439088 -1.93028 29.707279
8.2638693 -17.123947 56.793636
8.1240664 23.609873 17.390955
7.822937 36.263065 16.770876
8.2155609 -20.987598 54.575195
8.0825462 -25.679409 52.2897
7.6059299 10.7329 62.5201
8.3762693 23.611759 2.5126736
7.6143198 14.9985 61.919201
7.9054046 -16.066511 13.328773
7.7465644 35.65564 51.689262
7.6684999 19.0515 61.0079
8.038662 -17.08778 11.725483
8.100152 -24.791885 7.00632
7.8119521 15.813003 0.67866331
8.5658865 -71.064034 37.066856
9.2097673 31.165852 26.504637
7.7130499 6.5571599 62.771999
8.0381422 -13.864574 21.167757
8.5745087 -15.134655 20.008785
8.0172911 -49.09724 25.819584
8.4006348 22.207664 59.527206
8.1018219 -27.317617 2.2957222
9.2123957 -58.592319 42.863365
8.4172277 -27.27524 4.7593794
8.4619799 41.037258 42.233887
7.9657102 -27.613842 3.4133022
7.8006201 -30.255899 17.735901
7.8195143 31.364456 55.059628
8.5695152 -20.037788 18.806509
8.2780905 18.519863 17.875288
8.2287226 30.017002 24.331015
7.8354602 27.771 57.296299
8.0019159 40.760822 34.169937
8.3183002 -35.473248 19.945108
8.4085217 -20.356998 8.111454
8.1934862 31.188255 23.443022
8.4774494 -69.660645 39.409248
8.906662 2.7568467 28.996918
8.8232403 -65.114708 42.224098
8.1027136 -26.158058 6.0652375
8.142746 -48.714809 40.341755
8.8934088 18.277666 0.0047259699
8.0338745 -2.9171071 31.107008
8.3425694 37.339951 19.749409
8.3224249 -66.791878 40.261818
8.121748 36.011105 20.943111
8.5829334 -1.3035619 28.030134
8.433157 -4.3437858 22.734522
8.2713852 13.199778 18.781446
8.0027599 -4.09341 27.3204
8.2477484 17.404808 5.7061572
8.1807909 15.266068 2.0805845
9.2287569 -65.799057 43.311729
9.0516024 26.903181 15.114898
8.3925886 -52.969296 40.151581
8.4614363 -1.9153123 26.748844
8.3156662 11.124914 19.597048
8.6597223 -41.831905 43.951572
7.6185069 -36.964844 47.139103
8.2775211 -32.999771 18.911646
8.3556509 35.188805 14.493361
8.1951571 -64.370201 39.014732
8.3050871 9.2533627 20.707758
8.7452354 -65.278137 45.475483
8.5091944 -10.184714 23.097099
8.5624352 -40.29615 45.06953
8.7201471 -21.854811 0.73593217
8.1686592 7.3872499 22.332247
8.6117783 -42.106052 24.413237
7.7010088 34.287743 27.335981
8.2537689 -11.326489 9.3437891
8.4922562 16.220291 0.49056286
8.9156637 4.4195614 26.291616
9.0534601 20.05477 0.46013457
8.4737129 -20.576502 0.64313757
8.384491 -38.12941 21.46591
8.2532997 -1.947 30.643999
8.8515291 -7.212997 60.178787
8.6756306 -2.8934114 27.072361
8.6629019 -64.01973 41.033836
8.721385 -11.509932 23.268793
8.4523001 28.320049 7.3263741
9.2310934 -26.681219 1.8791387
9.1194286 -62.862614 38.526871
8.3334503 -72.668083 33.875462
8.7483206 -17.258177 1.8993534
8.8169641 -55.774189 40.971214
9.0961237 -62.018024 26.646053
8.7757111 -23.267206 18.550152
8.9567871 15.021692 4.2559543
8.9503469 -54.064919 27.009062
8.7824192 31.176809 10.096612
8.3152418 40.407688 44.664497
8.6599903 39.692608 32.360222
7.7457829 38.76775 48.381859
8.9969501 21.367559 0.80423272
9.6008043 -10.475278 22.455706
8.8414068 29.034258 24.90271
9.0118408 25.643633 4.1057839
8.4383783 36.791172 17.406698
9.4705391 -12.90596 6.1609783
8.8884649 -45.487431 40.387947
9.1636486 -0.64983147 61.375275
8.9355917 19.112803 7.4523945
9.0478029 -10.126359 59.11591
8.8330774 -44.21769 41.357391
8.6568127 -44.73539 25.867365
9.3559818 -24.556713 0.89460462
9.5552044 20.343756 8.028038
8.7684641 36.642357 49.285137
9.5252733 21.85885 9.2859144
8.6485405 35.002426 21.958323
9.0339193 14.418458 1.2463517
8.55406 -28.5301 18.254101
8.6687241 -2.547893 24.832312
8.9734249 14.360504 2.5227997
9.084197 15.210067 0.054661568
8.8951387 15.396316 18.224134
8.9291067 27.474154 16.337811
8.6663055 32.930115 52.918049
8.8306055 -63.530914 39.963097
9.2229986 -19.442234 1.0968179
9.4054527 23.579929 2.3641357
9.2569103 -26.044628 5.8081656
9.0482092 -3.0164244 31.887743
9.2343616 -23.678078 7.2216692
9.6087255 2.974304 31.115456
9.2081137 -29.839439 48.397194
8.4640808 -7.6888399 16.036762
9.2861338 -0.43172777 28.911427
8.8606787 -0.86793095 31.144135
9.4766932 -16.812613 20.299519
9.1482105 -20.081877 8.5632753
9.6503325 -70.543793 30.586153
10.719324 -71.640251 48.517426
9.1590939 -4.5148659 27.944052
9.2569094 -49.010597 39.000248
8.9970264 -69.007736 27.861172
9.0863552 -66.334084 39.600243
9.0428343 -30.4305 19.052778
9.0688925 16.060331 5.5143104
8.8434181 28.327503 56.040287
9.481761 -70.562683 35.167423
9.3321857 -35.430561 46.367996
9.9591808 3.1565046 30.006004
9.7638187 35.846462 29.354321
10.017004 -67.469673 45.31041
9.7228308 28.647276 25.740309
9.4154367 -53.973122 39.231384
9.0933371 -49.248669 27.565512
9.2819557 -46.729076 39.190201
9.0695362 7.0302401 22.681654
8.8986969 -16.394032 13.578829
9.13276 36.739174 17.537003
9.2443781 -27.09248 4.5627351
9.3049202 -27.423388 3.9186947
9.3532515 24.405687 57.735298
9.167717 40.264133 35.202793
9.255909 22.825468 17.374628
9.8719044 -57.616928 41.542709
9.8067379 -64.104912 38.431786
9.3880768 -18.24258 11.177806
8.9485397 18.4102 60.2924
9.1312475 37.339352 20.461626
8.9583397 14.4499 61.114799
9.8329058 -62.688499 44.470783
8.9678497 10.2634 61.646301
9.6726093 -31.834721 47.009323
9.594697 -45.404789 27.745123
9.2195644 35.254925 14.66806
9.4630976 36.690113 21.491777
9.4576473 16.670523 -0.65490133
9.4957733 -5.9134388 25.792479
9.0322199 6.33113 61.880001
9.778636 -65.430962 39.119408
9.7010498 -58.241413 27.859106
9.5294523 -65.122734 27.479132
9.3436279 40.556839 39.220993
9.80445 -0.7286877 29.149487
9.540719 -14.495161 20.651688
9.2024984 -2.3735526 23.890839
9.4294653 -42.501884 25.916582
9.5973339 -4.017746 21.179495
9.4397974 -38.071018 22.811909
9.452673 34.143467 22.673788
9.5924911 18.159195 17.941479
9.384923 -62.773888 39.147064
10.035652 25.425833 3.6878195
9.3017683 -26.912216 19.037169
9.358058 31.352163 23.735449
9.6011887 3.3296614 28.432331
9.2037401 2.6796701 61.699001
10.005101 23.509293 10.883137
9.7709818 29.574379 24.984539
9.7883024 4.5285888 26.063736
9.9125624 -53.411026 38.355892
9.3019533 -0.90489733 26.6066
10.355743 -68.510696 29.934919
10.785382 -10.97814 21.974215
9.8821697 -2.1426275 28.869225
10.960778 -68.699402 32.459881
10.023931 37.610184 31.189159
9.474143 -3.6288683 31.014297
9.5955706 30.27177 8.8898106
10.363194 -10.872578 23.359764
10.007715 25.598095 17.356424
9.6966848 -19.888866 53.494953
9.2244892 -13.979887 20.742439
9.8907299 15.950374 5.8011851
9.9387712 38.140514 45.023262
9.864234 2.295042 29.487514
9.8585472 -41.360474 42.551315
10.471728 18.42676 -0.040571328
10.069875 13.057807 18.977285
10.188508 -64.023727 41.066769
9.5663309 -14.369226 56.81097
9.7091951 -14.332662 4.5244751
9.9966087 -26.188066 6.0121732
9.9298487 19.054085 7.515605
9.9667997 15.079649 -0.039100111
9.1382751 -68.303619 39.397526
9.8109179 -60.549732 27.842527
9.7563257 -31.591686 20.225214
9.859869 33.310982 50.664143
9.5625486 -39.452339 44.461224
10.275042 10.821225 19.966658
9.794467 39.235851 33.145618
9.8913097 -27.432148 2.5994153
10.03826 -0.01223677 29.776213
10.318004 -17.156258 21.090824
9.9266987 39.256485 42.726017
9.8930387 -10.201362 9.8358679
10.320561 33.147038 28.025528
9.6107054 -16.489437 13.470777
10.218844 -20.469959 8.023551
9.7232122 -22.429861 19.795235
10.369414 8.8423157 21.236353
10.290595 -10.211007 23.116606
9.9187117 30.277344 53.134285
10.02841 -0.57546121 32.424313
10.424015 -21.37225 0.89439172
10.13105 -24.123083 7.1449337
9.949893 -40.38726 25.279512
10.128127 -68.47419 37.635132
10.458888 -33.253651 21.774696
10.104138 21.932648 1.1684633
9.9671125 14.118351 1.3169755
9.7959843 27.419321 55.399452
10.420883 14.118589 2.6952693
10.213367 -27.203844 4.8494387
10.469533 -41.957726 40.282852
9.7974539 -1.8248371 23.940626
10.052412 32.25399 11.637382
10.298505 -3.8558519 28.247463
9.9472818 -6.5599098 59.341164
10.540007 -1.4043067 33.628578
10.443809 -19.293394 1.3570768
9.9659042 -55.825672 39.595875
9.8528223 -50.373608 29.145178
10.041798 30.19882 24.333101
10.369333 -25.941067 0.85235608
10.014619 14.726202 4.2829208
10.001911 35.676163 16.876865
10.515386 -29.875479 20.884483
10.011608 36.341457 19.063692
10.521038 -66.809631 37.674603
10.843505 27.753296 15.58025
10.237468 26.357349 14.345121
10.021299 27.589581 16.824013
10.663541 28.626942 25.391748
10.77537 28.03002 25.817751
10.878111 -21.257261 7.5313902
10.699214 -69.999794 48.37191
10.188974 34.460159 14.830157
10.389459 35.86031 20.648165
10.611567 -60.770649 43.27726
10.480806 -13.789438 21.634554
9.9148569 -45.610569 38.326309
9.9719601 -0.75010401 25.987301
9.8327971 -7.1869102 14.981956
10.391475 21.001879 58.139568
10.094022 -45.564693 29.043419
11.256378 -68.421555 47.875912
10.194753 39.650608 36.695141
10.149507 -49.231907 37.433498
10.241776 -3.1680598 33.898865
10.757065 -18.675596 10.545084
10.507323 -43.680763 29.315546
10.134583 35.162773 22.287964
9.6944637 -24.738949 50.847431
10.57148 -64.275032 28.93597
10.845078 -12.334651 23.049301
10.0805 17.7757 59.448399
10.0931 -0.186318 27.738199
11.872133 -65.763336 43.949928
10.887124 -11.782811 21.656233
10.210922 -14.22442 20.985878
10.637285 -39.196262 42.928024
10.1607 9.7627602 60.623699
10.1647 13.9079 60.139702
10.583368 -28.100079 47.266754
10.1852 5.9973602 60.850201
10.960611 -57.606533 30.847601
11.052404 -70.899841 48.403198
11.698037 23.547192 2.242974
10.384778 -27.544331 3.29514
10.567298 -42.447384 39.19281
10.583207 33.084763 22.936316
10.783322 -63.758457 39.587669
10.683093 -64.810501 38.23299
10.564941 -13.940238 55.676937
11.150161 -27.285208 21.692289
10.727149 31.391499 23.45051
10.3008 2.5206101 60.6572
10.367043 -16.424961 13.334035
10.895521 -65.696663 37.616886
10.774899 -29.977295 46.162136
10.491055 -49.205227 30.745527
10.469228 -51.725796 30.596918
10.810901 0.0052946401 30.582855
10.538737 -6.9772868 26.416327
10.396167 3.5768795 27.779251
10.760729 -14.524549 4.3185945
10.632191 39.130547 40.163471
10.717368 -65.09024 45.729225
11.245833 27.990717 26.368166
10.418527 -47.680817 36.602192
10.794639 -9.5730486 57.332413
10.722817 3.615541 33.09893
10.841928 -3.9322162 34.04673
10.529636 -45.228268 36.424572
10.685677 -6.2503448 28.778147
10.51304 -14.297492 20.667845
10.78996 17.503195 -0.22257626
10.817888 -24.522602 6.7730203
11.47741 -66.346649 44.704571
11.14951 34.997684 46.425011
11.017497 -68.311607 34.653484
11.595671 -11.340849 23.39217
11.11827 26.899736 5.5107756
11.022025 21.406992 0.93072051
10.83207 -16.478907 2.8125989
11.070073 -6.3278728 27.862898
10.589894 -55.230587 38.078907
10.524736 -45.388489 30.555719
10.623658 -1.9298632 59.712341
11.798308 -69.384125 47.497524
11.115226 15.078389 4.0013437
11.004616 16.827406 5.9323392
11.033512 7.3314919 22.79686
11.172297 -62.3092 30.131775
10.732832 -41.043278 28.138084
10.597149 -1.6436563 23.839773
10.847746 -54.25774 36.572453
10.665696 -43.680447 37.018635
11.019254 0.31952602 31.816099
10.756328 15.503001 18.561766
11.988908 -18.761644 1.698702
10.963546 15.647473 0.14659119
10.645492 -38.357567 25.388716
10.915623 27.615911 17.2698
10.782374 38.599129 34.209682
10.597875 2.9762695 29.63228
11.432707 -34.456203 23.936905
10.914737 32.18795 13.015295
10.926385 -7.0949082 14.565564
11.394804 -27.110729 3.6741273
11.313565 5.2803807 25.514101
10.706854 -23.305117 49.998707
10.780746 -45.507298 32.208477
11.18388 2.2864273 31.857183
10.912452 -12.970989 5.9138179
11.117723 4.2403135 32.933426
10.792412 2.659986 31.614792
11.182876 -10.047481 9.6916981
9.8867731 2.2181289 30.348124
11.13057 22.636082 56.380741
10.900984 -51.495377 35.313499
11.313185 -26.40996 1.9092003
11.118182 -33.405426 44.981068
10.8023 -0.48622301 26.3848
10.821761 -45.538673 34.132107
10.985553 -19.393339 21.744165
11.047838 -20.750368 0.8777644
10.82926 24.769602 17.910564
11.031228 35.012482 29.967573
11.302423 -26.292107 5.3403573
11.346203 -5.9718013 32.345482
11.176991 14.590446 1.4193076
10.995885 -52.414646 32.710552
12.913809 -65.575935 42.301502
11.832439 33.382034 18.077366
11.193627 14.495263 2.5723891
11.192119 -2.8638339 30.799709
11.044275 -42.572319 35.273636
11.017126 -42.753651 32.830223
10.9247 -0.021121999 28.313
11.214981 -57.81221 39.925137
11.215289 29.057096 24.313421
11.416418 28.655993 16.068373
11.31496 13.329094 19.297457
11.508698 37.649197 41.634659
11.396952 28.787401 16.934916
11.425033 -6.444191 57.630795
12.363155 24.494223 3.574847
11.121139 -41.382771 38.299553
11.335745 17.388132 58.101883
11.296597 -41.376957 32.101357
11.002752 -16.167349 13.408165
11.350939 -56.15102 32.903217
12.0288 32.233315 20.652609
11.940044 -20.638002 7.3251982
11.200622 38.614471 37.955177
11.181281 -54.289928 34.37804
11.259382 -13.620167 21.799709
11.249225 -55.6688 36.775612
11.188128 -39.505337 28.051033
11.689259 -19.715837 8.3867407
11.513009 11.273402 20.19673
11.0957 -1.28071 33.600399
12.226635 -5.0955267 30.862474
12.339236 -20.987226 1.0761689
11.392054 22.585478 9.2742014
11.760345 -0.3711738 31.232233
11.329195 -65.433586 30.815969
11.873751 -60.60854 42.249077
11.462653 33.513363 16.650496
11.217244 37.404102 32.971298
11.477758 -21.2258 49.703518
11.638237 -65.747322 35.558365
11.286914 -55.348389 35.247902
11.643987 -14.800976 4.363039
11.152369 31.653065 23.03945
11.938137 -9.3198948 23.582163
11.165342 7.0995517 59.664177
11.772665 -22.435801 6.7131815
11.609451 -17.766687 10.902861
11.570222 21.624084 0.94301707
11.471341 -32.192947 22.996559
11.506834 20.776176 7.8628864
11.675508 -7.9697657 27.517073
11.917715 -35.710857 25.805054
11.203235 3.2980874 28.82572
11.352955 19.124285 18.641701
11.501131 -38.209267 41.298004
11.68858 9.3196974 21.463604
11.657732 30.879898 49.237904
11.283709 -3.569591 35.23666
11.52912 -65.520607 36.416553
11.515969 23.515966 18.791842
11.447139 -65.251717 38.42334
11.109808 25.852005 54.349953
11.826588 18.184877 -0.21824634
11.783342 14.922638 4.004787
11.2889 13.7676 58.842999
11.3019 2.3615601 59.419399
11.712234 -1.3903927 32.994297
11.143938 -3.865561 20.861444
11.300882 2.9383035 30.634365
11.594978 -33.920952 43.928253
11.265659 -23.828503 1.0361588
11.368862 -12.234595 55.194767
11.66029 -25.59218 1.9120209
11.596269 -5.2145181 34.486046
11.804012 15.531711 0.033986259
11.931201 16.933962 -0.57721764
11.609097 -66.907066 33.303326
11.384317 -2.3136852 23.057966
11.676294 -60.441544 31.870085
11.718895 3.1346207 35.327789
11.828996 -25.595261 45.948112
12.100864 16.965765 5.8925371
11.761304 -65.134712 37.854919
12.094531 14.639469 0.98830175
11.829601 -12.725288 22.71788
11.745502 5.4524231 36.64267
12.646069 18.93158 0.1158658
12.012496 15.801181 5.0387707
11.879837 -4.7455244 35.659576
11.747936 28.599665 17.97016
11.695545 19.504522 56.890087
11.564721 -2.9103847 58.33049
11.805086 14.283408 2.2985883
11.665873 -13.681916 21.81839
11.744411 -7.5961604 29.893103
11.912967 31.125261 28.302448
12.592813 26.645773 26.943434
12.239509 -29.391165 23.820337
11.598617 -0.7369287 26.159328
12.397635 -65.382736 40.491055
12.046157 14.824333 19.380512
12.163955 34.725174 31.503441
11.574053 -23.047464 22.525131
11.855134 -28.238241 44.820259
12.26586 -11.384708 22.432165
12.116755 35.369823 43.849537
12.508489 0.33526731 36.70948
11.820457 -62.492603 32.036106
12.314145 27.337452 24.443916
12.021411 -11.949465 7.6351004
11.855537 37.285885 34.585762
12.107594 -59.160282 39.307335
12.309972 -36.67931 27.847513
12.002387 -14.4508 16.391354
12.170985 -15.717103 12.565703
11.922055 -14.757533 4.2277856
11.82356 -64.661629 32.548046
11.986465 -14.04857 5.4157529
12.111298 26.781265 25.993448
11.896033 -16.602509 3.3041971
11.880028 -26.238483 2.9957623
12.174421 3.5042961 34.318256
12.274198 -71.475075 49.323631
11.62965 26.140797 12.825376
12.108284 -59.127892 34.144913
12.402596 25.841558 5.5699124
12.068331 29.541218 23.246735
11.7784 -0.20756599 28.876499
12.215909 -7.0937037 29.466543
12.100513 23.281923 19.781469
11.993349 -7.3371463 32.829254
12.009463 -64.014725 34.720013
12.556618 -37.818512 35.002377
12.511231 -59.651974 37.613422
12.005612 -25.914604 4.3171787
12.017163 3.2342968 32.370316
12.253999 -12.837745 21.635685
11.8697 -1.3422 33.093498
12.027699 3.2207532 30.524448
11.914488 -6.8748884 15.527007
11.774931 -63.760197 44.531166
11.988123 -9.829072 55.329056
12.094234 37.285225 38.983631
12.346602 -38.332008 30.558346
12.387862 27.723034 9.4578285
12.275116 36.217175 41.991741
12.400081 -61.448841 34.493141
12.091311 24.579256 53.258602
12.151478 30.875494 15.218047
12.017705 30.208961 16.79038
12.063684 -62.620155 33.48819
12.318398 21.36385 54.732288
12.692538 32.010712 30.020193
12.356736 -33.140842 42.659729
12.271523 -37.203911 38.676197
12.0395 4.3757401 27.917101
12.259932 -3.1277683 33.296207
13.017808 22.657537 7.5908027
12.11948 -4.0614376 21.386927
12.088247 30.037748 18.277622
12.588966 -7.6189661 36.286621
12.553738 -65.426056 39.66114
12.168579 25.213358 10.945725
12.086497 6.9387622 58.235771
