3.7738440 16.6151708 -0.0000000
3.8105307 16.6048482 -0.0000000
3.7926536 16.6333216 -0.0000000
3.8393133 16.6046512 -0.0000000
3.9146387 16.6966224 -0.0000000
3.9235657 16.6960617 -0.0000000
3.9790259 16.7242623 -0.0000000
4.0106886 16.7128843 -0.0000000
3.9778016 16.7426595 -0.0000000
3.9841406 16.7398106 -0.0000000
3.9385071 16.7452031 -0.0000000
3.8917498 16.7670974 -0.0000000
3.8498843 16.7738217 -0.0000000
3.8852196 16.7907519 -0.0000000
3.8611268 16.6375113 -0.0000000
3.8698694 16.5989125 -0.0000000
3.8704471 16.6113597 -0.0000000
3.3325416 16.1019963 -0.0000000
3.2860393 16.0808770 -0.0000000
3.2776941 16.1160444 -0.0000000
3.3133521 16.0328665 -0.0000000
3.3348870 16.0049956 -0.0000000
3.3694241 15.9565662 -0.0000000
3.3372174 15.9231573 -0.0000000
3.2277092 15.9419953 -0.0000000
3.2003125 15.8992912 -0.0000000
3.1769560 15.8756501 -0.0000000
3.2143852 15.8721850 -0.0000000
3.2499271 15.8856336 -0.0000000
3.2487529 15.8980983 -0.0000000
3.2949026 15.9845046 0.0000000
3.2473252 15.9520095 0.0000000
3.3226445 15.9813339 -0.0000000
3.2950872 15.9610192 -0.0000000
3.2894871 15.8936387 -0.0000000
3.2092319 16.0247531 0.0000000
3.2332949 16.0138773 0.0000000
3.1562464 15.8989255 -0.0000000
3.1834646 15.9112577 -0.0000000
3.1955335 15.9885511 -0.0000000
3.1554186 16.0043620 -0.0000000
1.3285001 13.2836453 -1.1799894
1.3285001 13.2511013 -1.2142272
1.3285001 13.2869444 -1.2821199
1.3285001 13.2649101 -1.2528598
1.3285001 13.2923796 -1.2792007
1.3285001 13.1898534 -1.2198636
1.3285001 13.1839031 -1.2335955
1.3285001 13.1953885 -1.2031173
1.3285001 13.1930249 -1.2382733
1.3285001 13.2756990 -1.6779234
1.3285001 13.3302797 -1.6439707
1.3285001 13.3485339 -1.6425095
1.3285001 13.2524090 -1.6046971
1.3285001 13.2740601 -1.6464737
1.3285001 13.2657504 -1.6031831
1.3285001 13.3925720 -1.6764000
1.3285001 13.3926204 -1.6861652
1.3285001 13.3960695 -1.7225139
1.3285001 13.2252660 -1.4268927
1.3285001 13.2083666 -1.4954607
1.3285001 13.1858841 -1.4862205
1.3285001 13.1853979 -1.4991125
1.3285001 13.1443676 -1.4132939
1.3285001 13.1687849 -1.4210338
1.3285001 13.2813124 -1.4974716
1.3285001 13.3063694 -1.5830282
1.3285001 13.2635270 -1.5555813
1.3285001 13.2432921 -1.5538724
1.3285001 13.2374890 -1.5146836
1.3285001 13.2217961 -1.5077384
1.3285001 13.3103485 -1.3915512
1.3285001 13.3654845 -1.3661181
1.3285001 13.3469055 -1.3670509
1.3285001 13.3545667 -1.4369374
1.3285001 13.3859044 -1.4706428
1.3285001 13.3834409 -1.3948965
1.3285001 13.4954285 -1.5971651
1.3285001 13.4819899 -1.5989079
1.3285001 13.3795953 -1.5764458
1.3285001 13.4402080 -1.5373841
1.3285001 13.4099752 -1.5749559
1.3285001 13.4153453 -1.5526087
1.3285001 13.4488112 -1.4914769
1.3285001 13.4632879 -1.5144438
1.3285001 13.4247803 -1.4738237
1.3285001 13.4605011 -1.4675205
1.3285001 13.3575180 -1.5448788
1.3285001 13.3533846 -1.4901293
1.3285001 13.3672065 -1.5432985
1.3285001 13.1749474 -1.3670440
1.3285001 13.1496105 -1.3557152
1.3285001 13.1602598 -1.3515607
1.3285001 13.2593371 -1.4527803
1.3285001 13.2758485 -1.4610929
1.3285001 13.3402783 -1.4428190
1.3285001 13.3413536 -1.4800700
1.3285001 13.2892515 -1.4813125
1.3285001 13.2888380 -1.3229274
1.3285001 13.2632881 -1.3175775
1.3285001 13.2480062 -1.3824010
1.3285001 13.2320919 -1.3639461
1.3285001 13.2430385 -1.3713899
4.8279030 17.1265620 -0.3316115
4.8278986 16.9667780 -0.3041597
4.8278987 16.9422213 -0.2961026
4.8278882 16.8745102 -0.2985264
4.8279001 16.9401296 -0.2366331
4.8279001 16.9515441 -0.2260972
4.8278993 17.0429444 -0.3548996
4.8278997 17.0313750 -0.3002109
4.4990657 17.7643604 0.0000011
4.4611202 17.8122942 -0.0000000
3.5590596 13.7352915 -0.0000000
3.5032902 13.6716454 -0.0000001
3.5269638 13.6925292 -0.0000001
3.5478031 13.7750701 -0.0000000
3.5800658 13.7662838 -0.0000000
3.7061765 13.7674590 -0.0000000
3.7000762 13.7384561 0.0000000
3.6397141 13.8293382 -0.0000000
3.6353312 13.8322121 -0.0000000
3.6286463 13.8028031 -0.0000000
3.5519126 13.5772747 -0.0000000
3.5805715 13.6277024 -0.0000005
3.6075400 13.5750724 -0.0000145
3.5568261 13.6612086 -0.0000002
3.6013338 13.6804101 -0.0000000
3.5978748 13.6553082 -0.0000002
3.5063940 13.7237797 -0.0000000
3.5884955 13.7419382 0.0000000
3.6191787 13.7266213 0.0000000
3.6867877 13.6997216 0.0000000
3.6570164 13.6945841 0.0000000
3.6974896 13.7176462 0.0000000
3.6257045 13.5903538 -0.0000080
2.4151303 16.2595726 -0.7585416
2.4594475 16.3068888 -0.7501933
2.3467891 16.2710993 -0.7565118
2.3770746 16.3116851 -0.7493535
2.3891738 16.3352941 -0.7451916
0.3883254 14.6085192 -2.5758781
0.3762385 14.6309095 -2.5798254
0.3419333 14.6075479 -2.5757073
0.4194985 14.5485630 -2.5653058
0.4194865 14.5573833 -2.5668612
0.3986679 14.5264665 -2.5614165
0.5751995 14.5994777 -2.5742840
0.4905734 14.5733455 -2.5696809
0.5159149 14.5637288 -2.5679874
0.4998914 14.5869764 -2.5720821
1.8948304 12.6087281 -2.2230557
1.9074926 12.6127317 -2.2238708
1.9397411 12.7011528 -2.2395539
1.8830430 12.6615258 -2.2325685
1.8854815 12.6981963 -2.2390325
1.9400853 12.6507751 -2.2306779
1.9213200 12.7382114 -2.2460878
1.9461588 12.7507247 -2.2482949
1.9937832 12.7400609 -2.2464171
1.9747893 12.7493591 -2.2480556
3.7367533 15.8014228 -0.0000000
3.7474133 15.7907753 -0.0000000
3.6649394 15.9561933 -0.0000000
3.6522963 15.9712674 -0.0000000
3.6281963 15.9393517 -0.0000000
3.9722801 15.7804856 -0.0000000
3.9984758 15.7191049 -0.0000000
4.0287979 15.7138202 -0.0000000
4.0353478 15.6952171 -0.0000000
3.9498428 15.5649100 -0.0000000
3.9643207 15.6014753 -0.0000000
3.9015226 15.6897866 -0.0000000
3.8432388 15.7692951 -0.0000000
3.8574691 15.6881950 -0.0000000
3.8503258 15.7125498 -0.0000000
3.8807697 15.5855225 -0.0000000
3.9095010 15.5772065 -0.0000000
3.9425315 15.5766749 -0.0000000
3.9504071 15.5900357 -0.0000000
3.9042286 15.6534019 -0.0000000
3.9002328 15.6592417 -0.0000000
2.6394294 14.0653460 -2.4800742
2.5822304 14.0216181 -2.4723744
2.6066705 13.9918970 -2.4671252
2.6040823 14.0902206 -2.4844682
2.5873374 14.0864725 -2.4838144
2.5063101 14.0291508 -2.4737194
2.5569190 13.9827430 -2.4655347
4.8276815 15.7302122 -0.0240090
4.8279001 15.7471374 -0.0095866
4.8278384 15.6964458 -0.0158911
4.8279001 15.7151499 -0.0143798
4.8278999 15.7039999 -0.0095866
4.8279177 15.6731136 -0.0223580
4.8278985 15.6379178 -0.0415692
4.8279001 15.6017836 -0.0171796
4.8278847 15.5519039 -0.0857871
4.8279129 15.5697430 -0.0044569
4.8278944 15.6110762 -0.0817477
4.8240689 15.4919400 -0.0001478
4.8203185 15.4968778 -0.0001837
4.8278725 15.5162671 -0.0259125
4.8240689 15.5165650 -0.0001478
4.8240689 15.5288769 -0.0001478
4.8278843 15.5288651 -0.0781156
4.8278907 15.5126759 -0.1074828
4.8240689 15.5411900 -0.0001478
4.8240689 15.5535019 -0.0001478
4.8240689 15.5658149 -0.0001478
4.6817761 15.5813719 -0.0000000
4.6357113 15.5622676 0.0000000
4.6333622 15.5705356 0.0000000
4.7486013 15.5529370 -0.0000004
4.7947216 15.4465767 -0.0000017
4.8240992 15.4667810 -0.0001895
4.7904520 15.4769001 0.0000008
4.7857621 15.5098132 -0.0000017
4.6919692 15.5010719 -0.0000000
4.7264141 15.4793459 0.0000002
4.6432840 15.4441811 -0.0000000
4.6812220 15.4071002 -0.0000000
4.6508401 15.4088290 -0.0000000
4.6694626 15.4905243 -0.0000000
4.6713758 15.5477648 -0.0000000
4.6720543 15.5187611 -0.0000000
4.8239460 15.6666299 -0.0000734
4.8094200 15.6570502 -0.0000000
4.7641029 15.6100483 -0.0000005
4.8276198 15.6548297 -0.0025823
4.8276198 15.6425039 -0.0025823
4.8276198 15.6301792 -0.0025823
4.8239460 15.6173300 -0.0000734
4.8239460 15.6050053 -0.0000734
4.8239460 15.5926805 -0.0000734
4.8114478 15.5932423 -0.0000011
4.8094200 15.6323997 -0.0000000
4.8094200 15.6447254 -0.0000000
4.7476329 15.5463829 -0.0000005
4.6967546 15.5329492 -0.0000001
2.9579578 17.1637559 -0.0000000
2.9662753 17.1357895 -0.0000000
2.9701272 17.1274121 -0.0000000
2.9523202 17.1025235 -0.0000000
3.0819593 17.1869275 -0.0000001
3.1322192 17.1679700 -0.0000000
3.0853079 17.1749810 -0.0000001
3.0470056 17.2206774 -0.0000001
3.0429662 17.2021840 -0.0000001
3.0372518 17.1638987 -0.0000000
2.9605074 17.1989560 -0.0000067
2.9473871 17.2016385 -0.0000100
2.9415296 17.2488588 -0.0000710
2.9759925 17.2742434 -0.0000031
2.9382845 17.2739944 0.0000000
2.9831899 17.2981045 -0.0000091
3.9980655 17.6379694 -0.5154876
4.0284758 17.6474448 -0.5138147
4.0238460 17.6634739 -0.5109876
3.9560883 17.7144626 -0.5019990
0.0000000 14.9753202 -1.1804864
0.0000000 15.0070596 -1.1249081
0.0000000 15.0011358 -1.1331481
0.0000100 14.7319048 -1.4636146
0.0000234 14.7082300 -1.4678964
0.0000000 14.7437359 -1.5882726
0.0000000 14.7743989 -1.5820000
0.0000000 14.7458595 -1.6333077
0.0000000 15.0832455 -1.3256754
0.0000000 15.0914369 -1.2936139
-0.0000000 15.1621983 -1.3013901
-0.0000001 15.2000606 -1.3324089
0.0000000 15.0984979 -1.1826367
0.0000000 15.0717404 -1.1715588
-0.0000000 15.0394789 -1.1949832
-0.0000000 15.0260397 -1.1810242
0.0000015 15.2651293 -1.3779476
0.0000005 15.2503302 -1.4512522
-0.0000000 15.2320448 -1.4531783
-0.0000000 15.2235160 -1.4433998
-0.0000000 14.7588112 -0.9812444
-0.0000001 14.7418940 -0.9949347
-0.0000000 14.7216931 -0.9518286
0.0000000 14.9585143 -1.1545922
0.0000000 14.9638980 -1.1404227
0.0000000 14.8508953 -1.1981753
0.0000000 14.8504348 -1.1684716
0.0000000 14.8487215 -1.1483827
0.0000000 14.7937635 -1.0754249
0.0000000 14.8412298 -1.0921344
0.0000000 15.0355242 -1.5112183
0.0000000 15.0076340 -1.5444656
0.0000000 14.9399771 -1.4464932
0.0000000 14.9896181 -1.4806893
0.0000000 14.9648486 -1.4759992
0.0000000 15.0989355 -1.3862478
0.0000000 15.1221905 -1.4264213
0.0000000 15.0729149 -1.4567056
0.0000000 15.0239424 -1.4006331
0.0000000 15.0458102 -1.4185621
0.0000000 15.1538766 -1.3795812
0.0000000 15.1494860 -1.4259181
0.0000000 15.1690885 -1.3950608
0.0000000 15.1859697 -1.3877297
0.0000000 15.1325091 -1.2870270
0.0000000 15.1246489 -1.2988401
0.0000000 15.1035728 -1.3346461
-0.0000000 14.7724413 -1.0518177
-0.0000000 14.7624242 -1.0627794
0.0000000 14.9227005 -1.4930455
0.0000000 14.8688674 -1.4347195
0.0000000 14.8796857 -1.5168442
0.0000000 14.8474787 -1.4607781
0.0000000 14.8440382 -1.4935124
0.0000000 14.9057806 -1.4902519
0.0000000 14.8985990 -1.4806036
0.0000000 15.0101715 -1.4108658
0.0000000 14.9933017 -1.4385860
0.0000000 14.9995526 -1.3154657
0.0000000 15.0363366 -1.3560561
0.0000000 15.0573865 -1.3700009
0.0000000 14.9558532 -1.3436497
0.0000000 14.9936769 -1.3216059
0.0000000 14.9871196 -1.3982453
0.0000000 14.9911562 -1.3739007
-0.0000000 15.0205256 -1.2187974
-0.0000000 15.0501115 -1.2195291
0.0000000 15.0047514 -1.2464364
-0.0000000 15.0444788 -1.2803662
-0.0000000 15.0470368 -1.2792647
0.0000000 15.0372655 -1.3242818
0.0000000 14.9350404 -1.2673562
0.0000000 14.9725673 -1.2848395
0.0000000 14.9660904 -1.2086369
0.0001062 14.6901745 -1.1275574
0.0000029 14.7428474 -1.1272620
0.0000123 14.7129497 -1.1529869
0.0000000 14.7948606 -1.3667170
0.0000000 14.7242833 -1.3911091
0.0000000 14.7795962 -1.4301331
0.0000000 14.7593676 -1.4111758
0.0000000 14.8351102 -1.4294340
0.0000000 14.8243635 -1.4097563
0.0000000 14.8136076 -1.4384890
0.0000000 14.9115960 -1.1464339
0.0000000 14.8989190 -1.1628607
0.0000000 14.9047398 -1.2271573
0.0000000 14.9302540 -1.2061696
0.0000000 14.8873162 -1.3354871
0.0000000 14.9260162 -1.3911064
0.0000000 14.9359105 -1.3795002
0.0000000 14.8614405 -1.3744298
0.0000000 14.8411312 -1.4014227
0.0000000 14.9056715 -1.4135821
0.0000000 14.8881228 -1.4052591
0.0000000 14.9195055 -1.3226770
0.0000000 14.7749091 -1.1566474
0.0000000 14.7793401 -1.1782118
0.0000000 14.7841255 -1.1711095
-0.0000000 14.7945180 -1.2935660
0.0000000 14.7801892 -1.2725367
0.0000000 14.7850412 -1.2362026
-0.0000000 14.8505074 -1.2713527
-0.0000000 14.8689693 -1.3048121
-0.0000000 14.8452687 -1.2743028
0.0000000 14.8907896 -1.2526878
0.0000000 14.8885539 -1.2979294
-0.0000000 14.8362756 -1.3128818
0.0000000 14.8182407 -1.3416718
0.0000005 14.7282285 -1.2509264
0.0000003 14.7363791 -1.3001912
0.0000002 14.7456392 -1.3011255
0.0000001 14.7601987 -1.3341107
0.0000000 14.7705626 -1.3428526
4.8241045 16.1812325 -0.0001658
4.7992503 16.1963607 -0.0000005
4.8241045 16.1935572 -0.0001658
4.8241045 16.2058830 -0.0001658
4.8241045 16.2182077 -0.0001658
4.8241045 16.2305324 -0.0001658
4.8241045 16.2428582 -0.0001658
4.8279028 16.2584779 -0.0226385
4.8278996 16.1921879 -0.0931921
4.8278995 16.2599328 -0.1332028
4.8278999 16.0658283 -0.0983094
4.8278993 16.2213094 -0.1491059
4.8278995 16.2304130 -0.1441956
4.8278990 16.1941816 -0.1442909
4.8278990 16.1581742 -0.1503392
4.8278980 16.1541551 -0.0603999
4.8278964 16.1265724 -0.0441855
4.8279001 16.2227316 -0.0171577
4.8278437 16.1982088 -0.0242726
4.8278999 16.1861122 -0.0114384
4.8278990 16.1737827 -0.0834699
4.8278986 16.1012516 -0.0993363
3.8312815 17.1799663 -0.5962556
3.8356130 17.1462521 -0.6021984
3.7532032 17.1860272 -0.5951871
3.7556975 17.1487856 -0.6017516
3.5482836 16.9693848 -0.0000000
3.4265737 17.0780026 -0.0000000
3.4443429 17.0954138 -0.0000000
3.0217384 14.4083216 -0.0000000
3.0742641 14.4064688 -0.0000000
3.0529681 14.3721378 -0.0000000
3.0946450 14.3414117 -0.0000000
3.0724603 14.3640348 -0.0000000
2.8661061 14.4343701 -0.0000000
2.8807032 14.3724184 -0.0000000
2.8642370 14.3355477 -0.0000000
2.7906184 14.5538088 -0.0000000
2.7896870 14.5236094 -0.0000000
2.7361547 14.5536369 -0.0000000
2.9855160 14.4953471 -0.0000000
2.9799341 14.4689225 -0.0000000
2.9938347 14.5312289 -0.0000000
2.7542908 14.4862494 -0.0000000
2.7235425 14.4877238 -0.0000000
2.7430635 14.4630750 -0.0000000
2.8306517 14.4693025 -0.0000000
2.8256244 14.4538353 -0.0000000
2.8028818 14.4495114 -0.0000000
2.8186012 14.3898482 -0.0000000
2.8089911 14.4010724 -0.0000000
2.8790691 14.4788840 -0.0000000
3.0142978 14.3461822 -0.0000000
3.0420689 14.3532429 -0.0000000
2.9639807 14.3215294 -0.0000000
3.0074630 14.4229521 -0.0000000
2.9524193 14.3930529 -0.0000000
2.9645139 14.4282497 -0.0000000
2.9796057 14.4155530 -0.0000000
2.9054536 14.4156667 -0.0000000
2.8892059 14.4448385 -0.0000000
1.6440252 15.5547708 -0.0000000
1.6672358 15.5879984 -0.0000000
1.6751883 15.5767112 -0.0000000
1.5600090 15.6740466 -0.0000000
1.5626006 15.6143664 -0.0000000
1.5681952 15.6156822 -0.0000000
1.5910134 15.5266318 -0.0000000
1.5905660 15.5604219 -0.0000000
1.5627305 15.5925127 -0.0000000
1.5862242 15.6709559 -0.0000000
1.6037428 15.6906138 -0.0000000
1.6156362 15.6575860 -0.0000000
1.5261200 15.7893727 -0.0000000
1.4670250 15.7569446 0.0000120
1.4764322 15.7521415 0.0000060
1.5796260 15.8394456 0.0000000
1.5418624 15.8390543 0.0000000
1.3463363 15.7278661 -0.0000171
1.3525498 15.7270651 -0.0000166
1.3682086 15.7437680 -0.0000278
1.5042893 15.6585335 -0.0000000
1.5330163 15.6420518 -0.0000000
1.3607776 15.6606949 -0.0000000
1.4115854 15.6594677 -0.0000000
1.3587220 15.6458902 -0.0000000
1.5491899 15.7140040 -0.0000000
1.5642679 15.7712223 -0.0000000
1.5879345 15.7440323 -0.0000000
1.6247307 15.7989397 0.0000000
1.5858285 15.8085261 0.0000000
1.5218905 15.7224357 -0.0000000
1.4994732 15.7087481 -0.0000000
1.5178917 15.7392066 -0.0000000
4.2361080 15.0399610 -0.0000000
4.3370715 15.0882972 -0.0000000
4.2482140 15.1748276 -0.0000000
4.2159895 15.1301897 -0.0000000
4.2238639 15.1231865 -0.0000000
4.3903033 15.4322443 -0.0000000
4.4522278 15.4236732 -0.0000000
4.5628688 15.8383653 -0.0000000
4.5280045 15.8142475 -0.0000000
4.4921308 15.8166446 -0.0000000
4.5346407 15.8700558 -0.0000000
4.1082824 15.5020039 -0.0000000
4.0653783 15.4839290 -0.0000000
4.0670989 15.4661516 -0.0000000
4.1306794 15.5992685 -0.0000000
4.1453754 15.6524243 -0.0000000
4.1639076 15.6778909 -0.0000000
4.1197404 15.6674842 -0.0000000
4.1797514 15.7015547 -0.0000000
4.1719963 15.6901157 -0.0000000
4.1310515 15.7283149 -0.0000000
0.0000007 15.4167693 -0.4241167
0.0000611 15.3889036 -0.4709172
0.0000028 15.3502846 -0.5601584
0.0000045 15.3241958 -0.4778443
0.0000146 15.3363707 -0.4774771
-0.0000004 14.9503070 -0.0947019
-0.0000001 15.0204958 -0.1165895
-0.0000006 14.9684524 -0.0897870
0.0041974 14.9050372 -0.0001699
-0.0000000 14.9150521 -0.0336022
0.0000372 14.9433562 -0.0280712
0.0000841 14.9781801 -0.0322297
-0.0000000 14.8885886 -0.0216468
-0.0000000 14.8369885 -0.0158429
1.6311326 13.6486164 -2.4066145
1.6274904 13.6615479 -2.4088944
1.5987148 13.6030418 -2.3985806
1.6194745 13.6182501 -2.4012614
1.5621095 13.6137182 -2.4004643
1.4933763 13.6393883 -2.4049930
1.5395542 13.6407294 -2.4052277
4.0213976 17.0227156 -0.0000000
4.0065266 16.9760741 -0.0000000
4.0060000 16.9594594 -0.0000000
3.8066071 17.3920672 -0.0000000
3.8117893 17.3728810 -0.0000000
3.8232640 17.2662533 -0.0000000
3.7999295 17.2628822 -0.0000000
3.8740214 17.3097618 -0.0000000
3.8666134 17.3233073 -0.0000000
3.8852010 17.3082730 -0.0000000
3.9724349 17.2977943 -0.0000000
3.8856559 17.2323721 -0.0000000
3.8973994 17.2504077 -0.0000000
3.8681034 17.2722874 -0.0000000
3.9516926 17.1814700 -0.0000000
3.9430520 17.1266006 -0.0000000
3.8994145 17.1263141 -0.0000000
3.9977864 17.1552130 -0.0000000
3.9231804 17.1082965 -0.0000000
3.9129168 17.2390495 -0.0000000
3.9361721 17.2227961 -0.0000000
3.9643496 17.1955029 -0.0000000
4.0222621 17.0272223 -0.0000000
4.0529691 17.0711435 -0.0000000
4.0511921 17.0578502 -0.0000000
4.1215228 17.0207249 -0.0000000
4.1186153 17.0387520 -0.0000000
4.1333359 17.0989861 -0.0000000
4.1386385 17.1437260 -0.0000000
4.0777152 17.1538546 -0.0000000
1.9143801 14.8337299 -2.6155911
1.9441969 14.8954296 -2.6264692
1.8260501 14.7594935 -2.6024971
1.8551238 14.7630626 -2.6031254
1.8068858 14.8143303 -2.6121691
1.8143267 14.8004439 -2.6097199
1.9051251 14.8082140 -2.6110900
1.9022289 14.7871350 -2.6073707
3.9763476 16.8982923 -0.0000000
3.9749854 16.8954518 -0.0000000
4.0351448 16.9244048 -0.0000000
1.4936673 14.2642113 -2.5151605
1.4727253 14.2518748 -2.5129854
1.4648682 14.3107530 -2.5233661
1.4565186 14.3174993 -2.5245555
1.5531145 14.2037199 -2.5044983
1.5570771 14.2275573 -2.5087009
1.3900957 14.2603015 -2.5144736
1.3788902 14.2825154 -2.5183913
1.4376169 14.2053665 -2.5047853
1.3833045 14.1860879 -2.5013883
2.4279401 13.3272577 -1.0293072
2.4279390 13.2787461 -1.0020802
0.0000000 14.8994077 -0.4729487
0.0000000 14.9280918 -0.5773475
0.0000000 14.8963303 -0.5474758
-0.0000000 15.1005197 -0.5902933
-0.0000000 15.1181635 -0.6711595
-0.0000000 15.0505135 -0.6068767
-0.0000000 15.0324196 -0.6301950
1.0392911 14.3138900 -2.5239263
1.0349701 14.4133014 -2.5414509
1.0865204 14.3757578 -2.5348315
1.0668387 14.4397965 -2.5461195
1.0759468 14.4251593 -2.5435388
1.1733580 14.2341282 -2.5098642
1.1812973 14.2213833 -2.5076159
1.1155932 14.2871475 -2.5192129
1.1101079 14.2710126 -2.5163648
1.2083123 14.2847097 -2.5187814
1.1965851 14.2907712 -2.5198506
1.4616831 13.3538413 -0.0000003
1.4340071 13.3516513 -0.0000004
1.4253353 13.2959997 -0.0000014
1.4024656 13.2668782 -0.0000094
1.4355594 13.3191058 -0.0000005
1.4840241 13.3191643 -0.0000001
1.4277232 13.1553175 -0.0000008
1.4096103 13.2072030 -0.0000117
1.4864100 13.2164485 -0.0000000
1.5447379 13.2209785 -0.0000000
1.5192605 13.2201896 -0.0000000
1.4418172 13.2397418 -0.0000078
1.4532768 13.2207107 -0.0000061
1.6351691 13.1418380 -0.0000000
1.5890407 13.1952381 -0.0000000
1.5872682 13.1568229 -0.0000000
1.5146786 13.1637664 -0.0000000
1.5366865 13.0998196 -0.0000000
1.5358748 13.0991119 -0.0000000
1.5451439 13.1167679 -0.0000000
1.6214374 13.1040887 0.0000000
1.6245926 13.0751264 0.0000000
0.0000001 15.3046088 -0.2145751
-0.0000000 15.2231572 -0.3797829
-0.0000000 15.1719167 -0.3459377
-0.0000000 15.1626567 -0.3547970
-0.0000000 15.1568941 -0.3511436
-0.0000000 15.1714328 -0.3264113
0.0000167 15.3649986 -0.3243599
-0.0000000 15.2963365 -0.4971503
-0.0000000 15.2830312 -0.5087605
-0.0000000 15.0354500 -0.5088640
-0.0000000 15.0524691 -0.5529935
-0.0000000 15.0435062 -0.5732249
-0.0000000 15.1794494 -0.4887679
-0.0000000 15.1029447 -0.5265461
-0.0000000 15.1023666 -0.5595061
-0.0000000 15.1366208 -0.5297448
-0.0000000 15.1951138 -0.5763758
-0.0000000 15.2308828 -0.6036931
-0.0000000 15.1348226 -0.6092124
-0.0000000 15.1348743 -0.6118058
-0.0000000 15.2018370 -0.6555892
-0.0000000 15.2084433 -0.6263533
4.3256645 14.6390078 -0.0000000
4.2951821 14.6385566 -0.0000000
4.2905679 14.6209240 -0.0000000
4.2284142 14.7299503 -0.0000000
4.2109558 14.7395482 -0.0000000
4.4135492 14.5741745 -0.0000000
4.3955917 14.5386787 -0.0000000
4.4202905 14.5431659 -0.0000000
4.2987216 14.5604359 -0.0000000
4.3653059 14.5009476 -0.0000000
4.3561400 14.5357159 -0.0000000
4.3366578 14.5220695 -0.0000000
4.2782795 14.7417824 -0.0000000
4.3120870 14.6636117 -0.0000000
4.4059528 14.8786728 -0.0000000
4.3800333 14.8795357 -0.0000000
4.3496394 14.8681330 -0.0000000
4.3049425 14.7844337 -0.0000000
4.3278529 14.7918046 -0.0000000
4.3834663 14.6423259 -0.0000000
4.4018569 14.6172139 -0.0000000
4.4131029 14.6884000 -0.0000000
4.3898156 14.6842207 -0.0000000
4.3506790 14.7027730 -0.0000000
4.2745023 14.5785565 -0.0000000
4.3328673 14.5825476 -0.0000000
4.3482458 14.7436562 -0.0000000
4.3395682 14.7665851 -0.0000000
4.3885350 14.7268609 -0.0000000
3.9649394 16.9887493 -0.0000000
3.9526204 16.9926957 -0.0000000
3.9576790 16.9721085 -0.0000000
3.9505735 17.0673425 -0.0000000
3.9909606 17.0823060 -0.0000000
3.9939665 17.0780551 -0.0000000
3.9605676 17.0764105 -0.0000000
4.0550441 16.9896409 -0.0000000
2.4734372 15.8788473 -0.0000000
2.4252489 15.8872892 -0.0000000
2.3224816 15.9546020 -0.0000000
2.3157355 15.9141480 -0.0000000
2.3192729 15.8749793 -0.0000000
2.4377872 16.0062219 -0.0000000
2.4431784 16.0038541 -0.0000000
2.3206862 16.0297855 -0.0000000
2.3512899 16.0797039 -0.0000000
2.3407448 16.0485624 -0.0000000
2.3232500 16.0525276 -0.0000000
2.4110889 16.0148294 -0.0000000
2.4213963 15.9764799 -0.0000000
2.4229268 15.9820096 -0.0000000
2.3989939 15.9131156 -0.0000000
2.3659218 15.9392269 -0.0000000
2.2392102 15.9625401 -0.0000000
2.2169095 15.9143248 -0.0000000
2.2429384 15.8993540 -0.0000000
2.2783191 15.9539665 -0.0000000
2.2579659 15.9067312 -0.0000000
2.1694003 15.9726731 -0.0000000
2.1841042 15.9766343 -0.0000000
2.2325292 16.0431604 -0.0000000
2.1979683 16.0115069 -0.0000000
2.2851460 16.0127927 -0.0000000
2.2339170 16.0276416 -0.0000000
2.1886523 16.0640438 -0.0000000
2.2034307 16.0450145 -0.0000000
2.2641524 16.0636711 -0.0000000
2.3159883 16.0342117 -0.0000000
2.2444679 16.1196253 -0.0000000
2.2021036 16.0960816 -0.0000000
2.2328693 16.1142639 -0.0000000
2.3499312 15.9985224 -0.0000000
2.3468612 16.0332676 -0.0000000
2.3098601 15.9955413 -0.0000000
2.4279002 13.2222430 -0.1859898
2.4279002 13.2252928 -0.1842922
2.4279052 13.2735556 -0.1756758
2.4279193 13.2944613 -0.1866712
2.4278999 13.2437359 -0.5850810
2.4278997 13.2757428 -0.5462723
2.4279311 13.3595356 -0.4734701
2.4279428 13.3561757 -0.4485704
2.4279000 13.2313259 -0.4417035
2.4278998 13.2354408 -0.4580155
2.4279279 13.3611454 -0.4149336
2.4278999 13.3782046 -0.3994802
2.4279087 13.2819877 -0.4443595
2.4279121 13.2882528 -0.4379061
2.4278999 13.2562036 -0.2721869
2.4278999 13.2990743 -0.2572885
2.4279393 13.3480546 -0.3621638
2.4279182 13.3079956 -0.3949152
2.4279035 13.2630081 -0.3661239
2.4279122 13.2824864 -0.3416378
2.4279270 13.3422666 -0.3373440
2.4279104 13.3238891 -0.3071820
2.4279872 13.3711922 -0.3566458
2.4279516 13.3693962 -0.3291375
2.4278999 13.3802442 -0.3234983
0.1564402 15.1395505 -0.0000037
0.1422322 15.1470106 -0.0000062
0.1218555 15.1448238 -0.0000075
0.2304288 15.0548255 0.0000000
0.2492421 15.1124804 0.0000000
0.2572345 15.1175383 0.0000000
0.3769219 14.9953106 -0.0000000
0.2699944 15.0618609 0.0000000
0.3321789 15.0767810 -0.0000000
0.2958538 15.0568442 0.0000000
0.3519327 15.0778617 -0.0000000
0.3773455 15.0440793 -0.0000000
0.4033848 15.0079816 -0.0000000
0.4139532 15.0166113 -0.0000000
0.4580707 14.9492020 0.0000000
0.4302411 14.9924173 0.0000000
0.4359603 14.9464201 0.0000000
0.4373042 14.9477357 0.0000000
0.5173722 14.8159853 -0.0000000
0.5166078 14.8366293 0.0000000
0.4871836 14.8223078 0.0000000
0.4565328 14.8446866 -0.0000001
0.4373842 14.7801344 -0.0000009
0.4715026 14.7959119 -0.0000022
0.4686060 14.7639039 -0.0000040
0.1853200 15.0980617 0.0000000
0.2205787 15.0616267 0.0000000
0.2807477 14.9571353 -0.0000000
0.3168456 14.8716305 -0.0000000
0.3350695 14.9414863 -0.0000000
0.3235969 14.9271028 -0.0000000
0.3655552 14.8903721 0.0000000
0.3979958 14.9136000 0.0000000
0.3551813 14.9047917 0.0000000
0.3956932 14.9499865 0.0000000
0.1525783 14.7487000 -0.0000006
0.2021300 14.8367895 -0.0000000
0.1676695 14.7895759 -0.0000008
0.1836985 14.8106663 -0.0000004
0.1457854 14.9843286 -0.0000000
0.0978654 15.0343511 -0.0000008
0.1284597 15.0440402 -0.0000001
0.1728419 15.0387687 0.0000000
0.1698908 15.0519058 0.0000000
0.1575657 15.0751021 0.0000000
0.4271524 14.8023387 -0.0000006
0.4186490 14.7819288 -0.0000010
0.2948887 15.0000100 0.0000000
0.2806168 15.0022488 0.0000000
0.2885479 15.0247432 0.0000000
0.2543525 14.8962437 -0.0000000
0.2849316 14.8905356 -0.0000000
0.3645720 14.8348529 0.0000000
0.3641155 14.8449235 0.0000000
0.1587775 14.8971204 -0.0000000
0.0935895 14.8764111 -0.0000004
0.1127145 14.8127231 -0.0000005
0.1412660 14.8346087 -0.0000002
0.1460980 14.8758944 -0.0000000
0.1300130 14.9355912 -0.0000004
0.1222364 14.9542496 -0.0000005
0.2488522 14.7744863 -0.0000013
0.2958299 14.8177181 -0.0000008
0.1922887 14.8873753 -0.0000000
0.2007910 14.9649968 -0.0000000
0.1973163 15.0159777 -0.0000000
0.2147253 14.9106939 -0.0000000
0.2055472 14.9575458 -0.0000000
0.1700838 14.9635969 -0.0000000
0.2298245 15.0416070 0.0000000
0.2207301 15.0088571 0.0000000
0.2552331 14.9046278 -0.0000000
0.2379636 14.8150726 -0.0000006
0.2466431 14.8339071 -0.0000003
0.3110800 14.8191110 -0.0000006
0.3174506 14.7749726 -0.0000010
0.2105835 14.8440602 -0.0000000
3.3873275 14.5477396 -0.0000000
3.4124395 14.6269260 -0.0000000
3.4147482 14.6337916 -0.0000000
3.4523645 14.5265855 -0.0000000
3.4382185 14.5604548 -0.0000000
3.5120776 14.5691925 -0.0000000
3.5063861 14.5687265 -0.0000000
3.3867113 14.4960446 -0.0000000
3.4306409 14.4978086 -0.0000000
3.3155148 14.5754819 -0.0000000
3.3653045 14.5217904 -0.0000000
3.3628650 14.5085085 -0.0000000
3.2145632 14.7089412 -0.0000000
3.1454191 14.7459417 -0.0000000
3.1689141 14.6829967 -0.0000000
3.1489292 14.7091855 -0.0000000
3.2449829 14.4985057 -0.0000000
3.2302011 14.4450222 -0.0000000
3.2181741 14.4541752 -0.0000000
3.2197475 14.5837445 -0.0000000
3.2399898 14.5595761 -0.0000000
3.2655255 14.5312784 -0.0000000
3.1234917 14.6025993 -0.0000000
3.1344948 14.5665258 -0.0000000
3.0755432 14.5563312 -0.0000000
3.0886740 14.5115741 -0.0000000
3.1012066 14.5292728 -0.0000000
3.1629018 14.5726523 -0.0000000
3.1557035 14.5037206 -0.0000000
3.1934156 14.5945478 -0.0000000
3.1975540 14.5144744 -0.0000000
3.2126106 14.5125012 -0.0000000
3.2016892 14.6458650 -0.0000000
3.1985619 14.6027362 -0.0000000
3.2171947 14.6462683 -0.0000000
3.2588109 14.6347348 -0.0000000
3.2527101 14.6178091 -0.0000000
3.2722627 14.6420690 -0.0000000
3.3561791 14.6683668 -0.0000000
3.3606537 14.7044785 -0.0000000
3.3312167 14.7020217 -0.0000000
3.2880262 14.6761129 -0.0000000
3.3188748 14.6211752 -0.0000000
3.3022237 14.6128549 -0.0000000
3.2838813 14.4626880 -0.0000000
3.2907185 14.4267854 -0.0000000
3.2838441 14.4648204 -0.0000000
3.3022469 14.5480357 -0.0000000
3.2757867 14.5214079 -0.0000000
3.3088081 14.5030749 -0.0000000
3.3693087 14.5952273 -0.0000000
3.3339064 14.5931971 -0.0000000
3.4162098 16.7307199 -0.0000000
3.4274843 16.7479271 -0.0000000
3.5182185 16.7883911 -0.0000000
3.6558541 16.8788493 -0.0000000
3.6444885 16.9015138 -0.0000000
3.5759659 16.8178213 -0.0000000
3.6081978 16.8194087 -0.0000000
3.9699490 17.6911707 0.0000007
4.0952831 17.7518080 -0.0001932
4.1079426 17.5787344 0.0000000
4.1300654 17.5641120 0.0000000
4.0987256 17.5769472 0.0000000
4.1662718 17.5870168 0.0000000
4.1499627 17.6245149 0.0000000
4.1721084 17.5641859 0.0000000
4.8279001 14.7224933 -0.7228273
4.8279001 14.7100425 -0.7344269
4.8279001 14.6160097 -0.6672709
4.8279001 14.6493261 -0.7506792
4.8279001 14.6069991 -0.7249915
4.8279001 14.6918803 -0.5341214
4.8279001 14.6995798 -0.5259287
4.8279001 14.5646020 -0.4687414
4.8279001 14.5674150 -0.5197309
4.8279001 14.5765495 -0.4682399
4.8279001 14.6486265 -0.6177695
4.8279001 14.6664954 -0.6164054
4.8279001 14.6688194 -0.6577045
4.8279001 14.6748050 -0.7343523
4.8279001 14.6646341 -0.6985220
4.8279001 14.7084420 -0.6280773
4.8279001 14.6520538 -0.5777983
2.8565030 14.0980237 -2.4858883
2.8393442 14.1823740 -2.5007317
2.8790787 14.1615822 -2.4970484
2.8419062 14.0947872 -2.4852850
2.4016610 13.3356863 -0.0000000
2.3414176 13.3202229 -0.0000010
2.3864713 13.2691462 -0.0000010
2.3097095 13.2547191 -0.0000000
2.3606515 13.2932405 -0.0000009
2.3831043 13.3479752 0.0000000
2.3300529 13.1880017 -0.0000011
2.3061662 13.2285156 -0.0000000
2.2550771 13.2760588 -0.0000000
2.2764440 13.2756345 -0.0000000
2.2883090 13.3112853 -0.0000002
2.3007408 13.2944082 -0.0000002
2.3107711 13.3863187 0.0000004
2.3252796 13.3312339 -0.0000007
2.2204586 13.1861914 -0.0000000
2.2101609 13.1972384 -0.0000000
2.2605683 13.1727810 -0.0000000
2.2914012 13.2078094 -0.0000000
2.2822608 13.2093508 -0.0000000
1.5348162 13.3322986 -0.0000000
1.5700274 13.2890910 -0.0000000
1.6519240 13.3247298 -0.0000000
1.6595626 13.3428827 -0.0000000
1.6348968 13.2927107 -0.0000000
1.5943748 13.3070844 -0.0000000
1.6975966 13.0938677 0.0000000
1.6946071 13.0843894 0.0000000
1.7125525 13.0956660 0.0000000
1.7108202 13.1706889 -0.0000000
1.6978148 13.1635501 -0.0000000
1.7051792 13.1254992 -0.0000000
1.7266700 13.1460872 -0.0000000
1.7208171 13.2323439 -0.0000000
1.6893650 13.2291416 -0.0000000
1.6373035 13.2202394 -0.0000000
1.6199920 13.1857253 -0.0000000
1.6462830 13.2054528 -0.0000000
3.9974074 17.6562226 0.0000002
4.7958744 15.0808899 -0.0000031
4.7344236 15.0493412 -0.0000018
4.7421885 15.0289084 -0.0000026
4.8240992 15.4544563 -0.0001895
4.8240992 15.4421305 -0.0001895
4.8240992 15.4298058 -0.0001895
4.8240992 15.4174811 -0.0001895
4.7993939 15.4156617 -0.0000030
4.8240992 15.4051553 -0.0001895
4.8209494 15.3885184 -0.0002194
4.8056781 15.3610399 -0.0000321
4.8278288 15.3778024 -0.0021748
4.7606460 15.4021270 -0.0000014
4.8278320 15.4213623 -0.0288076
4.8279001 15.4414623 -0.0123199
4.8278682 15.3833306 -0.0214321
4.8239098 15.1005505 -0.0002869
4.8239098 15.1128753 -0.0002869
4.8275666 15.1269895 -0.0037299
4.8239098 15.1375258 -0.0002869
4.8239098 15.1498505 -0.0002869
4.8239098 15.1621762 -0.0002869
4.8239109 15.1744956 -0.0002870
4.8278999 15.1889000 0.0000000
4.7958488 15.1063480 -0.0000047
4.8094200 15.1272938 -0.0000000
4.7861973 15.1443733 -0.0000030
4.7959797 15.1778928 -0.0000032
4.6759469 15.1156923 -0.0000000
4.7059331 15.1133815 -0.0000000
4.6154924 15.1259042 0.0000000
4.6223864 15.1252667 0.0000000
4.7178161 15.1939881 -0.0000000
4.7010634 15.1539188 -0.0000000
4.5456453 15.1916865 -0.0000000
4.5864142 15.2429656 -0.0000000
4.5999839 15.2073968 -0.0000000
4.5936526 15.3471478 -0.0000000
4.5978215 15.3281482 -0.0000000
4.8278999 15.3121252 0.0000000
4.8176198 15.3261596 -0.0001040
4.8278999 15.3367500 0.0000000
4.8277959 15.3592206 -0.0114037
4.8278595 15.3345362 -0.0753229
4.8278999 15.3613749 0.0000000
4.8278999 15.3736873 0.0000000
4.8279001 15.2665964 -0.1030346
4.8278485 15.2557947 -0.0062279
4.8225341 15.2504346 -0.0001779
4.8275176 15.2396462 -0.0040258
4.8278999 15.2135501 0.0000000
4.8278999 15.2012250 0.0000000
4.7962654 15.2063522 -0.0000062
4.7297404 15.1282245 -0.0000005
4.7486969 15.1422880 -0.0000014
4.8103440 15.2196270 -0.0000000
4.7649525 15.2481428 -0.0000005
4.6846743 15.2730870 -0.0000000
4.7279174 15.2146049 -0.0000001
4.7533230 15.2871406 -0.0000000
4.6205302 15.3243158 -0.0000000
4.6359263 15.2926016 -0.0000000
4.7009718 15.2834780 -0.0000000
4.6575056 15.2344228 0.0000000
4.6587802 15.2295248 0.0000000
4.7057752 15.2136026 -0.0000000
4.6956341 15.3247578 -0.0000001
4.6697419 15.3297528 -0.0000000
4.7919404 15.3026933 -0.0000000
4.2933090 17.1676509 -0.0000000
4.2823700 17.1820084 -0.0000000
4.4097558 17.1864381 -0.0000000
4.3845864 17.1681006 -0.0000000
4.4022826 17.1518489 -0.0000000
4.3515312 17.1399644 -0.0000000
4.3991035 17.1229933 -0.0000000
4.3686367 17.1622866 -0.0000000
4.3891875 17.0070011 -0.0000000
4.4033632 17.0667128 -0.0000000
4.3993638 17.0280343 -0.0000000
4.4019405 16.9913128 -0.0000000
4.2781138 17.0013402 -0.0000000
4.2677053 17.0393332 -0.0000000
4.2821735 17.0471758 -0.0000000
3.4664357 16.1390801 -0.0000000
3.4828638 16.0672826 -0.0000000
3.4863859 16.0961779 -0.0000000
3.4201466 16.1301941 -0.0000000
3.4004311 16.1157930 -0.0000000
3.4654633 16.0974512 -0.0000000
3.4379956 16.1151971 -0.0000000
3.5238241 16.1354222 -0.0000000
3.5630705 16.1811770 -0.0000000
3.5451423 16.1632375 -0.0000000
3.5317752 16.1868304 -0.0000000
3.5709974 16.1502154 -0.0000000
3.5088369 16.1998881 -0.0000000
3.4747086 16.2007727 -0.0000000
3.5140698 16.1814663 -0.0000000
3.5087466 16.2515318 -0.0000000
3.4584750 16.2116347 -0.0000000
3.4516083 16.2067955 -0.0000000
4.2558260 16.2212506 -0.0000000
4.3323702 16.1466071 -0.0000000
4.3216960 16.1663790 -0.0000000
4.1745370 16.0854829 -0.0000000
4.2473812 16.0822732 -0.0000000
4.2189427 16.0902043 -0.0000000
4.2349823 16.0580781 -0.0000000
4.2421059 16.0557981 -0.0000000
3.9346727 16.3376970 -0.0000000
3.9177938 16.3849189 -0.0000000
4.1850650 16.4985173 -0.0000000
4.1803660 16.5969460 -0.0000000
4.1990981 16.5897561 -0.0000000
4.1184173 16.5030316 -0.0000000
4.1359968 16.5097106 -0.0000000
4.1278302 16.5373565 -0.0000000
4.2272336 15.9454183 -0.0000000
4.2599614 15.9473127 -0.0000000
3.8026878 15.7063580 -0.0000000
3.8113209 15.6999814 -0.0000000
3.8277958 15.7155443 -0.0000000
4.2406712 16.4897731 -0.0000000
4.2640780 16.4994164 -0.0000000
4.2107301 16.5433213 -0.0000000
3.8733372 16.0836998 -0.0000000
3.8218817 16.0955411 -0.0000000
3.8132279 16.0844122 -0.0000000
3.8341669 16.2079184 -0.0000000
3.8608764 16.1705984 -0.0000000
3.8442793 16.1593694 -0.0000000
3.9507519 15.7002738 -0.0000000
3.9519710 15.7002716 -0.0000000
3.9012326 15.7331892 -0.0000000
3.8647784 15.7447403 -0.0000000
3.9230933 15.7518427 -0.0000000
4.2932119 16.3210899 -0.0000000
4.3891309 16.3868636 -0.0000000
4.3938019 16.3920150 -0.0000000
4.3848082 16.3296753 -0.0000000
4.4341038 16.3388138 -0.0000000
4.3839922 16.3483943 -0.0000000
4.3137632 16.2347477 -0.0000000
4.3092079 16.2042081 -0.0000000
4.3436745 16.1883074 -0.0000000
4.1222666 15.9950404 -0.0000000
4.1960112 16.0253823 -0.0000000
4.1733314 16.0315097 -0.0000000
4.1240968 15.8312729 -0.0000000
4.1921764 15.8363531 -0.0000000
4.1985852 15.8176382 -0.0000000
4.1995465 15.8411929 -0.0000000
4.1436032 15.9388876 -0.0000000
4.1639839 15.9067211 -0.0000000
4.1573352 15.8645087 -0.0000000
3.9568551 16.5208977 -0.0000000
3.7363043 16.0041570 -0.0000000
3.7203883 16.0107655 -0.0000000
3.8857075 16.3197865 -0.0000000
3.8756339 16.3034334 -0.0000000
3.9469168 16.2562458 -0.0000000
3.9146301 16.2925061 -0.0000000
4.1395512 15.7699124 -0.0000000
4.1779808 15.7868601 -0.0000000
4.1569044 15.7578794 -0.0000000
4.0199810 16.3191887 -0.0000000
4.0060022 16.3850686 -0.0000000
4.0487696 16.4097733 -0.0000000
4.0374580 16.3859934 -0.0000000
4.0241444 16.4301285 -0.0000000
3.9882212 16.3358612 -0.0000000
3.9482251 16.3857624 -0.0000000
3.9798832 16.2882533 -0.0000000
3.9756896 16.2953126 -0.0000000
3.7790533 15.7749783 -0.0000000
3.7866461 15.7938829 -0.0000000
3.8482627 15.9095515 -0.0000000
3.8370601 15.8486469 -0.0000000
3.8093596 15.8786409 -0.0000000
3.8079379 15.8327692 -0.0000000
4.2155866 16.4041615 -0.0000000
4.1495934 16.3397025 -0.0000000
4.1390985 16.4397042 -0.0000000
4.1653401 16.4181994 -0.0000000
4.1232567 16.3981184 -0.0000000
4.1860034 16.4526032 -0.0000000
4.1884971 16.4572897 -0.0000000
4.2869108 16.4680820 -0.0000000
4.1981103 16.4835920 -0.0000000
4.2456737 16.4511660 -0.0000000
4.2889645 16.3894302 -0.0000000
4.2612197 16.4011038 -0.0000000
4.2672613 16.3536617 -0.0000000
3.9283414 16.1929188 -0.0000000
3.8962012 16.1998644 -0.0000000
3.8882584 16.1953897 -0.0000000
3.9097568 16.2417926 -0.0000000
4.2133329 15.9514993 -0.0000000
4.1713856 15.9487536 -0.0000000
4.1812731 15.9849041 -0.0000000
3.9891391 15.8944137 -0.0000000
3.8921187 15.8228688 -0.0000000
3.9032325 15.8309349 -0.0000000
3.8726670 15.8630989 -0.0000000
3.9076517 15.8978185 -0.0000000
3.9311669 15.8510233 -0.0000000
3.9249386 15.8007871 -0.0000000
3.9358028 15.8088340 -0.0000000
3.9619178 15.8261867 -0.0000000
4.3023374 16.2614079 -0.0000000
4.3039938 16.2551608 -0.0000000
4.1896245 16.1741977 -0.0000000
4.2015466 16.1524347 -0.0000000
4.0458635 16.2109282 -0.0000000
3.9876891 16.2843511 -0.0000000
4.0160609 16.2593634 -0.0000000
4.0679318 16.3777420 -0.0000000
4.0897105 16.3770290 -0.0000000
4.0747787 16.3364244 -0.0000000
4.0294204 16.3328746 -0.0000000
4.0857310 15.8752761 -0.0000000
4.0493222 15.8689185 -0.0000000
4.1019973 15.8809001 -0.0000000
4.0750851 15.9095399 -0.0000000
2.1041944 13.0856065 -0.0000000
2.1783209 13.0532347 -0.0000000
2.1499069 13.0801357 -0.0000000
2.0869272 13.0178227 -0.0000000
2.0903615 13.0092883 -0.0000000
2.1290554 13.0322794 -0.0000000
1.9841468 13.0263538 -0.0000000
1.9965197 13.0054349 -0.0000000
1.9778873 12.9927234 -0.0000000
2.0186742 13.1305421 -0.0000000
2.0444419 13.1774980 -0.0000000
2.0758389 13.1870489 -0.0000000
1.9926963 13.1743236 -0.0000000
1.9702435 13.1574235 -0.0000000
1.9650456 13.1440117 -0.0000000
2.0512121 13.1183828 -0.0000000
2.0891391 13.1620659 -0.0000000
2.1328321 13.1493103 -0.0000000
2.1556404 13.1346020 -0.0000000
2.0571910 13.0263372 -0.0000000
2.0378011 13.0788359 -0.0000000
2.0151911 13.0913505 -0.0000000
1.9784449 13.1110838 -0.0000000
2.0234894 13.0984011 -0.0000000
2.0499212 12.7294435 -1.3415007
2.0561618 12.7260080 -1.3735145
2.0149231 12.7238370 -1.3933507
0.0000000 14.7904074 -0.2927425
0.0000000 14.7940469 -0.2599314
-0.0000000 14.7489977 -0.4538020
-0.0000000 14.7995056 -0.4380421
-0.0000000 14.8332007 -0.4235143
-0.0000000 14.8573987 -0.4148521
-0.0000000 14.8261032 -0.4024365
-0.0000000 14.8265016 -0.3298879
-0.0000000 14.7659072 -0.3246166
4.8279001 17.3809824 -0.2338077
4.8279001 17.3251253 -0.2409921
4.8279001 17.3195416 -0.2033079
4.5970204 17.2827751 -0.0000000
4.5632212 17.2918552 -0.0000000
4.5805576 17.2957293 -0.0000000
4.5707059 17.1379479 -0.0000000
4.5934220 17.1114083 -0.0000000
4.8278999 17.1847258 0.0000000
4.8278522 17.2038040 -0.0047843
4.8278999 17.1970382 0.0000000
4.8278969 17.2836582 -0.0478041
4.8278983 17.2576337 -0.0574691
4.8275176 17.2231050 -0.0040216
4.8278804 17.2355372 -0.0052115
4.8278999 17.2339754 0.0000000
4.8275176 17.2600408 -0.0040195
4.7865670 17.2007356 -0.0000249
4.7725407 17.1673463 -0.0000970
4.7797195 17.2266543 -0.0000036
4.8133853 17.2497738 -0.0000000
4.6359871 17.1790910 -0.0000000
4.6615907 17.1851653 -0.0000000
4.8278991 17.5580979 -0.0982893
4.8279000 17.5449197 -0.1165846
4.8279001 17.4726432 -0.0336135
4.8279001 17.5000354 -0.0734144
4.8279001 17.5828984 -0.1444344
4.8278996 17.4467703 -0.0926796
4.8278998 17.4691739 -0.1020767
4.8279000 17.4454350 -0.1556022
4.8278985 17.3670043 -0.0769901
4.8278987 17.3516343 -0.1422633
4.8278982 17.3373150 -0.1104271
4.8278997 17.3221589 -0.1804339
4.8278986 17.3070772 -0.1330782
4.8278991 17.3379968 -0.1611579
4.7905940 17.4376353 -0.0000000
4.7405683 17.4504773 0.0000000
4.7889529 17.4098110 -0.0000011
4.8278997 17.4575759 -0.0906811
4.7373967 17.1829393 -0.0000099
4.7403311 17.1608504 -0.0000075
4.8244960 17.2680874 -0.0004817
4.8037896 17.2560021 -0.0000000
4.7470862 17.2775725 -0.0000004
4.7219145 17.2439243 -0.0000005
4.5984431 17.2725927 -0.0000000
4.6377893 17.2578964 -0.0000000
4.6334635 17.2584009 -0.0000000
4.6282919 17.2629721 -0.0000000
4.8278999 17.4434743 0.0000000
4.8276081 17.4282194 -0.0056376
4.8278999 17.4188247 0.0000000
4.8278999 17.4064999 0.0000000
4.7742189 17.3379204 -0.0000241
4.7822862 17.3640253 -0.0000000
4.8238742 17.3927230 -0.0003801
4.8025804 17.3838178 -0.0000000
4.8278999 17.3818502 0.0000000
4.8275182 17.3709516 -0.0040102
4.8238747 17.3557457 -0.0003801
4.8216771 17.2897993 -0.0001921
4.8276932 17.3031827 -0.0045451
4.8276403 17.3249270 -0.0057209
4.8277560 17.3472639 -0.0063902
4.8277967 17.3486836 -0.0492844
4.8278999 17.3079004 0.0000000
4.8279001 17.3915569 -0.0199211
4.8278996 17.4231028 -0.0715885
4.8278991 17.3855207 -0.1237968
4.8278996 17.4215878 -0.1253480
4.6872958 17.2811063 -0.0000001
4.6827950 17.2747138 -0.0000001
4.6863498 17.2846287 -0.0000001
4.8122431 17.3121762 -0.0000000
4.7483921 17.3629487 -0.0000166
4.7099870 17.4106984 -0.0000043
4.6675741 17.3771319 -0.0000006
4.7090339 17.3210148 -0.0000067
4.7010792 17.3351044 -0.0000096
3.9602978 16.1064341 -0.0000000
3.9061428 16.1338371 -0.0000000
3.9393048 16.1419073 -0.0000000
3.9853376 16.2295910 -0.0000000
3.9967889 16.2283585 -0.0000000
3.7800033 15.9055189 -0.0000000
3.7563392 15.8966948 -0.0000000
3.7750980 15.9501194 -0.0000000
3.7626929 15.9803510 -0.0000000
3.8058540 15.9378004 -0.0000000
3.8963904 16.0049297 -0.0000000
3.8170665 16.0518416 -0.0000000
3.8143859 16.0431523 -0.0000000
3.8596362 16.0092073 -0.0000000
3.8603026 15.9466115 -0.0000000
3.8410616 16.0041305 -0.0000000
4.0404086 15.7610292 -0.0000000
4.0571504 15.7725641 -0.0000000
4.1059181 15.7886190 -0.0000000
4.0692549 15.7908633 -0.0000000
4.0113694 15.8571862 -0.0000000
4.0602701 15.8331749 -0.0000000
4.0346461 15.8192084 -0.0000000
4.0416093 15.8449360 -0.0000000
4.3116200 16.3914974 -0.0000000
4.3811981 16.4252506 -0.0000000
4.3273059 16.4413035 -0.0000000
4.3526124 16.4372118 -0.0000000
4.0339457 16.0152670 -0.0000000
4.0984373 16.0393980 -0.0000000
4.1120769 16.0318486 -0.0000000
3.9373799 16.0036639 -0.0000000
3.9646473 16.0026013 -0.0000000
4.0020741 15.9922401 -0.0000000
3.9295632 15.9941036 -0.0000000
3.8938770 15.9592276 -0.0000000
3.9113191 15.9118506 -0.0000000
3.9152433 15.9411046 -0.0000000
4.1606635 16.2677406 -0.0000000
4.0521577 16.2655125 -0.0000000
4.0802555 16.2502674 -0.0000000
4.0691285 16.2845187 -0.0000000
4.0944491 16.3073960 -0.0000000
4.1152082 16.3024401 -0.0000000
4.1915858 16.3433699 -0.0000000
4.2266453 16.3572017 -0.0000000
4.2190029 16.2986619 -0.0000000
4.2153670 16.3288724 -0.0000000
3.9138104 16.0706689 -0.0000000
3.9019385 16.0850200 -0.0000000
3.9537103 16.0478431 -0.0000000
3.9771538 16.0324110 -0.0000000
3.9493046 16.0101291 -0.0000000
3.9912800 16.1535620 -0.0000000
4.0029256 16.1886217 -0.0000000
4.0734029 16.1412219 -0.0000000
4.0049935 16.1379337 -0.0000000
4.0459899 16.1351844 -0.0000000
4.0324049 15.9605603 -0.0000000
4.0408788 15.9665566 -0.0000000
4.0227300 15.9422805 -0.0000000
4.0547890 15.9461781 -0.0000000
4.0912496 15.9931274 -0.0000000
4.1181584 16.1969948 -0.0000000
4.1576034 16.2081221 -0.0000000
4.2214359 16.1852168 -0.0000000
4.2627159 16.2978854 -0.0000000
4.2316514 16.2668439 -0.0000000
4.2730426 16.3006858 -0.0000000
4.2102531 16.2321753 -0.0000000
4.2382645 16.2199920 -0.0000000
4.0502435 16.1294064 -0.0000000
4.0388586 16.1199878 -0.0000000
4.0180690 16.0977025 -0.0000000
4.1693868 16.1552874 -0.0000000
4.1531454 16.1474114 -0.0000000
4.0808320 16.2068520 -0.0000000
4.1273819 16.1464605 -0.0000000
4.1164065 16.1633661 -0.0000000
4.0770846 16.1938371 -0.0000000
4.0729677 16.0441127 -0.0000000
4.0962877 16.0702210 -0.0000000
4.1073431 16.1049426 -0.0000000
3.1644038 16.8112339 -0.6612674
3.1884561 16.8198036 -0.6597559
3.1691159 16.7958324 -0.6639825
3.1553754 16.8158442 -0.6604548
3.2090169 16.7856409 -0.6657780
4.4078967 17.3489772 -0.0000000
4.4432194 17.3754004 -0.0000000
4.3232104 17.3643818 -0.0000000
4.3289207 17.3532876 -0.0000000
4.3660584 17.3715739 -0.0000000
4.1238856 17.4336410 -0.0000000
4.1173714 17.4460248 -0.0000000
4.2446424 17.4542498 -0.0000000
4.2176326 17.4735194 -0.0000000
4.1799867 17.4920921 -0.0000000
4.1440273 17.5271726 -0.0000000
4.1165071 17.5283158 0.0000000
4.3091103 17.5171619 -0.0000000
4.2999952 17.4951494 -0.0000000
4.2979588 17.4735334 -0.0000000
4.2875373 17.3884097 -0.0000000
4.2963706 17.3758997 -0.0000000
4.2683506 17.3659168 -0.0000000
4.2444816 17.3531312 -0.0000000
4.2098955 17.4108876 -0.0000000
4.1997936 17.3719233 -0.0000000
4.2025100 17.5188037 -0.0000000
4.2315624 17.5207499 -0.0000000
4.2195754 17.5050940 -0.0000000
4.1865453 17.4289339 -0.0000000
4.1795656 17.4473267 -0.0000000
2.4278999 13.1392835 -1.3963728
2.4278998 13.1628383 -1.4234361
2.4278999 13.1984012 -1.4241730
2.4278999 13.3069939 -1.4349475
2.4279534 13.2823742 -1.4460437
2.4278965 13.2598718 -1.4946281
2.4278987 13.2234613 -1.4913432
2.4279867 13.2798157 -1.5444817
2.0009573 13.6520008 -0.0000000
1.9770188 13.6138607 -0.0000000
1.9535593 13.5842424 -0.0000000
2.0722085 13.7168523 -0.0000000
2.0388653 13.6649165 -0.0000000
2.0453496 13.6417261 -0.0000000
2.0730975 13.7073183 -0.0000000
2.0657000 13.6121571 -0.0000000
1.9506739 13.7572949 -0.0000000
1.9886794 13.7231691 -0.0000000
2.0050794 13.7032870 -0.0000000
1.8943487 13.6596643 -0.0000000
1.8698964 13.6342015 -0.0000000
1.8736430 13.6336822 -0.0000000
1.9123530 13.6397603 -0.0000000
1.9721245 13.6260288 -0.0000000
1.8891778 13.6929966 -0.0000000
1.9704498 13.6906201 -0.0000000
1.9719169 13.6969497 -0.0000000
1.6311404 13.9218774 -0.0000000
1.6326226 13.9297646 -0.0000000
1.7126993 13.8798372 -0.0000000
1.7013977 13.8846561 -0.0000000
1.7993189 13.9823721 -0.0000000
1.7802545 13.9393073 -0.0000000
1.7323519 13.8950928 -0.0000000
1.7133680 13.9021076 -0.0000000
1.7564710 13.9442352 -0.0000000
1.8570341 13.8873449 -0.0000000
1.7959680 13.9148747 -0.0000000
1.8090822 13.8654295 -0.0000000
1.7874757 13.9021355 -0.0000000
1.7727870 14.0310734 -0.0000000
1.7707096 14.0295814 -0.0000000
1.6743357 14.0239541 -0.0000000
1.6678764 14.0353480 -0.0000000
1.7372126 13.9831683 -0.0000000
1.7243633 13.9806967 -0.0000000
2.3041947 13.4998365 -0.0000000
1.8299083 13.6659125 -0.0000000
1.8368929 13.6743296 -0.0000000
1.8606862 13.7667640 -0.0000000
1.9036223 13.7403265 -0.0000000
1.8533788 13.7198000 -0.0000000
1.8381716 13.7268801 -0.0000000
2.5580578 13.5786187 0.0000000
2.5619237 13.5553109 0.0000001
2.5722486 13.5677028 0.0000001
2.6404933 13.8500917 -0.0000000
2.6712986 13.8345637 -0.0000000
2.6893951 13.8742025 -0.0000000
2.6608120 13.8228531 -0.0000000
2.6415776 13.6783945 -0.0000000
2.6287216 13.7397490 -0.0000000
2.6642178 13.7565402 -0.0000000
2.6435772 13.8240261 -0.0000000
2.6276317 13.7839198 -0.0000000
2.6453457 13.8127006 -0.0000000
2.0451737 14.0844531 -0.0000000
2.0630529 14.1234480 -0.0000000
2.0760237 14.1130821 -0.0000000
2.0448764 14.1301672 -0.0000000
2.1782154 14.0258097 -0.0000000
2.1598383 14.0795669 -0.0000000
2.1494799 14.0661727 -0.0000000
2.1225088 14.0877207 -0.0000000
2.4934029 13.8778152 -0.0000000
2.5264784 13.9475608 -0.0000000
2.5046355 13.9313985 -0.0000000
2.4703273 13.9606254 -0.0000000
2.4591337 13.9718397 -0.0000000
1.7809487 13.7724420 -0.0000000
1.7863475 13.7466122 -0.0000000
1.7949849 13.7679468 -0.0000000
1.8635979 13.8535820 -0.0000000
1.8942783 13.8327816 -0.0000000
1.8138885 13.8305691 -0.0000000
1.8521820 13.8196498 -0.0000000
1.8184877 13.8293029 -0.0000000
1.9386778 13.8772098 -0.0000000
1.9012470 13.9910240 -0.0000000
1.8983176 13.9169876 -0.0000000
1.9151400 13.9344030 -0.0000000
2.2522959 13.6039531 -0.0000000
2.2166046 13.5542415 -0.0000000
2.2061334 13.5404930 -0.0000000
2.2558615 13.5043137 -0.0000000
2.2664895 13.5150306 -0.0000000
2.2806274 13.5426983 -0.0000000
2.3687362 13.6131104 0.0000000
2.3214366 13.5350085 -0.0000000
2.3293710 13.6049762 -0.0000000
2.3410894 13.5731911 -0.0000000
2.1726033 13.6908602 -0.0000000
2.1359109 13.6199118 -0.0000000
2.1970053 13.6281311 -0.0000000
2.2082009 13.6065419 -0.0000000
2.3161500 13.9721082 -0.0000000
2.4156825 13.9885713 -0.0000000
2.3616933 13.9981648 -0.0000000
2.4103476 14.0006536 -0.0000000
2.3938282 13.9026721 -0.0000000
2.4458657 13.9231610 -0.0000000
2.4407760 13.9328465 -0.0000000
2.0449092 13.8300591 -0.0000000
2.0298853 13.7776024 -0.0000000
2.0274243 13.7634008 -0.0000000
2.0202126 13.7758383 -0.0000000
1.9099896 13.8392838 -0.0000000
1.9077129 13.8580066 -0.0000000
