# .PCD v.5 - Point Cloud Data file format
VERSION .5
FIELDS x y z
SIZE 4 4 4
TYPE F F F
COUNT 1 1 1
WIDTH 1379
HEIGHT 1
POINTS 1379
DATA ascii
-120.6954494 -114.6977842 1.4056250
-120.6613183 -113.8042733 3.3126900
-120.6571311 -109.9972576 9.5869377
-120.6131876 -112.5303060 6.0400236
-119.8781729 -111.3200039 7.8355148
-119.6027249 -108.8572964 11.0971499
-119.4246784 -102.0158753 16.3380764
-119.3747744 -107.2284281 12.7501506
-119.0994307 -113.1860763 4.6866331
-118.8263819 -103.8341895 15.3839337
-118.5086593 -114.9235740 0.5296920
-118.4826717 -105.5408716 14.0719172
-118.4095740 -112.1511534 6.5465597
-118.2149202 -114.2156050 2.5091232
-118.0101484 -110.9391600 8.6637363
-117.8865507 -109.7106412 10.4565900
-117.6149473 -107.9283431 12.0528117
-116.7881936 -106.4974442 13.4653468
-116.5426522 -111.7798984 7.3770899
-116.5129840 -104.8103496 14.7873675
-116.3664386 -113.8017774 3.6400289
-116.3204461 -112.8676534 5.5367490
-116.2083447 -103.0108705 16.0756130
-116.0793900 -110.4457155 9.1317724
-115.8754379 -108.7052152 11.3830799
-115.7263517 -114.9244308 0.5310900
-114.8125827 -114.3245250 2.2332233
-114.7382036 -107.2858870 12.8005138
-114.4724116 -103.8342714 15.4184559
-114.4692227 -113.3282855 4.4294088
-114.4678146 -105.6287810 14.1322482
-114.4572571 -109.7427458 10.1649892
-114.3613234 -111.4034504 8.2085477
-113.8192415 -112.4538332 6.3527287
-113.3611128 -108.4823981 11.6373440
-112.9255891 -102.1790951 16.4514706
-112.9251197 -113.8960049 3.0384930
-112.7859280 -106.6390574 13.5434596
-112.7564386 -104.7317833 14.7876265
-112.6905084 -110.5310395 9.1782846
-112.6349866 -114.7332340 1.1034240
-112.3036593 -113.1284311 5.0022039
-111.9324490 -112.0351925 7.1669510
-111.5855128 -109.2486158 10.6413439
-111.3712713 -107.7052355 12.3308962
-111.2874374 -103.3745930 15.9238055
-110.7239202 -105.5010408 14.4349150
-110.6096804 -111.2012193 8.4701944
-110.4762182 -114.2409667 2.5285340
-110.1639792 -112.8162071 6.1773080
-110.1496816 -114.9486303 0.5423480
-109.8244712 -109.9601611 9.9462196
-109.6849740 -106.8053693 13.3026931
-109.6433252 -108.5436940 11.6809402
-109.5586047 -113.6392429 4.2348811
-109.2251241 -104.0501818 15.5369807
-108.7451577 -111.6481125 7.3561547
-108.2444116 -114.3755987 1.6152500
-108.2218289 -105.4891497 14.4488374
-107.9401076 -107.5928062 12.6330843
-107.8741401 -109.3453169 10.6960805
-107.7646688 -110.8294353 8.9883655
-107.1565077 -103.0389220 16.1606949
-107.0542186 -113.9169633 3.3777270
-107.0273444 -113.0582541 5.3107939
-106.6727862 -112.1426225 7.2248979
-106.4826399 -106.3084230 13.7891918
-106.2396318 -108.6469144 11.7380917
-106.2348858 -104.7707051 15.1730338
-106.0947776 -114.4872457 1.6595080
-105.7808772 -110.1078317 9.6979085
-105.1766947 -113.4577841 4.4980268
-105.0320789 -111.4235148 8.2529206
-104.7723815 -107.3388308 12.8833801
-104.5447811 -105.8814675 14.2939575
-104.4805348 -112.4434099 6.3774190
-104.4171676 -103.4494340 16.0065517
-104.3978557 -109.0960056 10.9455632
-104.2443812 -114.1278744 2.8164319
-104.2250991 -114.8251072 0.8204800
-103.6511585 -110.4213819 9.5007755
-103.1071320 -104.8018709 15.2081810
-103.0153781 -108.0953851 12.2011546
-102.7906835 -106.6562608 13.6173032
-102.6578024 -113.0621061 5.3233388
-102.5655642 -111.9794920 7.1785101
-102.3425683 -114.4734845 1.6574980
-102.2692248 -109.4248891 10.7544931
-101.7777473 -113.9179692 3.7096441
-101.5243307 -110.9722257 8.7454729
-101.0067016 -105.4767296 14.4969663
-100.9765863 -103.6243141 15.7737583
-100.6881446 -107.2040349 13.1835248
-100.4695818 -112.9627004 5.6146369
-100.2508253 -108.5171252 11.7252609
-100.1969278 -114.4112572 2.2825319
-100.1700461 -110.0813150 10.0373831
-100.0683904 -111.8985265 7.4799350
-99.2617309 -113.7731448 3.9828359
-99.2490947 -104.5145020 15.1350396
-98.6092985 -106.1076447 14.0945008
-98.5602587 -114.6148518 1.0669039
-98.5515118 -112.6190424 6.1377930
-98.5095352 -107.4991748 12.6582328
-98.4277949 -109.0576053 10.9635163
-98.4022021 -111.1304238 8.4938528
-98.2945114 -102.8551385 16.1690190
-97.3371714 -113.4140640 4.4984496
-97.0344171 -114.2161638 2.5359530
-97.0258191 -110.1807058 9.7659370
-96.7136100 -108.1427708 11.9328890
-96.6652781 -104.0896475 15.6504940
-96.6014341 -111.8518189 7.4749370
-96.5960324 -105.5837944 14.2439464
-96.1083025 -114.9269044 0.8629760
-95.7591385 -112.8452122 5.9067812
-95.3170136 -109.2902943 10.7416883
-95.2434614 -106.8914160 13.1061114
-95.2221975 -110.9013706 8.7457867
-95.1220989 -113.6927903 3.6365050
-94.8600098 -103.0015126 16.2495170
-94.8497131 -104.6910658 14.9079738
-94.4064483 -111.9861826 7.2089792
-94.2099541 -114.4538894 1.9811341
-94.1908732 -108.1412584 11.9470963
-93.8157365 -112.9904017 4.9949749
-93.5216397 -110.0488603 9.7340839
-93.5198367 -106.0802639 13.7965139
-93.0994228 -103.7994027 15.5752609
-92.8962007 -113.7307733 3.3304852
-92.7353874 -111.2338528 8.2313232
-92.2305435 -112.4137640 6.4036581
-92.1658576 -107.4928045 12.3716285
-92.1356827 -109.0938076 11.0104494
-92.0095816 -114.5804301 1.7067159
-91.7218402 -105.0363034 14.4066047
-91.3393348 -113.2505313 4.7740741
-91.3227275 -110.1943552 9.4738966
-91.1222175 -103.4414843 15.7879163
-90.4261246 -106.5370068 13.3337872
-90.3889239 -113.8955131 3.0720360
-90.2089253 -111.3420725 7.9571363
-90.0340751 -107.9867855 11.9154137
-89.9865329 -112.4120429 6.0855271
-89.6156356 -109.3449965 10.4672648
-89.3892571 -104.4487134 14.8623837
-89.2772898 -102.2673324 16.3600966
-89.0771076 -114.7242263 0.4637600
-88.7917578 -113.2939011 4.4714878
-88.4946957 -110.4744151 8.9410590
-88.4811878 -114.0772030 2.4937580
-88.3286744 -105.6839973 13.6896838
-87.8832936 -108.5355878 11.1541161
-87.7325982 -111.9558588 6.8960078
-87.5925049 -103.4428328 15.4917501
-87.3320252 -107.1211919 12.5913173
-86.8530124 -114.4782454 1.0215570
-86.7866501 -112.6257926 5.2001709
-86.6010040 -104.9066782 14.3973250
-86.5052566 -109.7538248 9.9835135
-86.3101482 -110.9121740 8.1377644
-86.2558782 -113.8293967 3.0531709
-85.9186053 -108.2329080 11.3794049
-85.5840817 -103.0196249 15.6822447
-85.5643898 -106.2177718 13.2508706
-85.4673833 -111.9159982 6.5637412
-84.9116519 -113.0417287 4.3850630
-84.6128091 -114.0848696 1.8503090
-84.6006796 -110.0839302 9.1391411
-84.5709443 -104.4145152 14.5611204
-84.0535313 -108.6975038 10.5839679
-83.8301480 -107.3285565 12.0380102
-83.8170797 -111.2792194 7.6331040
-83.5454464 -112.1909618 5.6964448
-83.4511295 -101.9917279 16.3113698
-83.3006799 -114.4995838 0.3798030
-83.2965896 -113.3928299 3.2184538
-82.9016864 -105.7445705 13.4234019
-82.6209709 -109.7478420 9.3496554
-82.4388489 -103.3932939 15.1890637
-81.8505511 -107.0063263 12.2584626
-81.8374157 -110.9446734 7.8419419
-81.7925036 -108.4866673 10.8442362
-81.7016140 -114.0331402 1.5074270
-81.6997364 -112.8236577 4.6357228
-81.0879171 -104.7280431 14.0475454
-80.9378996 -111.7759496 6.2002651
-80.3770721 -109.7051948 9.3442043
-80.2556947 -102.2308841 15.7706179
-80.0788775 -113.4995669 2.6116241
-80.0580308 -106.0609967 12.9049877
-79.9928904 -107.5168848 11.4778262
-79.5250386 -110.6892675 7.7562951
-79.2887658 -103.7725657 14.6965738
-79.1122541 -112.8106490 4.3105623
-78.9608583 -100.7432267 16.5599715
-78.7405595 -113.8521284 1.1145580
-78.6868110 -111.7153391 6.1844531
-78.6056295 -108.7206751 10.2949487
-78.2492757 -106.7355573 12.1824322
-77.9845938 -102.2616550 15.4734785
-77.9266059 -105.0724685 13.5413250
-77.8025612 -113.2550389 2.8487430
-77.4846748 -109.8663136 8.7646274
-77.0894513 -112.1507138 5.0466051
-76.8217742 -107.8208983 10.9541593
-76.6670257 -110.9585688 7.2144051
-76.6130909 -103.4319103 14.5948641
-76.4680281 -113.6286631 1.3581320
-76.1883333 -106.1964408 12.3262350
-76.1091039 -100.9857729 16.3435563
-75.8600831 -112.9582226 3.3930603
-75.3763616 -108.9591384 9.4195474
-75.2368718 -104.5830846 13.7106217
-75.1089379 -111.6331369 5.8380589
-75.0591159 -102.2731736 15.1739782
-74.9405473 -110.2431715 7.9351794
-74.8258308 -107.4869931 11.1700194
-74.5440498 -113.3957729 1.9256270
-73.8599449 -112.3874262 4.1627130
-73.8106221 -105.6875363 12.4839293
-73.4679624 -101.0126546 15.7205295
-73.3809844 -103.6038250 14.0263746
-73.3142346 -108.3202139 9.8486654
-73.1088519 -111.2873703 6.0418430
-72.9034171 -109.6795648 8.3887745
-72.7523193 -106.9303602 11.3060270
-72.5564361 -112.8712371 2.7114411
-72.5266486 -113.5487184 0.6757850
-72.1120089 -102.2415236 14.8584144
-72.0119104 -104.8900634 12.8619140
-71.5214834 -111.9964793 4.3482599
-71.3648871 -110.4298085 7.0370669
-71.3500008 -100.2414227 16.1204580
-70.9689558 -107.9224870 10.0418814
-70.7417428 -103.5320610 13.6921639
-70.6341863 -106.2553674 11.4002703
-70.5766305 -113.0389273 1.7946650
-70.5370307 -109.2167124 8.5552884
-70.2708438 -101.4453694 14.9167804
-69.8234662 -111.2845689 5.3958329
-69.7013289 -104.8389673 12.5311175
-69.5918649 -112.3199537 3.4911290
-69.2996383 -110.0245044 6.8941088
-68.9066127 -102.6505232 14.0452618
-68.8510984 -107.1485505 10.4251290
-68.6954185 -100.1569852 15.7847274
-68.4013516 -108.3899662 8.9157559
-68.2575628 -112.8384173 1.7211140
-67.8890347 -104.0294468 12.9070319
-67.8789467 -105.6249663 11.5154870
-67.8384602 -111.0153422 5.6286165
-67.5821528 -111.9778231 3.6941541
-67.3199892 -109.6673086 7.4244072
-66.9996962 -101.4579833 14.6185616
-66.3141459 -107.6143384 9.6248323
-66.2900284 -112.5184223 2.2589499
-66.0161674 -104.5659408 12.1281203
-65.9889877 -102.8627157 13.4858321
-65.7579303 -110.4772612 5.7622753
-65.7068118 -100.0649333 15.4482750
-65.5508935 -111.5849465 3.8789271
-65.5172169 -108.7819189 8.0887107
-65.3584674 -106.1533391 10.7375160
-64.6756068 -101.4149785 14.2922802
-64.5716116 -112.6527712 0.9969970
-64.2042458 -103.7820205 12.5140278
-63.9518872 -109.5920950 6.4241011
-63.9274567 -107.2552279 9.5051937
-63.5646954 -111.8855104 2.6811659
-63.5359213 -105.3389236 11.1089675
-63.4843186 -110.8829901 4.6061557
-63.1564111 -108.5007191 7.9948744
-62.8495365 -102.2242308 13.2790124
-62.7774522 -100.3932357 14.6010034
-62.5267178 -112.3494729 0.8835261
-62.0860830 -106.3932255 9.8567447
-61.7305599 -110.1626605 5.3282571
-61.7089644 -104.5251563 11.4826169
-61.4965782 -111.5213484 2.5471221
-61.2051524 -108.9218929 6.8428600
-60.9723069 -107.5893641 8.3264681
-60.7071184 -102.9524654 12.5675825
-60.6133528 -101.1797041 13.5798445
-60.2513328 -105.5641398 10.2223875
-60.2300540 -99.5099545 14.6364989
-60.1596348 -111.9562015 1.0658018
-60.0900166 -110.6573641 3.8715461
-59.2348538 -109.4081700 5.3836820
-59.0701923 -108.1661582 7.2298339
-58.9567237 -104.2067260 11.0543855
-58.8175394 -106.6708490 8.9870375
-58.4473982 -111.1530513 2.4129921
-58.1705980 -102.1092385 12.6111284
-57.7865280 -100.4501432 13.6699388
-57.7482432 -111.7840484 0.3424300
-57.6767661 -110.1504490 4.0167090
-57.5187802 -105.3099856 9.8148128
-57.4809723 -108.7135151 6.1199013
-67.0891032 -98.8983661 16.3390785
-63.8145804 -99.0558714 15.7647580
-61.9414486 -98.2300490 15.8182047
-59.9607192 -96.9948396 16.0595104
-58.5870408 -98.2045010 15.1771409
-57.5585589 -96.6804624 15.9699544
-57.0537932 -103.2070220 11.3637727
-56.9647737 -107.5104252 7.6556420
-56.3251153 -110.8907163 1.6568400
-55.9435412 -101.2394577 12.6441894
-55.8351912 -109.2159003 4.6620201
-55.7085648 -106.1708853 8.8187559
-55.6254685 -104.3458581 10.1340227
-54.9396090 -110.1095602 3.0167799
-54.9071319 -99.7098237 13.4267667
-54.8967272 -102.5419682 11.4672510
-54.6777658 -108.1608087 5.9242230
-54.4322096 -106.8074703 7.4070576
-54.3270148 -110.9920442 1.0362880
-53.8181886 -105.3364500 8.8526737
-53.7555330 -108.9834198 4.2503043
-53.5402521 -101.1529714 11.9677484
-53.4202643 -103.5522446 10.1884808
-52.7882837 -99.4005203 13.0005507
-52.5529571 -107.7009141 5.7608150
-52.5008217 -109.7912192 2.5709660
-52.2625595 -106.1167195 7.4924421
-52.1318242 -110.4464382 0.5006880
-51.8649071 -104.2306796 9.1200480
-51.8451929 -102.4806648 10.8021209
-51.6692325 -108.6361483 4.1259769
-51.0736443 -100.6844118 11.8155936
-50.7086553 -106.7939550 6.4243614
-50.3776409 -105.2116901 7.8302212
-50.3671952 -109.2095748 2.6874659
-50.0230081 -103.4506783 9.5079960
-49.8238988 -107.7310815 4.7872509
-49.2869318 -101.7645374 10.5582355
-49.0866154 -99.5125920 12.0716318
-48.7592183 -105.7201996 6.6982186
-48.6632437 -109.4740853 1.4633050
-48.5169180 -108.2988679 3.3446630
-48.4836884 -104.2953134 8.1660673
-47.9297787 -106.8151668 5.1158010
-47.7839150 -102.7183160 9.2533287
-47.6288386 -100.4899964 11.1041544
-46.8398593 -104.7444642 7.0104930
-46.8007289 -108.6511761 1.8202190
-46.6669425 -107.5123325 3.7189929
-46.1912453 -101.6329899 9.8645389
-46.0361280 -105.9141606 5.4520639
-45.9863432 -99.3823707 11.3808857
-45.5657355 -103.4098268 8.1880819
-45.4061665 -108.9913622 0.2878200
-44.7654687 -106.7087352 3.7564549
-44.4797091 -100.2333760 10.3659574
-44.4017947 -104.5020893 6.5989727
-44.2711487 -107.9308987 1.8860510
-44.1555753 -101.8225998 8.9466590
-43.5222350 -105.4692045 4.9630292
-43.0077836 -102.8556153 7.6647382
-42.6433161 -106.5480188 3.0359940
-42.1915278 -100.8746326 8.9455796
-42.1842150 -103.9794385 6.0823439
-42.0107357 -107.4006557 1.0237790
-41.3279124 -105.0139442 4.4680191
-41.1201082 -102.1199301 7.7378047
-40.3771028 -105.7947800 2.7598341
-40.3120369 -100.1700610 9.0336576
-40.2760282 -103.1930968 6.1336490
-56.6982105 -98.7598225 14.3977553
-55.6352474 -97.1478969 15.1585005
-55.1905334 -95.3153968 16.1727350
-53.8553931 -98.1413722 14.2004471
-53.7456200 -96.3358209 15.2187813
-52.3892865 -94.9559435 15.7395545
-51.7158955 -97.5635648 14.3438959
-50.5802333 -98.6337215 13.0743552
-50.5075753 -94.1932276 15.8204548
-50.2414033 -95.8637819 14.7496136
-48.8646105 -97.1930176 13.5702528
-48.2617766 -94.8395208 14.7367287
-47.8271469 -93.0649340 15.7811251
-47.3955572 -98.1501564 12.5925513
-46.8849950 -96.0646644 13.8502754
-46.0023470 -93.9771011 14.7848679
-45.8998978 -92.2100022 15.8323515
-45.4714336 -97.2954482 12.6340510
-44.9626297 -95.3343734 13.6062037
-44.0670736 -93.1103081 14.8297735
-44.0268442 -98.4378979 11.3874348
-43.9208671 -91.2269279 15.8401653
-43.5360111 -96.4244232 12.6708895
-42.7451506 -94.6103334 13.7011148
-42.4570628 -99.1264656 10.3117498
-42.2610193 -90.1063308 16.1331259
-42.0904309 -92.1449214 14.8413824
-42.0589782 -97.4863470 11.3926008
-41.6290388 -95.7580358 12.4474149
-40.7371074 -93.5659483 13.6817517
-40.4035747 -90.9619853 15.1103064
-39.8304798 -106.8815365 0.8313790
-39.4317135 -104.2640880 4.5295409
-39.1652770 -101.3294160 7.4580959
-38.4026952 -99.5103642 8.8047488
-38.1635278 -105.0894186 2.8357930
-38.0156152 -102.3674831 6.1731264
-37.5865810 -106.0986444 0.8743380
-37.5274643 -103.5055593 4.5889923
-37.2759886 -100.6167531 7.5412611
-36.2788811 -104.3906882 2.9143600
-36.1193344 -101.7533615 5.9551182
-35.6594995 -105.2914634 0.9087740
-35.6128365 -102.8447226 4.3507116
-35.3457071 -99.9205187 7.2964220
-34.3859307 -103.9049625 2.4029510
-34.1915078 -101.0694727 5.7115979
-33.7475762 -104.7603711 0.3768140
-33.4017426 -102.2961885 4.1551199
-32.4347094 -103.0583531 2.4275619
-32.1440622 -99.9753922 5.6536430
-31.8462811 -104.0475592 0.4477450
-31.3840024 -101.2841165 4.1232118
-30.4847192 -102.2287756 2.4596569
-29.9545303 -99.6251032 5.1979516
-29.8897158 -103.2051221 0.4709990
-29.1169696 -100.7354259 3.5915351
-28.6086928 -101.9393131 1.6834220
-27.1597132 -100.1361012 3.0389300
-26.6599040 -101.3635993 1.1359890
-25.2281614 -99.6168554 2.5149290
-24.6322118 -100.4899442 0.8141310
-40.2413458 -98.4143838 10.4026804
-40.1126929 -96.6092199 11.4256227
-39.6854244 -94.8944911 12.4886427
-39.5636633 -89.1349241 15.8194248
-39.0062407 -92.2712535 13.9079783
-38.3333489 -97.7620035 10.1795141
-38.0093306 -93.7535688 12.7654616
-37.8595032 -95.9318727 11.1985281
-37.6916602 -89.9654254 14.7848884
-37.5506543 -88.1115720 15.8173386
-37.0642506 -91.5497392 13.6693968
-36.4558958 -94.5233032 11.7101977
-36.4393964 -98.4974280 9.1178985
-36.3474600 -96.8041867 10.1818861
-35.6465094 -92.8066522 12.4472706
-35.5976820 -87.2669294 15.8782881
-35.4386605 -89.3253312 14.5807127
-34.9344611 -95.3799784 10.6854755
-34.8225087 -90.9397379 13.4729305
-34.5236957 -97.9605690 8.5990811
-33.8352434 -85.9295800 16.1041860
-33.7579399 -93.5890973 11.3963019
-33.7122567 -88.0840048 14.8345940
-33.4362909 -99.1816893 7.3716058
-33.3913118 -96.2918550 9.3447110
-33.3303511 -91.8927640 12.4772089
-32.5162858 -90.1758149 13.2226124
-32.3333181 -97.5972638 8.1438441
-32.3017649 -94.7405621 10.1376874
-31.9551267 -86.7738649 15.0673268
-31.8083391 -92.7665234 11.4536351
-31.6985659 -88.4512439 13.9703788
-31.4316973 -84.9288180 15.7802291
-31.1742071 -95.8707482 8.8700140
-31.1514586 -98.5750556 6.8256371
-30.9695732 -90.9941867 12.1769514
-30.3548314 -93.9327478 10.1974355
-30.0513674 -97.0107839 7.6069087
-29.9853738 -87.3836726 13.9482394
-29.7634080 -89.1459137 12.8819216
-29.5053199 -92.1416804 10.9105371
-29.3523520 -83.7970823 15.7461893
-29.2319562 -95.0800925 8.9331158
-29.1752927 -85.6882706 14.7144543
-28.8777072 -98.0164483 6.2959818
-28.6766253 -90.4071406 11.6489427
-28.3701755 -93.2651386 9.6338755
-28.1137470 -96.3493958 7.3769758
-27.7857594 -87.0589316 13.5157965
-27.6954398 -99.1109312 4.6811462
-27.5432952 -88.7631401 12.4272574
-27.2820201 -82.7065930 15.7278460
-27.2565670 -91.6768461 10.4230829
-27.2223949 -94.3540782 8.3457204
-27.0724036 -84.5102295 14.6618746
-26.9693099 -97.5482240 5.7966053
-26.0633901 -89.8867622 11.1460900
-26.0623880 -85.9920606 13.4951258
-25.8079451 -95.6234559 7.1255933
-25.8070640 -92.8672180 9.1700656
-25.6829746 -98.3820632 4.0830988
-25.2315886 -88.1585777 11.8937138
-24.9838959 -91.1672264 9.9187214
-24.9389261 -83.2709819 14.5896142
-24.9219406 -96.6250822 5.4680901
-24.6576350 -93.9564407 7.8794612
-24.2833141 -84.7935081 13.4298615
-24.0984652 -89.3080756 10.6161218
-24.0533277 -86.5297765 12.3450896
-23.7644613 -97.7955982 3.8743729
-23.5341489 -95.2227190 6.3155461
-23.4712567 -92.3153237 8.3093373
-23.2314952 -98.8333002 2.2302421
-25.2134968 -81.6379488 15.7184526
-23.4164912 -80.4028288 15.6496223
-22.6728097 -99.8045802 0.5625420
-23.0358113 -90.6354636 9.4029903
-22.6371493 -87.8348574 11.1214044
-22.3244466 -96.2674320 4.6721222
-22.3130826 -93.3886096 7.0100343
-22.2466234 -83.8252828 13.4493383
-22.0613498 -85.7884809 12.1005708
-21.9111275 -97.6115018 3.1365030
-21.5769149 -89.1750604 9.9089183
-21.2174617 -91.8788239 7.8268899
-21.0660324 -94.2349359 5.6290687
-20.6248220 -87.0479792 10.8580226
-20.5738507 -98.4449238 1.0772049
-20.3883164 -90.1850984 8.5804760
-20.3836765 -82.4396461 13.3219818
-20.2795230 -95.4990089 4.0597161
-20.1707501 -84.2184573 12.2442134
-19.9542772 -92.6918313 6.4310222
-19.8518187 -96.8081951 2.5076631
-19.5604526 -88.3827060 9.6405726
-19.1321149 -85.6301785 11.0479994
-18.8644528 -91.2080109 7.2591794
-18.7573545 -93.6721116 5.0954991
-18.5444448 -97.6135358 0.7730540
-18.3630567 -89.3765166 8.3034495
-18.3070507 -94.9284956 3.5186259
-18.0922803 -87.0331824 9.8509854
-17.9940369 -84.0238184 11.8539352
-17.6424216 -92.1325609 5.9004971
-17.4375847 -95.9858447 1.8717640
-16.8691818 -85.2186680 10.5796112
-16.7889744 -90.3954953 6.6372398
-16.6079681 -88.2881433 8.2650930
-16.5642034 -93.6413333 4.0741321
-16.1135998 -82.6252103 11.7190043
-16.0114225 -94.6426839 2.4014281
-15.7661028 -86.5792558 9.0240100
-15.6479198 -91.5295258 5.3511509
-15.1168155 -95.6425294 0.7301000
-15.0259212 -89.1835243 6.8919193
-15.0062637 -83.8725939 10.4591036
-14.8148248 -92.6894769 3.7330410
-13.9869684 -85.3362679 9.2772515
-13.9414733 -93.7478095 2.0788610
-13.8321640 -87.4631405 7.6460848
-13.7668420 -90.0309682 5.4989089
-13.0622433 -83.4291130 9.9754371
-12.9744187 -91.2978128 3.9147721
-12.8926514 -94.3732858 0.2649430
-12.5820963 -88.3407146 6.2606367
-12.3504419 -86.0015303 8.1582293
-12.0928288 -92.3421383 2.2509601
-11.7976768 -89.6331146 4.6811299
-11.4327874 -84.1218010 8.8637378
-11.1931283 -93.3412760 0.5710490
-11.0483859 -86.7584124 6.7263320
-10.9981801 -90.8852741 3.0888857
-10.2602327 -88.0473480 5.1406762
-10.2050966 -85.0712284 7.4970420
-9.7677931 -92.0358226 1.1199189
-9.6774129 -83.0816776 8.8497698
-9.1041615 -86.4457637 5.9398841
-8.9967940 -89.0139788 3.4415410
-8.2582682 -90.4192030 1.9012900
-8.2477778 -84.6206099 7.0055318
-7.7125719 -82.7343315 8.0533167
-7.4521899 -87.3148218 4.2037629
-7.0484080 -88.6992961 2.6489762
-7.0316722 -85.7177824 5.3459220
-23.1793001 -82.1329951 14.5504503
-21.4479640 -81.0813084 14.5424046
-21.3250536 -79.3073252 15.6337973
-19.1977210 -80.7010680 14.0914274
-19.0109070 -78.7692294 15.1307732
-19.0047715 -77.5260776 15.7269016
-18.1137566 -82.0121244 12.8523577
-17.4496304 -75.9590939 15.8889107
-17.4462367 -79.6251893 14.0761957
-16.8752354 -77.7102485 14.7865592
-16.3589753 -80.9331313 12.8328018
-16.2027385 -74.1910338 16.3247827
-15.3242806 -78.6112919 13.7447426
-15.2508887 -75.8669004 15.1956193
-14.3458070 -80.1994652 12.5950677
-14.3003501 -72.6422220 16.5040456
-14.2055070 -77.2982612 13.9857614
-14.1146434 -81.9256455 11.4903515
-13.7188854 -74.3840560 15.3887141
-12.8240269 -78.8629651 12.4847665
-12.7007356 -75.8909509 14.2007237
-12.2406753 -71.8218982 16.2478779
-12.2397849 -80.5717632 11.3732181
-12.0702088 -77.4946064 13.0452709
-11.6125084 -73.4466091 15.0896031
-11.1352662 -81.8376243 10.1131899
-10.8861420 -78.4594789 12.0184990
-10.5927428 -74.9536604 13.8984397
-10.3253406 -70.2711865 16.4310113
-10.3037124 -80.1717564 10.9062409
-10.0544747 -71.9217658 15.2727608
-9.9996636 -76.6523480 12.7724996
-9.0355938 -73.4382123 14.0805850
-8.9300564 -78.0228376 11.5398280
-8.4797116 -75.2334893 12.9834190
-8.3519761 -81.1749473 9.2137419
-8.2531543 -79.5005783 10.3435908
-8.1693083 -70.5788955 15.1790921
-7.6301214 -68.7664747 15.9498397
-7.1792360 -72.1727908 14.0094217
-7.0386119 -77.8726190 10.8152209
-6.8062483 -75.8630112 11.8388217
-6.6029080 -73.9200115 12.8916549
-6.3677970 -79.3653503 9.6228542
-6.0839821 -89.5591304 0.9060580
-6.0215020 -83.5257992 6.2831203
-5.3979270 -86.6416320 3.6258148
-5.0365841 -88.1294236 2.1055001
-4.9429140 -84.9656910 4.7421600
-3.1541651 -87.0491788 1.3728880
-3.1421161 -83.9706063 4.3925680
-2.2637569 -85.0565657 2.7197753
-1.5539720 -82.4306235 4.5364606
-0.9686530 -85.9773383 0.9890830
-0.3161390 -83.4979042 2.8541919
0.5747510 -84.5600888 1.1685608
1.8981709 -82.3824927 2.4605501
2.3941309 -83.5572630 0.8097750
-6.1089350 -69.8016435 14.9365626
-6.0613370 -81.0082331 8.1391912
-5.4279570 -67.6437393 15.5931786
-4.9411729 -70.9594861 13.6151621
-4.9272720 -74.5558217 11.7465220
-4.5304862 -82.0881501 6.8118190
-4.3250551 -76.2271807 10.6075620
-4.2791571 -78.6286443 9.0345815
-4.1771741 -65.9324452 16.0677116
-4.0634861 -72.8284121 12.5390366
-4.0122652 -69.0657794 14.3612940
-3.5968570 -80.2046284 7.5266133
-2.9668601 -70.5303922 13.1417187
-2.8585454 -77.4872229 9.3346667
-2.7370360 -67.3038587 14.8145426
-2.4531579 -81.3869908 6.2297201
-2.4072321 -78.6641687 8.0250278
-2.3901151 -73.5980198 11.0904686
-2.1239030 -75.2358511 9.9331774
-1.8345950 -71.7764869 11.8494155
-1.7008770 -68.7985569 13.6007546
-1.2249020 -79.7604620 6.6940379
-1.2013130 -66.0075918 14.7375278
-1.0235420 -76.5435398 8.6703291
-0.6038330 -70.1392218 12.3367468
-0.2037820 -72.5457966 10.7441824
0.0531310 -74.2063522 9.5911380
0.0539320 -78.0173764 7.1214000
0.2178850 -67.4348176 13.5012511
0.2764850 -81.1581314 4.7814497
1.0556279 -70.8487630 11.2084476
1.1722150 -75.4744112 8.3110016
1.3599091 -68.6724931 12.1980747
1.3759548 -78.7850842 5.6703347
2.3015221 -66.7773113 12.9497629
2.3925500 -76.6121149 6.6389400
2.5494520 -73.5046193 8.6710565
2.6162069 -79.7500685 4.2891167
2.6684571 -71.7896670 9.8113082
2.9314230 -69.7230101 10.8354315
3.1701350 -77.9666156 5.0420058
3.2632479 -74.9057382 7.4314023
3.5802850 -65.1591495 13.1065585
3.7423142 -81.3304931 2.0879640
3.8578920 -67.8743795 11.5994699
4.5204400 -75.8463815 6.0343216
4.5327721 -70.7019717 9.4479481
4.7101551 -79.4074088 2.7871102
4.7620824 -82.1002796 0.2871460
5.0959638 -68.8845217 10.2158692
5.4344749 -66.5196553 11.4968717
5.5901879 -72.2518265 7.9074288
5.8211568 -76.7994002 4.2931209
5.8451188 -74.0240738 6.4421957
6.5253191 -70.5159009 8.3528571
6.6592149 -78.0131370 2.6428571
7.1444833 -68.5732365 9.0772808
7.3051509 -65.4397979 11.1432187
7.3399120 -75.4795223 4.5283707
7.3992750 -72.7361292 6.3466639
8.3232848 -70.9206462 7.1114558
8.6916620 -67.1927705 9.3112569
8.9552728 -74.2884949 3.7628990
9.3438113 -68.8773394 7.8024981
9.7466568 -77.0322680 0.9070950
9.9726822 -65.4898286 9.7843502
10.4494318 -70.4414472 5.9079519
10.6580686 -67.1015680 8.2449280
-2.2861231 -64.6210983 15.9937404
-0.2057050 -63.9615133 15.4469190
0.1749850 -61.5696758 16.3870398
1.4181640 -64.8991838 14.0406564
1.7474721 -62.5275150 15.3333563
2.1093190 -60.1856932 16.2949394
3.3458930 -63.4219497 14.2583046
3.5519819 -61.5875907 15.0367869
3.9303731 -59.2111535 15.9899574
4.8577529 -57.4652515 16.4675843
5.4306597 -60.4800656 14.6841584
5.4510478 -64.0675798 12.7530275
6.0195928 -62.2268803 13.5317147
6.3821520 -58.6856753 15.1418122
6.4315069 -56.1249182 16.3902249
8.0060698 -57.1156852 15.3364167
8.0582704 -61.8427806 12.7219046
8.2381982 -63.7069494 11.6077987
8.7211439 -59.7809553 13.4321703
9.6584456 -58.0368340 13.9072062
10.2084298 -53.9258718 15.7030132
10.2959210 -56.0341813 14.6482121
10.6348619 -59.8354340 12.4167530
10.6796306 -63.3420348 10.4534011
11.2356469 -71.8003288 4.2913482
11.7393304 -68.7313601 6.3674441
12.2276237 -65.8059716 8.1581101
13.5870157 -72.1124262 1.9592561
14.0631152 -73.3621791 0.3018080
15.1331713 -68.1758448 4.0852060
17.0531105 -68.4610084 2.4358870
11.2629822 -61.4854693 11.2279160
11.8966419 -52.2253662 15.8636216
11.9040729 -57.0726395 13.2544441
12.1858045 -54.9501106 14.3063869
12.4470331 -58.9343905 12.1299615
12.8263012 -62.7282038 9.5586805
13.4892678 -53.3207953 14.4817531
13.7401344 -56.1255701 12.9552623
14.2871859 -59.4188161 10.5499476
14.4331893 -51.5743010 14.9709005
14.5903053 -64.6919683 7.0849783
15.0876911 -48.4341681 16.0613079
15.1895853 -54.1598871 13.0143370
15.2434008 -57.5388968 11.3311289
16.1536112 -49.9439389 14.8024093
16.1779933 -55.8295771 11.8210549
16.4877269 -59.7924180 9.2872512
16.5398698 -52.3180366 13.4734586
17.4319167 -48.3930893 15.0126945
18.2476919 -50.7324748 13.3158835
18.6975636 -59.1950938 8.0392612
18.7780950 -52.7592003 11.8725644
18.9495031 -60.9965436 6.5396661
19.2058682 -48.9717275 13.8049042
19.2946345 -56.1300591 9.4733443
19.5088983 -54.1895665 10.5891172
20.7505766 -51.5396707 11.4822043
21.0156105 -49.5905764 12.2522665
23.1435765 -54.2870387 7.8100874
23.4809760 -49.4190902 10.7944943
23.6172359 -51.3938330 9.6806381
16.3555034 -46.9013825 16.2815563
18.2293560 -45.9036529 15.9772560
19.4107257 -47.1518859 14.6250222
19.8367648 -44.6849428 15.5952359
20.8730623 -42.7380688 16.0384141
21.4296486 -45.8314978 14.2112924
21.6630995 -47.5951470 13.0171822
22.2241227 -41.0363413 16.2131339
22.3978907 -44.0553054 14.7065567
23.5691480 -45.4602577 13.0411256
24.3940763 -40.4893160 15.3460102
24.5500151 -42.4464345 14.2007219
24.9418672 -47.3639481 11.1904228
25.4847184 -45.6242338 12.0454300
26.2770932 -39.6466441 14.7345578
26.7118048 -37.1646285 15.7238673
27.0508882 -41.0211049 13.4007344
29.0163457 -35.1156555 15.4459486
29.1591585 -38.3324362 13.6182243
29.2077176 -36.9983092 14.2609710
30.3208679 -33.5624814 15.6805366
34.1133848 -31.0554523 14.1876414
35.6024802 -44.5153005 3.8399361
31.3731506 -30.5058695 16.5120773
36.2281315 -24.8264484 16.2026435
38.4958237 -21.8288805 16.3698178
49.9717556 -30.3692259 0.5710530
50.6721921 -28.3303522 1.3601680
51.4918193 -26.0255896 2.0657340
57.4024022 -14.8942685 0.2156980
58.2416840 -13.9989406 2.1834180
54.7228158 -4.2673093 12.8456755
55.3593859 -6.5670554 12.8481630
56.2209263 -7.4998722 9.7812833
57.2996289 -8.3129508 8.1832893
58.5813709 -9.4102835 7.0592090
62.7333596 15.0576280 13.2978717
62.8944859 16.8283135 14.2791541
62.9713014 13.2999690 12.3249218
63.1043240 18.7129155 15.2302776
63.6241511 12.2222556 10.3799682
64.6068826 13.0247530 8.6052762
69.4341511 19.5871238 1.9275680
71.0517764 18.9735368 0.2105500
62.5844374 20.6186678 15.7781560
69.0410808 21.1447291 3.3588330
70.9603131 21.8482353 3.1657619
70.9806755 24.0718536 3.6159488
71.7622787 20.3077979 1.7334910
72.1262917 26.1194445 4.1488488
87.6991153 69.0584406 1.2538220
89.2548338 67.5559938 0.9421950
89.4291252 70.5152526 2.0635210
89.8683816 65.6998158 0.3149490
91.0582840 69.1702366 1.7023770
91.7005017 67.3751235 1.0529701
92.3313573 65.5624866 0.4117100
92.6960558 70.2703893 2.2140751
93.7192366 68.3830008 1.5993760
94.3523049 66.5750876 0.9540350
94.7334319 70.1014921 2.3129941
94.9887484 64.7820085 0.3070040
95.7917944 68.2948753 1.6733720
87.7407566 71.5952665 2.0981040
87.7507105 74.0697905 2.9673041
87.7621248 76.5576139 3.8388409
87.9870951 86.0393494 7.5339270
88.0049318 82.3387504 6.1834930
88.0454183 79.9478814 5.2684923
88.1756470 84.1114223 6.8849986
89.0265554 87.9985392 8.6216563
89.0965164 78.2123581 5.0032828
89.3332139 75.1921237 3.8862259
89.3819630 72.8509128 2.9728229
89.6971375 81.2222213 6.1537069
90.0648907 84.8164707 7.5438679
90.4901475 83.5732818 7.1065510
90.6651691 86.5975097 8.2600182
90.7656401 76.9240633 4.6180440
90.7671601 79.3887153 5.5060121
91.0015404 73.9148483 3.5004620
91.6411877 72.0966756 2.8497609
91.7662680 81.0981840 6.2432918
91.9406787 84.1044560 7.3951450
92.3802480 82.8976259 6.9475500
92.4149677 78.0465528 5.1351753
92.4429223 75.6583512 4.2269332
92.7369595 87.7039135 8.8080727
93.0512920 73.7664253 3.5945540
93.3898687 85.8677030 8.1381733
93.4146941 79.7494873 5.8724489
93.6947688 71.9608888 2.9394459
94.0188468 81.5185085 6.5837032
94.1022336 76.7975524 4.7376361
94.8323235 87.6106396 8.8915890
95.0687304 84.5661387 7.7488152
95.1191336 74.8695880 4.1233557
95.4598188 83.2523331 7.3308349
95.5009684 78.4339607 5.5032140
95.9167555 80.8620080 6.4192619
87.4192491 103.4657210 13.9609817
87.6319706 101.5360877 13.2804746
87.7407938 91.6168019 9.5719602
87.8448263 99.6135399 12.6014017
87.8580734 97.0949456 11.6805676
88.0357176 95.1058269 11.0282777
88.7962207 105.2329466 15.1554197
88.8130963 89.8794979 9.2918938
89.1460776 93.4417471 10.7227266
89.4908085 98.3164459 12.6125328
89.8164436 91.6179419 10.0410469
89.8827016 102.0527110 14.0271131
90.1142955 100.1778543 13.3323548
90.1684389 95.2268094 11.4661055
90.4848352 103.8702875 14.7665665
91.0561308 89.0139118 9.1973869
91.2035853 97.0398933 12.2058792
91.2214965 93.2942107 10.8236745
91.6851833 90.8642933 9.9024633
91.7886272 101.3449281 13.8728172
92.2289938 98.8282934 12.9566258
92.2907144 95.1786637 11.5398485
92.5703719 104.9864590 15.3398300
92.8103551 103.1279191 14.6341724
93.1198448 92.5997347 10.6676761
93.3600962 89.5329490 9.5174471
93.6879143 100.6211340 13.7229180
93.9160585 96.2284133 12.1061169
94.1359773 94.3545476 11.4198411
94.4794416 104.2701527 15.1869003
94.5420936 98.0760977 12.8276879
94.7173387 102.4138033 14.4810341
94.8056132 91.2846327 10.2760494
95.4365358 89.3891603 9.6161095
95.5867618 99.8963937 13.5733699
95.8078802 95.5040306 11.9576016
95.8387554 93.0695236 11.0178953
87.1595144 109.1715619 16.0589237
87.3296484 107.1223393 15.4008185
89.2088488 107.7661291 16.1066782
90.6974673 105.7861224 15.4699469
91.2993252 107.6067463 16.2162073
93.2010636 106.8660468 16.0693713
95.1095596 106.1405540 15.9184523
96.3925719 66.4196685 1.0476969
96.7956111 71.1892024 2.8409751
97.4358991 69.3920776 2.1862441
98.0541557 65.1611388 0.6623880
98.0542377 67.5542355 1.5465250
99.6833742 66.2190989 1.1830300
99.6962935 63.8645664 0.2894780
100.3052518 70.3778043 2.7640369
100.9259447 68.5462877 2.1194683
101.5765294 65.5973181 1.0110210
102.1697819 63.7259930 0.3864570
102.3761556 70.2625364 2.8473560
102.5559753 67.2082156 1.7551240
103.5927311 65.3751418 1.1249260
104.0017307 68.9071491 2.4862543
104.4019535 62.9267767 0.2777910
104.6341136 67.1122745 1.8315160
105.0496325 70.6614703 3.1953021
105.8790162 64.6820590 0.9835829
106.3102409 68.2462379 2.3346068
106.4652577 62.8069639 0.3598220
106.8713591 66.3050190 1.7243150
107.2912291 69.8474348 3.0891630
107.9296619 64.5257682 1.0773910
108.6500734 61.9029589 0.2829880
109.0054736 67.7728355 2.9526229
109.2587560 69.7689801 3.9790161
109.4747633 63.2945374 1.4972100
109.4773859 59.9280931 0.5153270
109.5489115 65.8010095 2.3505550
96.1450264 76.6167045 4.8425142
96.1994678 73.0916485 3.4672511
96.5037718 86.2839073 8.5075106
97.1457660 84.4347924 7.8421701
97.3620787 82.5969204 7.1656099
97.5236297 88.0259871 9.2520639
97.5754112 79.5353577 6.0411403
97.5897536 74.6989399 4.2347931
98.1947258 77.6628554 5.3939400
98.5976085 86.1811116 8.5933506
98.8401324 72.2279176 3.3860900
99.0193561 81.2592879 6.7886771
99.2146730 84.2808038 7.9421308
99.2342755 75.7863149 4.7611650
99.6279567 87.9390612 9.3342196
99.6367484 79.3784857 6.1401767
99.8667032 73.9592910 4.1063409
100.2714261 77.5438696 5.4811500
100.4812568 83.0175579 7.5305779
101.0724902 85.9672725 8.7225446
101.0874808 81.1082348 6.8866978
101.3183892 72.0723495 3.4920941
101.3314351 75.7153183 4.8335982
101.6862988 87.7439380 9.4474582
101.9589230 73.8810375 4.1801138
102.1223590 79.2103261 6.2532402
102.1296903 84.0977952 8.0728056
102.7416140 82.1998343 7.4229781
102.7641669 77.3961991 5.5874097
103.1628177 85.8453661 8.8141505
103.3815816 75.5360648 4.9380041
103.3877358 71.9460845 3.5794689
103.7968770 87.6599550 9.5288483
104.0247977 73.7401322 4.2725373
104.2153537 80.3232267 6.7915749
104.2235717 83.9867368 8.1605250
104.3909714 78.4242153 6.1371806
105.0485745 76.6507909 5.4596630
105.2453145 82.0515230 7.5317849
105.6687161 74.8033226 4.8068399
105.8807597 86.2909034 9.1659762
106.0549542 72.3220557 3.9362912
106.3123271 83.8593245 8.2531152
106.3200086 80.2413076 6.8694628
106.9106311 78.3191100 6.2316791
106.9583148 88.1245881 9.8890057
107.3352620 81.9301084 7.6219449
107.5058579 74.0203634 4.6802931
107.5319201 76.4712542 5.5751931
107.9240143 86.0529169 9.2913155
108.3070859 83.5224539 8.4062591
108.3232388 71.5566874 3.8152051
108.6074859 79.6210989 7.1151052
108.7698117 87.5122026 10.5343545
108.8673621 84.2203796 9.4512673
109.0594158 75.1517341 6.0157101
109.1023982 72.9964226 5.4436759
109.1229618 77.6815340 6.8925647
109.1508493 81.4860463 8.6280098
96.4282751 97.3307267 12.6844877
96.8059450 103.5200357 15.0562199
97.0341340 101.6485617 14.3548409
97.0908403 90.4969424 10.1584150
97.4981785 99.1998464 13.4159466
97.5029469 94.1956118 11.5607446
97.7069959 92.3006162 10.8825667
98.5254645 95.9498584 12.3184342
98.9501104 100.9536386 14.1964480
98.9912003 89.8080841 10.0009842
99.1730988 97.8296325 13.0326729
99.3291885 104.6186537 15.6491175
99.3940160 93.4715047 11.4123132
99.5604098 102.7570143 14.9419354
100.0305042 91.5889814 10.7429400
100.4279405 95.2430815 12.1645862
100.6190851 99.5617509 13.8172181
101.0579169 97.0750377 12.8916930
101.0846272 89.6872878 10.0936014
101.2601256 101.4260873 14.5439198
101.4872044 93.3377743 11.5100462
101.6610041 103.8687676 15.5179258
102.1033674 91.4138556 10.8517148
102.5017574 95.0575545 12.2776236
102.5158763 98.8252237 13.6705581
103.1760424 89.5564705 10.1891533
103.3674926 102.5472879 15.1158255
103.5509333 100.5942449 14.4358464
103.5778597 93.1929424 11.6110248
103.9890498 104.3643057 15.8627369
104.0089577 96.9101191 13.0244093
104.2152941 91.3203433 10.9374309
104.6274453 94.9826911 12.3596620
104.6417654 98.7398848 13.7570668
105.2797437 89.4477069 10.2784960
105.4828689 102.4240628 15.2143715
105.6813672 100.5099639 14.5229064
105.7197973 93.1564718 11.6814878
106.0904562 104.2026356 15.9726292
106.1260328 96.8064591 13.1153176
106.2973514 91.1559016 11.0433549
106.7317054 94.8552936 12.4565223
106.7614630 98.6345559 13.8492519
107.3456332 101.5947089 15.0921708
107.7715009 92.9156765 11.8096517
108.0563441 96.2854922 13.3229494
108.2499623 89.4804224 10.7639842
108.2632840 103.2281071 16.3185149
108.3614156 99.8543724 15.2088758
108.5585654 97.9524702 14.5165892
108.5697636 94.2768455 13.0940452
108.7565124 91.1446512 11.9443610
97.4339694 105.3753644 15.7915130
97.6341441 107.2456092 16.5133234
99.5370597 106.4990163 16.3676552
102.3062691 105.7474837 16.2498392
-126.0654181 -99.3091837 17.5702851
-125.7531196 -101.0766923 16.5924728
-128.6937445 -95.0614288 19.2714222
-128.6515146 -89.4242823 22.1616197
-128.6482364 -93.0612832 20.1877039
-128.6056936 -97.9864150 18.0443861
-128.4413636 -83.1520706 24.5684776
-128.2356083 -87.1680900 23.0137538
-127.8904527 -85.3101984 23.6832984
-127.7396977 -91.3457721 21.2181676
-127.1181107 -96.5490714 18.8414846
-126.0692924 -87.2652382 23.0753198
-125.8743405 -84.5394880 24.0989644
-125.8042455 -82.4204683 25.0099022
-125.5847067 -91.4591849 21.2828275
-125.5274713 -89.4210190 22.1997648
-129.0362030 -67.0800731 31.0125891
-129.0324032 -68.9748600 29.9857259
-128.7968010 -74.6579841 27.9203337
-128.7700236 -79.7194615 26.0125734
-128.7325025 -77.8076723 26.6793873
-128.7256330 -72.4731013 28.8382433
-127.7933866 -65.5274913 31.5222815
-127.7647614 -70.6538633 29.5705274
-127.4863929 -81.3611969 25.2800994
-127.1296889 -75.9475827 27.3936447
-127.0356774 -73.6868009 28.2841437
-126.8073320 -68.8578114 30.3157922
-126.5389025 -79.6086565 26.0099247
-126.1098236 -66.7121485 31.2774144
-125.8514822 -77.5245428 26.9569661
-125.7952154 -72.0397979 29.0746260
-128.7977397 -63.9259964 32.3048756
-127.2191256 -62.3134561 32.8099541
-126.3018996 -64.2838627 32.1391821
-123.0554208 -99.7821540 17.4438171
-121.7832640 -101.3104022 16.7100672
-119.4199398 -100.2594754 17.3241887
-117.4997538 -101.5736684 16.8408714
-116.2671074 -99.9006033 17.8706497
-114.6597192 -101.3335958 17.1028879
-114.3165976 -99.5048881 18.0722512
-112.2867465 -100.3165543 17.7322309
-110.9577864 -101.6213074 16.9153493
-109.4509065 -100.2571732 17.7377332
-108.8931710 -102.1925360 16.8131851
-124.5895997 -86.0219821 23.6449689
-123.9924282 -87.8434479 22.9753796
-123.8051131 -93.6236456 20.4367507
-123.5919222 -90.7660946 21.7147451
-123.2374683 -83.7116763 24.8307120
-122.7268577 -97.9471132 18.4099078
-122.4073693 -96.1464867 19.3937514
-122.2646534 -85.2978826 24.0804721
-121.9409257 -88.5244384 22.9099579
-121.7282265 -92.3816413 21.3228986
-121.1362928 -94.2857414 20.3732271
-121.0719049 -99.1011709 17.8658795
-121.0261434 -83.6880878 24.8544756
-120.7039058 -90.2699977 22.2268794
-120.6670254 -86.7752284 23.6287676
-120.4120368 -97.0921367 19.1000178
-119.7530553 -88.5648578 22.9520500
-119.6046248 -92.7535966 21.1530197
-119.1853285 -95.5318213 19.8589899
-119.1153899 -98.5424444 18.3322653
-118.8981757 -84.0032622 24.9907151
-118.6636686 -86.1057565 24.0782574
-117.7757010 -87.9926682 23.4315097
-117.6761165 -94.1012651 20.6710845
-117.5981015 -96.9644114 19.4068123
-117.5387502 -90.0596753 22.5182306
-117.3245832 -92.2022387 21.6366872
-117.1114296 -82.8648508 25.6107077
-116.8945059 -85.0295797 24.7142278
-115.9349382 -98.0986133 18.8527536
-115.7889590 -95.7053155 19.9560151
-115.5366302 -89.4014314 22.9670815
-115.1973903 -92.5836712 21.4696135
-115.1073352 -83.9029402 25.3367629
-114.8884222 -86.0410258 24.4330782
-114.2945886 -87.8317207 23.7475503
-114.2728329 -94.2777172 20.7705926
-114.1448468 -96.9229788 19.4284674
-113.9832959 -91.1191925 22.2768877
-113.0358577 -89.4827694 23.0269413
-112.8256768 -98.2862115 18.6269488
-112.7683148 -84.8676264 25.0432994
-112.6427874 -95.5593362 20.2625692
-112.4944389 -93.1725949 21.3803928
-112.3389378 -82.6869085 25.9473566
-112.1722534 -86.6467729 24.3499316
-111.8262559 -91.3024545 22.3661773
-111.3197803 -96.9161838 19.4556247
-111.2721562 -88.4597600 23.6759093
-110.8635962 -94.4602340 20.8722893
-110.7440665 -98.8121852 18.5089465
-110.7090637 -84.0587392 25.4526269
-110.1615503 -92.4797654 21.8176283
-110.1467684 -85.9592408 24.7966480
-110.0137234 -90.1019424 22.9519662
-109.2604920 -97.5400060 19.3712898
-109.2301533 -87.7090320 24.0987167
-109.2096493 -95.6547111 20.3332212
-108.5925624 -82.9466358 26.0897633
-108.5582748 -93.8735828 21.3438533
-125.3698319 -74.8772994 28.0492790
-124.8468980 -70.2994838 29.8349187
-124.8051375 -68.2488605 30.8116823
-124.6132180 -65.4594973 31.8898521
-124.5344132 -78.9292827 26.4659114
-124.2554709 -80.8021724 25.7915780
-124.1156384 -73.1878802 28.8240630
-124.0640283 -76.3464794 27.5748856
-123.3061925 -66.9928938 31.4204022
-123.0801344 -69.2445114 30.5086505
-122.8755042 -71.5690404 29.6269264
-122.8381991 -74.7820213 28.3868331
-122.5089878 -79.7893703 26.4571328
-122.4005446 -77.5246322 27.3378957
-121.9648421 -81.9593295 25.5616419
-121.7217147 -65.2916208 32.2207846
-121.5592250 -67.9116920 31.0915653
-121.3269681 -73.4746307 28.9655011
-121.1352199 -75.8156702 28.1011183
-120.9887117 -69.9289963 30.4398742
-120.9807023 -78.4041360 26.9991532
-120.3965545 -80.3029314 26.3346732
-120.3775406 -71.7695132 29.7361594
-120.0214773 -66.4141104 31.9545008
-119.8608652 -77.3956925 27.6624672
-119.6443141 -74.6015683 28.7083685
-119.4332093 -68.3607757 31.2755629
-118.7306866 -81.4414099 26.0877497
-118.6653525 -72.7938116 29.4442102
-118.5752600 -70.6050768 30.3741582
-118.3597744 -77.8472126 27.5092572
-118.3508188 -76.1127025 28.2447189
-117.8956702 -66.9971481 31.8528563
-117.7679151 -79.7063708 26.8287882
-117.3913851 -74.3932202 29.0056635
-117.2879115 -68.8531920 31.1454609
-117.2460169 -65.2359799 32.6192118
-116.8887988 -71.7416555 30.1166475
-116.3976192 -77.5180981 27.7588777
-116.0732433 -80.7397068 26.5460908
-115.6836972 -78.6728412 27.4982397
-115.6162322 -70.0619146 30.9087988
-115.5113801 -66.2269965 32.3104002
-115.4481024 -75.8536384 28.5349302
-115.2661592 -73.2310936 29.6457522
-115.2491719 -68.1723878 31.6220596
-114.4028753 -81.8601549 26.2924973
-114.1686663 -77.4021447 28.0837435
-114.0348837 -80.0046027 26.9858409
-113.9701679 -71.4742616 30.4102600
-113.6184484 -74.6116042 29.1413590
-113.4161428 -66.9474229 32.2516710
-113.3080572 -69.7002262 31.1631504
-112.6493663 -72.8944167 29.9099293
-112.5139818 -78.7224025 27.5652222
-112.3106778 -76.0584101 28.6544599
-111.9879633 -71.1342171 30.6642819
-111.9384691 -80.6116685 26.8934071
-111.7596403 -68.3455169 31.7432433
-111.3470122 -74.3723959 29.4299442
-111.1069322 -66.6199476 32.5209349
-111.0124886 -77.5294900 28.1772204
-110.6823236 -72.6124197 30.1812645
-110.4234532 -79.3680474 27.4849907
-110.2797240 -81.8929076 26.3656676
-110.1400405 -69.8713660 31.2767625
-109.7190008 -75.8179203 28.9467033
-109.4775721 -68.1228265 32.0442691
-108.8523567 -71.4230761 30.8144037
-108.7802276 -80.7164237 26.9770399
-108.5799336 -78.1063288 28.0794613
-123.0412126 -63.7988523 32.7064060
-119.3554997 -64.5700544 32.6951481
-107.3955297 -100.9870097 17.3682161
-105.3582653 -101.7833278 17.0219578
-105.3292826 -100.0120789 18.0131458
-103.3082679 -100.8789241 17.6904649
-102.6770920 -102.5288850 16.6631211
-100.9697393 -100.3096998 17.8352110
-100.3629640 -102.0404324 16.8333910
-99.2119238 -99.3622467 18.4908938
-98.5884145 -101.0346040 17.4648948
-96.5831354 -101.9669771 17.1641707
-96.4948684 -100.0379100 18.1056298
-94.7571695 -100.9253040 17.4610373
-93.0780470 -102.0084172 16.8852657
-92.7253887 -100.2770662 17.9005228
-108.0767140 -91.4501101 22.4630125
-108.0087349 -89.4885510 23.4184377
-107.9643667 -98.9807323 18.5952783
-107.6606289 -84.6543759 25.3704060
-107.2805449 -97.0963016 19.5605643
-107.0930511 -86.5185261 24.7020423
-106.9217995 -95.2476189 20.5412097
-106.7377329 -92.7751288 21.6356181
-106.1680168 -88.2244781 23.9890721
-105.8306769 -83.4494755 25.9722434
-105.7085171 -90.6768292 22.8777882
-105.6276634 -98.2789248 19.0195460
-105.2935421 -96.5322033 20.0327821
-105.2463204 -85.2513462 25.2792332
-105.1637232 -94.2722782 21.1963039
-104.7727391 -92.3153907 22.1505072
-104.2964160 -86.8709683 24.5337151
-104.1591838 -89.3354639 23.4163105
-103.7430018 -82.6006755 26.3732690
-103.6314517 -97.6881087 19.4810219
-103.5018265 -95.4447314 20.6473917
-103.2658517 -91.1300778 22.7381624
-103.2162681 -84.7181603 25.4556146
-103.1091288 -93.4964269 21.6018315
-102.3496017 -88.2174596 24.0377020
-102.3300663 -99.1059244 18.6945237
-101.8067524 -96.4946002 20.0570747
-101.6998142 -83.5279450 26.0593276
-101.6188934 -86.1915872 24.9941424
-101.5671343 -92.1971351 22.1487358
-101.4882177 -90.2380273 23.1068898
-101.4415994 -94.6570560 21.0470986
-100.5125865 -97.9446471 19.2785319
-100.3627256 -87.8425837 24.2634956
-100.1813486 -82.3445097 26.6687125
-100.0944600 -84.9814117 25.5888272
-99.7344479 -95.6733152 20.4435904
-99.5957851 -93.4172943 21.6158088
-99.4821116 -91.3526788 22.5358251
-99.0974754 -89.4486085 23.5205479
-98.7955332 -86.4884928 24.8069745
-98.4866694 -97.2874165 19.7191294
-98.1859639 -83.5627541 26.1228327
-97.9240984 -94.5680663 21.0562628
-97.5432992 -92.6956385 22.0428761
-97.5343734 -88.1165117 24.0678526
-97.4002257 -90.5396119 22.9357351
-96.8999192 -85.1229802 25.3550466
-96.7629254 -98.2354209 19.0937370
-96.6232941 -96.0056931 20.2678964
-95.9861055 -86.8506134 24.6410985
-95.8755165 -83.3434239 26.0836389
-95.7065597 -91.6378200 22.3540030
-95.5817252 -89.4405171 23.5634670
-95.5411494 -93.8134864 21.4740932
-94.9549079 -97.1540660 19.7096225
-94.6931317 -98.9742875 18.7234189
-94.6144238 -95.4426527 20.7452439
-94.2291841 -84.6570879 25.5642999
-94.0218493 -88.1472751 24.1252743
-93.6942995 -92.6224589 22.0638588
-93.6117247 -90.6973481 23.0373591
-93.3115482 -86.3673240 24.8422027
-92.7754864 -94.3924859 21.0541151
-92.6925763 -83.4638402 26.1708554
-92.6171318 -98.1857777 19.1182420
-92.3118815 -89.2115757 23.5281140
-92.2622457 -96.4410827 20.1407857
-91.5004238 -85.4505599 25.2142269
-91.4564356 -91.2118405 22.5869454
-108.3323509 -73.6575648 29.9055800
-107.7236161 -75.4313022 29.1818194
-107.6912358 -67.2398284 32.4550234
-107.5333431 -69.6409345 31.5800235
-106.9342196 -79.4563666 27.5695492
-106.7843139 -72.3368451 30.4897632
-106.7349166 -81.6376582 26.6610067
-106.0896888 -76.8457726 28.6886990
-105.9615090 -68.2480633 32.1510844
-105.8508530 -74.0998536 29.7643449
-105.7910919 -70.5851614 31.2576964
-105.1205248 -78.3350170 28.2109808
-104.6700403 -80.8732286 27.0927213
-104.5711413 -75.6444409 29.3050539
-104.4714302 -72.0067993 30.7533480
-104.1157842 -67.0571104 32.7957273
-103.9695591 -77.4202049 28.5845064
-103.9070562 -69.2464411 31.8504535
-103.5455391 -73.7928972 30.0333221
-103.1375080 -79.6229467 27.6848711
-102.5853828 -70.6687570 31.3434750
-102.1960452 -81.3018009 26.9459169
-102.1197885 -77.8137371 28.4162033
-102.0712033 -76.0238245 29.1430857
-102.0348966 -67.9724813 32.4676745
-101.9782200 -72.4421293 30.6097437
-101.3895348 -74.2707998 29.8975240
-100.9013504 -79.6592906 27.7323481
-100.7995084 -69.8289052 31.7657739
-100.7689759 -77.4685964 28.6532007
-99.9717563 -72.0841214 30.8592860
-99.7365788 -75.6257921 29.3811411
-99.3168429 -78.2561004 28.2792188
-99.2023349 -68.4017986 32.3286206
-99.0578383 -73.8993660 30.1464722
-98.8753885 -80.7905942 27.1551311
-98.4773487 -77.3369744 28.6477413
-98.3850062 -70.6968233 31.4297713
-97.6145044 -67.0251325 32.9113677
-97.5007713 -75.7103860 29.4468589
-97.4550918 -72.4591762 30.6961760
-97.2649306 -79.1986883 27.9663466
-97.1689746 -81.7984194 26.8603545
-97.0217809 -68.8507482 32.1832262
-96.2614566 -77.4868950 28.7336558
-96.1172730 -70.7106069 31.4758532
-95.9131494 -74.3332803 30.0130285
-95.6322998 -80.5890188 27.4668913
-95.2141583 -72.5604296 30.7690203
-95.1351970 -78.2917887 28.3589903
-95.1164216 -67.5210208 32.7868350
-94.9624330 -75.9940371 29.2533189
-94.3358615 -82.1306780 26.6859233
-94.1836461 -69.2835823 32.0447013
-93.6139748 -71.1649433 31.3377939
-93.5540795 -73.9052445 30.2447379
-93.4929028 -79.6560571 27.8489850
-93.0897743 -77.8112710 28.5633374
-92.5812647 -67.8955168 32.6238312
-92.2715813 -75.5376518 29.4793211
-92.2505260 -81.3867301 27.1271560
-91.8564722 -72.0694885 31.0007352
-91.6671902 -69.7139725 31.8990014
-91.0187736 -101.3864577 17.0078930
