# .PCD v.5 - Point Cloud Data file format
VERSION .5
FIELDS x y z
SIZE 4 4 4
TYPE F F F
COUNT 1 1 1
WIDTH 1557
HEIGHT 1
POINTS 1557
DATA ascii
-8.937669 -5.990315 0.909147
-9.395430 -5.195435 -0.826852
-9.507913 -5.099648 -1.098682
-8.344122 -5.692367 0.049064
-7.754938 -6.217996 0.923405
-7.826522 -5.960782 0.482703
-7.854284 -5.863264 0.270805
-8.826908 -6.356320 1.424327
-7.338097 -6.793638 1.540892
-7.449894 -6.100093 0.618465
-6.377495 -7.373136 1.649538
-6.693375 -7.889583 2.076217
-6.690135 -9.330326 2.720302
-6.386866 -11.213429 3.130628
-6.001605 -12.548455 3.280465
-6.189580 -13.742515 3.484134
-7.727731 -14.045412 3.690056
-7.305468 -15.042693 3.817950
-7.473025 -21.305264 4.693550
-8.234562 -25.523044 5.322222
-8.605225 -26.913412 5.530337
-8.289873 -28.461459 5.737623
-11.266865 -30.690643 6.075373
-11.314810 -31.064353 6.128184
-11.157858 -31.347230 6.170345
-11.181252 -31.580586 6.211088
-11.119294 -31.225201 6.149113
-11.250139 -32.188637 6.311160
-11.170050 -31.749199 6.242963
-11.224382 -31.954449 6.273735
-11.294770 -32.326536 6.332927
-11.299063 -32.453847 6.360410
-11.330000 -32.568875 6.380702
-10.572606 -32.118149 6.296133
-11.540495 -32.644825 6.414634
-11.069792 -32.772938 6.393625
-11.847109 -33.083044 6.472771
-10.219287 -33.386029 6.468909
-11.199534 -35.030440 6.697554
-10.582989 -36.831082 6.953421
-10.884525 -38.323604 7.162779
-11.189512 -39.815987 7.373792
-11.658829 -42.294131 7.729305
-12.078921 -44.274435 8.000552
-13.595783 -46.481255 8.312992
-13.415414 -47.369659 8.548968
-13.614607 -48.104304 8.841913
-13.410794 -48.159835 8.842916
-13.940397 -48.214701 8.838817
-13.137665 -48.060667 8.825362
-12.205350 -48.135716 8.834564
-12.847269 -48.132512 8.833181
-12.502163 -48.245287 8.853378
-9.558042 16.672872 -7.600532
-9.070284 17.020010 -7.530515
-9.283941 16.851813 -7.793206
-9.307884 16.812746 -7.964586
-9.443355 16.749844 -7.714447
-9.183299 16.840553 -8.375740
-9.005784 16.934962 -8.456796
-9.502561 16.634089 -8.214884
-9.356898 16.731922 -8.307596
-9.167250 16.871883 -8.214024
-9.821941 16.319491 -8.368122
-10.616516 13.851640 -8.223026
-10.732146 11.914388 -7.734017
-10.938971 7.066205 -6.822052
-10.908100 7.938526 -4.635794
-10.967677 6.484792 -6.866002
-10.982917 6.022627 -6.566330
-10.985644 6.105076 -6.784477
-11.006411 5.060144 -6.318246
-11.035960 4.541376 -6.211271
-10.993359 4.913394 -6.429038
-10.990385 4.783866 -6.413383
-11.181308 1.455130 -6.562726
-11.210334 0.601136 -5.402812
-11.325836 -2.062428 -3.940930
-11.178197 -3.212171 -3.778305
-10.665553 -4.127920 -2.310787
-10.221798 -4.587141 -2.237275
-10.319405 -4.497938 -2.506092
-10.127482 -4.673767 -1.981508
-10.070037 -4.710847 -2.097466
-10.239740 -4.573596 -2.746489
-10.235384 -4.593842 -2.915221
-10.453342 -4.421422 -3.437594
-7.255616 -6.135137 0.595137
-7.222448 -6.053116 0.431113
-7.029011 -6.087135 0.401681
-6.891987 -6.205834 0.531939
-6.823013 -6.489143 0.950104
-6.618103 -6.347565 0.603606
-6.455638 -6.386324 0.556827
-6.198595 -6.521875 0.616971
-6.200083 -6.431776 0.421609
-6.377531 -6.200210 0.219259
-6.156644 -6.350982 0.257341
-5.996692 -6.398156 0.200226
-5.233394 -8.123909 1.601748
-5.328766 -9.956467 2.474049
-5.102074 -11.642486 2.832631
-5.272778 -13.737181 3.201458
-6.243037 -16.072622 3.801443
-6.440222 -17.348359 4.034998
-5.454392 -16.322954 3.592492
-6.541884 -19.526219 4.351985
-5.992921 -21.679698 4.481027
-7.712445 -23.200096 4.977407
-6.576559 -24.923940 5.052316
-6.921881 -27.211916 5.431626
-7.576367 -27.672288 5.574182
-7.950058 -30.522698 5.988481
-9.230371 -30.619313 6.059892
-7.936898 -32.338669 6.250587
-8.376400 -34.514778 6.587442
-8.448703 -35.615951 6.744964
-8.790214 -38.431578 7.147369
-8.660463 -39.869036 7.341085
-10.154386 -44.144867 7.965943
-10.558320 -46.130598 8.247726
-11.610910 -46.714733 8.359126
-11.372313 -47.337967 8.496371
-11.122188 -48.052297 8.789821
-10.549817 -48.206884 8.840573
-11.808971 -48.255148 8.833796
-11.502748 -48.143382 8.821667
-10.879052 -48.325522 8.817109
-9.318250 16.721201 -8.597394
-9.072509 16.823725 -8.953883
-9.290968 16.674441 -9.065482
-9.496483 16.511154 -9.319068
-9.166513 16.705128 -9.481268
-9.221025 16.622583 -9.823108
-9.363398 16.560012 -9.577776
-9.404156 16.486131 -9.910079
-9.501980 16.467705 -9.482368
-10.126714 15.765909 -9.704614
-10.409387 15.213640 -9.326290
-10.600533 14.045370 -10.109657
-10.666669 12.304386 -9.604244
-10.665192 12.191683 -9.565713
-10.690656 11.763787 -9.218366
-10.770025 10.233748 -8.620531
-10.897344 8.158874 -7.446794
-11.028793 6.747594 -7.322380
-10.982342 6.673917 -7.095033
-10.977486 6.557380 -7.045752
-11.074076 6.355690 -7.388888
-11.051524 6.689968 -7.494097
-11.044771 6.995872 -8.187362
-11.158181 6.746041 -8.379739
-11.124249 6.612185 -7.829539
-11.063345 6.243894 -7.346598
-11.036369 6.137630 -7.145364
-10.982827 5.727572 -6.825680
-11.009215 5.809416 -7.042417
-11.108817 6.516288 -7.791623
-10.965829 6.038906 -8.043193
-11.019330 5.745631 -7.677702
-10.935715 5.945449 -8.001161
-11.084670 5.481234 -7.504641
-11.036066 5.604530 -7.648673
-11.139729 5.319307 -7.467453
-11.081997 5.403713 -7.798304
-11.137596 5.251531 -7.788682
-10.971263 5.367599 -6.718174
-11.013818 5.208502 -6.846928
-11.030951 4.703461 -6.899621
-11.011078 5.062818 -6.821791
-10.969354 4.622653 -6.514097
-10.985127 4.858866 -6.753167
-10.935613 4.502695 -6.612049
-11.002241 4.597582 -6.858142
-11.200517 5.154622 -7.488283
-11.246480 4.922535 -7.443682
-11.281265 4.747489 -7.585831
-11.254463 4.762763 -7.454895
-11.307410 4.684022 -7.723981
-11.295461 4.579615 -7.701866
-10.934126 4.224704 -6.871842
-10.981354 4.108448 -6.684332
-10.980600 4.189299 -7.047327
-10.966855 3.892943 -7.292828
-10.977071 3.852372 -7.433157
-10.989873 3.786826 -6.933895
-10.937152 3.748336 -7.415226
-10.966704 3.774375 -7.073901
-11.093269 3.553177 -6.576875
-11.279558 -0.966330 -6.127651
-10.916577 -3.756003 -3.094169
-10.542454 -4.363527 -3.844271
-10.884718 -3.979914 -4.931397
-10.509323 -4.455074 -4.294099
-10.598726 -4.378059 -4.531089
-10.599012 -4.426906 -4.858475
-10.435688 -4.458281 -3.582151
-5.847496 -6.422951 0.115623
-5.475752 -6.517263 -0.067854
-5.351952 -7.196859 0.846515
-5.286012 -6.642963 -0.061270
-4.566433 -8.893525 1.618350
-4.530184 -7.946200 0.848518
-4.177943 -10.267816 1.898171
-4.488193 -11.668093 2.513303
-4.357347 -14.108180 2.700184
-5.182812 -15.941257 3.413949
-4.966334 -17.203318 3.457774
-5.054065 -18.177724 3.666415
-5.217557 -19.004235 3.801208
-4.864838 -19.850633 3.699455
-5.037960 -21.159272 3.975858
-5.861517 -22.518569 4.544011
-5.632827 -23.490008 4.563868
-6.079797 -26.215581 5.067441
-5.638156 -27.188285 5.003025
-6.417134 -28.514497 5.462311
-6.642971 -30.884351 5.858327
-7.130897 -32.574301 6.184087
-6.768968 -34.219077 6.316078
-7.584949 -39.630820 7.199296
-9.031276 -41.718093 7.620488
-8.495396 -43.174622 7.787054
-9.160029 -43.724597 7.898499
-8.949431 -47.233753 8.435291
-10.102238 -48.322187 8.866977
-9.785664 -48.214344 8.848877
-9.360481 -48.326070 8.867110
-9.082173 -48.224941 8.833873
-9.579097 16.319713 -10.148673
-9.596700 16.283240 -10.311658
-9.473369 16.368955 -10.419297
-9.485658 16.338671 -10.578588
-9.090458 16.601389 -10.549508
-9.329795 16.441898 -10.666624
-9.858525 16.001446 -10.588370
-10.484277 14.629705 -11.270843
-10.497737 14.548340 -11.091247
-10.506404 14.439892 -11.093736
-10.503219 14.488332 -11.421018
-10.541154 14.276624 -11.205941
-10.550129 14.241096 -11.369596
-10.621151 13.860449 -11.185573
-10.663850 12.380860 -9.801384
-10.665503 12.020486 -9.826648
-10.664565 12.255653 -9.912822
-10.661253 12.105091 -10.012574
-10.664266 12.057324 -9.667707
-10.819777 8.725562 -9.847050
-10.893042 7.780730 -8.379950
-10.847552 7.897597 -9.978054
-10.896059 7.380607 -9.085974
-10.913700 7.380921 -8.572692
-10.997463 7.153770 -8.391756
-11.072494 6.967020 -9.054758
-11.138191 6.809867 -9.198670
-11.160252 6.834147 -8.405916
-11.160122 6.766739 -8.708603
-11.117951 6.587499 -7.978433
-10.956416 6.115369 -8.224557
-10.887366 6.074120 -8.501600
-10.874831 5.936799 -8.614768
-11.145651 6.647838 -8.839181
-11.170936 6.498731 -9.436595
-11.087949 6.616715 -9.606436
-11.129202 6.358069 -9.569917
-11.114375 6.367500 -9.441440
-10.873617 5.792810 -8.084226
-10.965103 5.633740 -8.093750
-10.894776 5.765994 -8.231766
-11.162988 5.086813 -7.915880
-11.215251 4.942742 -7.915308
-11.250022 4.767876 -8.058442
-11.321799 4.618969 -8.059211
-11.265041 4.530297 -8.492678
-11.301328 4.414452 -7.855448
-11.291433 4.258439 -8.399235
-11.185598 4.643992 -8.642812
-11.274346 4.353455 -8.615856
-11.226005 4.233571 -8.720309
-11.080088 3.856653 -7.829496
-11.065931 3.898221 -7.675761
-10.983226 3.626523 -8.048710
-10.993939 3.392054 -7.622250
-10.950397 3.355502 -7.838176
-11.086884 3.730060 -8.465831
-11.064608 3.709075 -8.610819
-10.975582 3.303337 -8.090574
-10.942111 3.511938 -8.464504
-11.177983 1.696058 -7.792773
-11.248692 -0.457875 -7.134736
-11.313853 -2.864848 -6.410281
-10.585306 -4.462391 -4.996309
-10.498452 -4.625361 -5.080120
-10.563458 -4.531161 -5.296808
-10.645805 -4.521223 -6.027569
-10.555253 -4.567823 -5.435624
-10.551511 -4.629546 -5.790422
-10.529914 -4.699705 -6.041708
-5.066547 -6.722731 -0.225585
-4.781056 -6.819938 -0.504703
-4.563059 -6.887874 -0.759644
-4.466433 -7.184168 -0.323748
-4.393480 -6.980913 -1.014515
-4.338243 -7.002482 -1.137309
-3.820429 -8.484805 0.516862
-3.612906 -9.646850 1.086772
-3.708291 -11.035290 1.736653
-3.228893 -11.478739 1.191321
-3.705762 -12.786289 1.975741
-3.357677 -14.247726 1.599950
-4.019737 -14.255780 2.419843
-3.580669 -16.182821 2.056176
-4.058459 -16.942340 2.760547
-3.734805 -18.461591 2.471770
-4.279156 -17.620145 3.046134
-4.017272 -19.350506 2.916582
-4.131420 -20.613281 3.178542
-4.317817 -22.434134 3.550737
-5.156011 -23.464582 4.318356
-4.488669 -25.018967 3.964160
-5.019609 -25.593142 4.453737
-5.609767 -28.894761 5.189448
-5.274163 -30.997286 5.234256
-5.866582 -32.700032 5.793078
-5.987711 -34.611919 6.071186
-5.920109 -38.238251 6.489711
-6.758415 -36.975941 6.682392
-6.619652 -39.073444 6.890182
-7.081240 -41.025609 7.320368
-7.272363 -42.811746 7.581897
-6.506490 -41.784910 7.208834
-6.972836 -45.435126 7.837489
-8.054658 -45.119594 8.016896
-7.294052 -46.384255 8.079695
-7.817705 -47.342123 8.369678
-7.196444 -46.900051 8.107392
-6.875618 -47.825601 8.271690
-8.006843 -48.342491 8.794527
-8.296684 -48.448453 8.838827
-7.071752 -48.431412 8.613040
-7.532236 -48.470012 8.737571
-7.384943 -48.550794 8.607841
-9.222635 16.433948 -11.245826
-9.425659 16.286299 -11.345747
-9.588966 16.126694 -11.572387
-9.273761 16.325511 -11.738272
-9.477298 16.177316 -11.839445
-9.273287 16.350531 -11.586106
-9.595563 16.103062 -11.723965
-9.300573 16.281563 -11.912245
-9.515683 16.096801 -12.171475
-10.114173 15.442716 -12.313115
-10.400305 14.992674 -11.542518
-10.621979 13.676078 -13.130381
-10.694561 11.780393 -12.289825
-10.688250 11.676457 -10.071592
-10.742019 10.534763 -11.768572
-10.763745 10.070760 -10.992459
-10.956541 6.725072 -10.293141
-11.069618 6.751874 -9.497702
-11.025342 6.566188 -9.879790
-11.030358 6.416465 -9.990254
-11.118268 6.318540 -9.703303
-11.087020 6.221404 -9.679417
-11.057292 6.086558 -9.797334
-11.038960 6.162759 -9.965052
-11.029011 5.542710 -9.926344
-10.922508 5.786942 -9.046350
-11.156975 4.568152 -8.942386
-11.162161 4.424255 -9.060676
-10.999869 3.580914 -8.687808
-11.076807 2.926352 -8.430921
-10.997348 3.463554 -9.139349
-11.022649 3.410549 -9.797320
-11.121804 1.780125 -9.519494
-11.209506 0.306420 -9.087402
-11.057599 -3.873551 -5.967979
-10.615514 -4.624912 -6.451110
-10.531297 -4.725606 -6.206692
-10.539454 -4.844542 -6.685593
-10.611693 -4.665313 -6.599697
-10.561387 -4.878408 -6.858924
-10.588764 -4.785815 -7.032701
-10.595836 -4.832947 -7.370487
-4.209011 -7.166825 -1.170287
-4.124775 -7.130208 -1.618356
-3.856831 -7.711582 -0.690277
-4.068420 -7.177465 -1.727711
-3.948798 -7.337886 -1.777182
-4.096545 -7.226700 -1.410326
-3.890934 -7.387564 -2.062891
-3.295892 -8.564695 -0.586788
-3.096776 -10.015732 0.475652
-2.776983 -12.793366 0.332731
-2.906704 -14.668831 0.699245
-2.937474 -16.565041 0.819972
-3.211795 -18.527004 1.532428
-3.504893 -22.136420 2.393224
-3.651062 -24.034219 2.782369
-4.016824 -25.359426 3.438889
-3.881964 -26.571921 3.316867
-4.838329 -27.504246 4.562528
-4.059867 -28.948311 3.828189
-4.437645 -28.719756 4.283021
-4.805130 -29.837166 4.763178
-4.572158 -31.811113 4.701761
-5.121501 -32.687363 5.304301
-5.191368 -34.534680 5.577386
-5.933040 -35.403014 6.168479
-5.199741 -35.934667 5.739412
-5.371676 -38.753280 6.178255
-5.209237 -39.710804 6.144923
-5.674552 -41.196657 6.689185
-6.329057 -44.197919 7.414107
-6.115496 -46.035068 7.502388
-6.390456 -47.174436 7.807823
-6.690446 -48.565581 8.439271
-6.458019 -48.441066 8.363088
-9.560031 15.991331 -12.674903
-9.241335 16.203673 -12.829966
-8.979551 16.368529 -12.694028
-9.249689 16.167743 -12.987565
-9.566843 15.942482 -12.971170
-10.388482 14.790433 -13.413738
-9.426219 16.035835 -13.069593
-9.282688 16.097646 -13.313115
-9.472984 15.959856 -13.409269
-9.666673 15.775867 -13.654304
-9.675440 15.744600 -13.810700
-9.925524 15.547207 -13.411595
-10.551775 14.332250 -11.540192
-10.422230 14.689362 -13.700844
-10.433820 14.653756 -13.858405
-10.433975 14.606648 -13.514610
-10.483564 14.398396 -13.502030
-10.510873 14.245942 -13.620840
-10.519351 14.208399 -13.785241
-10.862978 8.132351 -12.440855
-10.931944 6.087286 -11.109692
-11.032542 4.910986 -10.370729
-11.281420 -1.898346 -8.912920
-11.290663 -3.220086 -9.228769
-11.045955 -4.105450 -7.468964
-11.271975 -3.564994 -8.780652
-10.572774 -4.969236 -7.975884
-10.656078 -4.875926 -8.206660
-3.940205 -7.304474 -2.269124
-3.858277 -7.404084 -2.676871
-3.815529 -7.275180 -2.863010
-3.885786 -7.377256 -3.195056
-3.295398 -8.178732 -1.871468
-2.795550 -9.578365 -0.785962
-2.452465 -10.429769 -1.546383
-2.614548 -10.928654 -0.385596
-2.444120 -12.430843 -0.961783
-2.603399 -14.949889 -0.382766
-2.866868 -18.335248 0.585673
-3.196345 -20.111687 1.672257
-3.135182 -22.170977 1.561171
-3.258561 -24.597559 1.899655
-3.404181 -26.794540 2.346892
-3.541513 -28.789747 2.819756
-3.768473 -31.210242 3.443522
-4.279441 -31.279738 4.308311
-4.057163 -33.331361 4.103793
-4.298367 -34.862110 4.614383
-4.618303 -34.546796 5.021457
-4.362049 -35.341212 4.795269
-4.287777 -35.258408 4.656540
-4.221039 -35.285251 4.541754
-4.163117 -35.429552 4.454845
-4.361656 -35.465290 4.828256
-4.310342 -35.623900 4.740584
-4.172830 -35.550629 4.486124
-4.249896 -35.652357 4.630015
-4.712351 -36.772528 5.335960
-4.617049 -36.085612 5.210314
-4.732450 -40.442094 5.731630
-4.409072 -41.514799 5.370574
-5.602901 -42.310566 6.773451
-5.190519 -44.673188 6.652194
-5.642960 -45.469456 7.144558
-5.013277 -46.509972 6.578252
-5.348535 -47.328375 7.077660
-5.841235 -48.487500 8.000852
-5.424509 -48.086396 7.403207
-6.081562 -48.572936 8.187102
-5.684967 -48.737119 7.812304
-5.668608 -48.785406 7.670673
-5.383147 -48.646461 7.659964
-9.170919 16.086832 -13.886589
-9.352298 15.983472 -13.818187
-9.130665 16.165743 -13.557115
-9.378088 15.944205 -13.989203
-9.528821 15.850156 -13.898122
-9.573448 15.774654 -14.234996
-9.446104 15.837033 -14.493088
-9.238258 16.017156 -14.239618
-9.273997 15.941181 -14.566835
-9.469182 15.797650 -14.658514
-9.591549 15.739867 -14.400583
-9.651377 15.622785 -14.901121
-9.661805 15.591983 -15.057460
-10.328589 14.799022 -14.956700
-10.271491 14.856740 -15.115137
-10.279786 14.820627 -15.259196
-10.507921 14.286678 -13.973774
-10.353506 14.664627 -14.945227
-10.451455 14.494947 -14.004591
-10.438626 14.379723 -15.222374
-10.730065 11.306960 -14.494387
-10.834479 8.707930 -13.527043
-11.025408 3.878473 -11.997828
-11.105730 2.193588 -10.923814
-11.239996 -0.505220 -10.903479
-11.074622 -4.341534 -9.762423
-10.736385 -4.913657 -9.070934
-10.662556 -4.998751 -8.838644
-10.647723 -5.080903 -9.144148
-10.663445 -5.404221 -9.867974
-3.829163 -7.467747 -2.988016
-3.770132 -7.499378 -3.920518
-3.854228 -7.469800 -3.672645
-3.680063 -7.669264 -3.979800
-3.611233 -7.683588 -4.098896
-3.557046 -7.853180 -4.172407
-3.493881 -7.863124 -4.297885
-3.298331 -8.338953 -4.113067
-2.716321 -9.284973 -2.044207
-2.327343 -11.024141 -2.209126
-2.621786 -16.723420 -0.518350
-2.708504 -17.814570 -0.109583
-2.717348 -20.030012 -0.256245
-2.856182 -21.849371 0.417065
-2.979318 -24.861221 0.747347
-3.087533 -26.537089 1.200906
-3.185664 -28.362320 1.592079
-3.303130 -30.046249 2.043388
-3.450458 -32.567552 2.640922
-3.532485 -33.570754 2.855492
-3.761713 -34.714573 3.587793
-3.491305 -35.287038 2.747696
-4.095001 -36.309769 4.401949
-3.811880 -37.203012 3.820517
-4.015668 -40.144706 4.387964
-4.456316 -39.546908 5.223892
-4.321953 -44.217026 5.305677
-4.867587 -42.376575 6.090607
-4.566582 -45.141746 5.817743
-4.553653 -46.948095 5.905415
-4.885730 -47.946449 6.722743
-4.717424 -48.516473 6.829667
-5.035492 -48.593848 7.324527
-5.107963 -48.826083 7.177782
-4.998513 -48.905418 6.989995
-4.989311 -48.946083 6.840300
-4.689556 -48.794256 6.834882
-4.506967 -48.878190 6.586022
-9.117105 15.984436 -14.959139
-9.374720 15.789789 -15.241459
-9.242452 15.800960 -15.804210
-9.272778 15.761882 -15.977090
-9.463118 15.615807 -16.068852
-9.524746 15.692956 -15.158984
-9.390171 15.761069 -15.404754
-9.729241 15.420911 -15.865160
-9.597513 15.521929 -15.968780
-9.648572 15.436908 -16.306523
-10.333439 14.680296 -15.421356
-10.417073 14.451189 -15.419631
-10.616849 13.638700 -14.758852
-10.708539 12.135889 -15.443804
-10.820085 9.426558 -15.346861
-10.928479 6.720703 -14.508598
-10.953736 5.698776 -13.852518
-11.045411 3.477397 -13.999901
-11.108932 1.958677 -13.511689
-11.144220 0.990976 -13.116917
-11.330031 -2.912433 -12.332069
-11.308757 -2.869908 -11.195889
-11.264551 -4.091484 -11.696680
-10.929354 -4.834759 -11.371393
-10.651663 -5.146717 -10.024500
-10.620629 -5.208460 -9.746642
-10.659625 -5.441269 -10.018108
-10.586785 -5.298073 -10.156087
-10.581912 -5.314076 -10.336090
-10.601460 -5.312290 -10.977770
-10.548428 -5.408463 -10.784852
-3.151804 -8.310997 -4.404587
-3.119542 -8.502507 -4.531600
-3.093792 -8.678567 -4.294110
-2.869787 -8.575802 -4.998323
-3.013380 -8.848568 -4.773592
-2.313125 -12.564777 -2.347984
-2.338077 -13.442469 -2.109692
-2.472185 -16.011323 -1.612485
-2.632133 -19.934062 -1.527047
-2.795151 -23.496272 -0.790698
-2.901615 -24.605556 0.322768
-3.084178 -29.592734 0.659803
-3.218748 -32.323308 1.393990
-3.348761 -36.100267 1.700274
-3.546664 -37.841712 2.718171
-3.821019 -38.543242 3.843992
-3.675367 -39.854383 3.207444
-3.788686 -42.155611 3.674978
-3.928859 -44.031246 4.232175
-4.101629 -46.727192 4.761554
-4.243813 -47.941745 5.436323
-4.232183 -48.798051 6.226110
-4.036947 -48.931845 5.804559
-4.385713 -48.993120 6.179727
-4.307413 -49.105698 5.846277
-9.339871 15.652732 -16.476361
-9.366932 15.610135 -16.648518
-9.524764 15.501384 -16.563338
-9.568190 15.419765 -16.897923
-9.580706 15.386652 -17.058094
-9.428479 15.494773 -17.143635
-9.195984 15.655637 -17.028233
-9.231100 15.613857 -17.203512
-9.625997 15.269015 -17.687025
-9.661023 15.400256 -16.465618
-10.167224 14.948296 -15.818473
-10.510011 14.099908 -16.107677
-10.670736 13.021270 -16.577783
-10.899183 7.729585 -16.477802
-11.169434 1.050155 -14.752879
-11.356490 -3.225207 -14.660858
-11.313533 -3.976231 -13.108807
-10.591236 -5.364571 -11.290488
-10.608518 -5.572361 -11.413976
-10.527371 -5.513065 -11.842883
-10.504883 -5.636379 -11.813206
-10.556686 -5.763598 -12.300339
-2.888500 -8.769683 -5.121350
-2.856260 -8.793174 -5.265739
-2.903065 -8.988985 -5.405593
-2.667387 -9.582653 -3.971871
-2.897889 -9.071823 -5.870231
-2.876169 -8.960500 -6.049372
-2.888900 -9.220223 -5.775001
-2.510461 -10.399168 -5.934174
-2.363551 -10.804498 -4.100471
-2.353896 -14.237634 -4.117894
-2.441138 -15.906325 -2.535810
-2.505421 -16.869464 -1.450820
-2.605648 -18.793339 -1.379715
-2.616190 -20.006100 -2.971693
-2.660470 -21.099402 -2.695493
-2.721887 -22.350401 -1.545619
-2.876121 -26.493247 -1.511079
-2.981122 -27.448177 0.265767
-2.983418 -29.010870 -0.692972
-3.046233 -30.295446 -0.428813
-3.146410 -32.556125 0.204254
-3.445128 -38.490017 1.814951
-3.551046 -40.579770 2.297611
-3.670535 -43.429879 2.841828
-3.832875 -45.128303 3.616468
-3.933505 -47.972206 4.152958
-3.875551 -49.029984 5.468717
-3.830156 -48.916646 5.243750
-3.886226 -49.106045 5.138311
-9.511246 15.319070 -17.959632
-9.348369 15.457750 -17.885005
-9.374703 15.417624 -18.054724
-9.534587 15.279173 -18.127377
-9.683240 15.117523 -18.336858
-9.205995 15.462931 -18.437717
-9.543177 15.128316 -18.884304
-9.690423 15.088347 -18.494594
-9.573530 15.174288 -18.616642
-9.633536 15.231245 -17.851404
-10.368764 14.211957 -18.537206
-10.147703 14.616502 -18.474127
-10.626981 13.091874 -18.818539
-10.739028 10.079951 -18.152270
-10.770645 10.507212 -17.593195
-10.999087 5.355288 -16.642819
-11.042789 4.005069 -16.033217
-11.120618 2.063545 -15.718542
-11.252409 -0.975726 -13.692476
-11.099166 -4.850306 -13.089901
-10.542866 -5.618504 -12.504040
-10.535209 -5.683427 -12.798798
-10.609579 -5.582452 -13.031260
-10.598701 -5.650432 -13.327464
-10.585886 -5.830654 -13.444530
-3.831672 -8.100557 -8.007434
-3.879116 -8.046932 -7.824285
-2.974607 -9.062454 -6.415578
-3.017560 -8.957751 -6.645700
-3.135811 -8.865680 -6.901191
-3.133782 -8.812843 -6.734171
-3.746219 -8.205496 -7.859050
-3.335988 -8.695808 -7.427795
-2.292682 -12.048872 -4.417788
-2.327067 -13.318880 -4.960534
-2.460324 -16.670457 -4.850193
-2.530684 -18.338605 -3.737812
-2.773691 -23.922805 -2.988025
-2.840891 -25.470113 -2.137771
-3.240369 -34.313992 1.196461
-3.328429 -37.543618 0.409974
-3.477478 -40.784691 0.935154
-3.537921 -42.324209 1.308543
-3.798249 -47.864692 2.889433
-3.627582 -48.924007 4.066293
-3.763744 -49.360340 4.113744
-3.577677 -49.189905 4.036284
-9.120244 15.309948 -19.095144
-9.216884 15.358131 -18.901330
-9.495924 15.095410 -19.013717
-9.338426 15.182088 -19.095657
-9.022665 15.274840 -19.231110
-9.101217 15.114652 -19.400406
-9.704549 14.728956 -19.302170
-9.003539 15.097326 -19.491958
-9.605539 14.248510 -19.763148
-10.317824 12.916868 -19.357059
-10.631539 12.337197 -18.647266
-10.306846 11.044574 -19.126149
-10.554872 10.035635 -18.660872
-10.368228 9.059366 -18.857881
-10.816645 8.483441 -17.994634
-10.881390 6.775010 -17.757799
-10.913134 5.775171 -17.744358
-11.025945 2.985089 -17.258746
-11.122787 1.558976 -16.655255
-10.998089 1.804572 -17.292093
-11.233040 -0.326758 -16.049694
-11.236387 -1.678077 -16.464322
-11.114024 -5.027238 -14.681374
-10.587928 -5.725672 -13.627146
-10.580347 -5.853198 -14.308301
-10.547624 -5.950897 -14.660082
-3.768667 -8.230465 -8.668826
-3.566061 -8.543807 -8.782823
-3.625996 -8.519486 -9.317823
-3.795199 -8.168122 -8.372679
-2.988980 -9.346714 -7.814988
-3.566523 -8.566764 -8.943200
-3.634492 -8.491461 -9.164426
-3.439408 -8.756728 -8.907065
-2.681263 -9.926659 -7.124916
-2.277073 -11.872263 -7.093715
-2.282331 -13.117469 -6.484328
-2.307842 -13.309158 -6.112374
-2.314085 -13.455759 -6.256519
-2.313952 -13.499531 -6.406265
-2.313047 -13.420099 -6.572878
-2.297573 -13.934076 -5.985152
-2.334544 -14.660306 -5.937087
-2.484856 -18.009609 -5.995366
-2.585327 -20.401026 -5.402852
-2.681832 -22.249629 -4.610671
-2.851845 -26.359944 -3.956233
-2.900733 -27.403990 -3.121474
-2.967261 -28.992234 -2.161673
-3.026076 -30.467336 -2.680651
-3.107482 -32.105124 -2.165629
-3.228004 -34.732092 -1.134989
-3.259279 -36.010981 -0.931957
-3.255244 -35.912488 -1.119107
-3.261672 -36.056661 -1.253826
-3.260764 -36.157623 -1.030884
-3.423278 -39.387790 -0.552827
-3.434942 -40.135943 -0.942390
-3.666084 -45.074039 1.962332
-3.722219 -46.493015 1.966114
-3.752269 -47.709172 0.517138
-3.680549 -48.528023 2.729463
-3.458555 -49.355368 3.245052
-3.419891 -49.380300 2.052716
-3.542219 -49.524621 2.340328
-8.673464 15.188320 -19.618766
-8.931333 15.064663 -19.595138
-8.636706 15.128244 -19.737593
-8.396621 15.225752 -19.763097
-8.136337 15.109141 -20.064409
-8.569908 14.703845 -20.244478
-9.227225 13.619583 -20.340764
-9.740264 12.705950 -19.982575
-9.711510 11.021202 -19.837622
-9.760804 9.321678 -19.599352
-9.838743 7.818914 -19.370700
-10.184879 6.417085 -18.897443
-10.210818 4.637011 -18.681060
-10.260735 3.099894 -18.458998
-10.634552 0.568016 -17.790896
-11.130035 -0.185136 -16.893717
-10.869225 -1.227080 -17.299249
-10.997190 -1.873196 -17.062794
-10.919335 -2.002350 -17.153161
-10.853480 -2.036938 -17.256709
-11.044404 -1.955095 -16.918994
-11.091091 -2.326899 -16.847863
-10.793242 -2.194396 -17.329136
-10.867739 -2.413385 -17.161489
-10.987535 -2.631315 -17.017999
-10.914453 -2.661979 -17.122327
-11.081686 -2.981135 -16.876352
-11.298991 -4.671700 -15.840840
-11.335537 -4.024862 -16.175712
-11.237954 -3.938165 -16.489267
-10.692761 -5.639661 -16.275937
-11.050026 -5.290578 -15.976998
-10.631730 -5.857458 -14.908809
-10.601437 -6.000004 -15.625506
-10.418956 -6.103193 -15.998127
-3.721332 -8.419271 -9.572985
-3.793871 -8.388025 -10.104507
-3.788522 -8.447457 -10.468636
-3.761034 -8.599943 -11.108447
-3.702383 -8.481585 -9.874741
-2.392198 -11.133414 -8.259642
-2.295073 -13.287234 -6.616009
-2.236914 -12.690414 -7.362939
-2.315675 -14.665337 -7.491927
-2.337752 -15.160114 -7.456317
-2.406154 -16.693397 -7.599722
-2.510563 -19.417780 -7.136461
-2.739219 -24.041200 -5.540371
-2.918823 -28.311913 -5.039205
-2.990564 -29.716929 -4.504067
-3.023411 -30.644739 -4.427061
-3.188485 -34.552415 -3.554218
-3.290559 -36.388776 -1.928801
-3.369859 -38.629960 -2.349073
-3.335352 -37.722581 -1.311180
-3.540989 -42.657153 -1.006335
-3.602455 -44.564107 -0.476373
-3.702262 -46.702792 -0.345268
-3.506738 -49.561319 2.063504
-3.557689 -49.640796 1.515348
-3.656154 -48.823506 1.367276
-3.440693 -49.506012 1.360519
-3.607749 -49.712574 1.156041
-7.549716 15.185750 -20.155026
-7.911169 15.061417 -20.201462
-7.296852 15.112242 -20.287631
-7.501752 14.973115 -20.389693
-7.530730 14.812959 -20.521479
-6.652983 14.995139 -20.471546
-6.822936 15.028973 -20.437203
-6.667996 14.835402 -20.598169
-6.149546 15.135844 -20.337133
-7.374707 14.785808 -20.572583
-7.044349 14.887948 -20.543975
-7.587879 13.951383 -20.968998
-8.436434 13.965454 -20.713229
-8.424085 13.058723 -20.928808
-8.881398 11.733947 -20.586767
-9.176729 8.594991 -19.991729
-9.199561 6.047992 -19.680713
-9.705778 3.470216 -19.029261
-9.834098 -0.252057 -18.531658
-10.336481 -2.324509 -17.880645
-10.790964 -2.311228 -17.300785
-10.822346 -2.572411 -17.249145
-10.854779 -3.672792 -17.154524
-10.282688 -4.154494 -17.700169
-10.833309 -4.532720 -17.003939
-10.152196 -6.199128 -16.276637
-10.317753 -6.146408 -16.082456
-10.010655 -6.358611 -16.293847
-9.842540 -6.293289 -16.523119
-9.967931 -6.399928 -16.420428
-9.730517 -6.325120 -16.602185
-3.760935 -8.691308 -11.666413
-3.943502 -8.513943 -12.126973
-3.314178 -9.242410 -11.294674
-3.073388 -9.543398 -10.473142
-2.673560 -10.305623 -9.981141
-2.478253 -10.985026 -10.591658
-2.269363 -12.240224 -9.339503
-2.258429 -13.616936 -9.452211
-2.453800 -17.727647 -8.705384
-2.562926 -20.593832 -7.111535
-2.644211 -22.151445 -6.323668
-2.832226 -26.554795 -5.531152
-3.028531 -31.051313 -4.554351
-3.069533 -32.362644 -4.842156
-3.383504 -38.916855 -3.195929
-3.271663 -36.483827 -3.273506
-3.358400 -39.563444 -3.303746
-3.365288 -39.673398 -3.285800
-3.533808 -42.756314 -1.800562
-3.609586 -44.516963 -1.922507
-3.704692 -48.697085 0.004913
-3.424512 -49.670681 0.276894
-3.617569 -49.786179 0.712346
-3.562466 -49.830230 0.391475
-3.457979 -49.506523 -0.313044
-3.445877 -49.701349 0.097574
-3.626185 -49.920293 -0.122511
-3.621506 -49.950716 -0.276369
-3.425563 -49.783949 -0.360346
-3.592833 -50.011834 -0.570986
-5.364666 15.012233 -20.426728
-5.836609 14.723868 -20.659014
-5.556506 15.043485 -20.404149
-6.060539 14.746882 -20.651222
-6.691232 14.657606 -20.726677
-6.476385 14.634757 -20.740020
-7.201052 14.254090 -20.959453
-6.900935 14.333084 -20.936672
-4.986206 14.783352 -20.592728
-4.522700 14.906900 -20.485754
-4.741414 14.769203 -20.594339
-4.730872 14.934297 -20.470379
-5.791719 14.575880 -20.759511
-6.462423 14.287914 -20.961950
-6.458189 14.106890 -21.062527
-6.024310 14.247875 -20.973387
-6.031301 14.045145 -21.084188
-7.359588 14.045979 -20.997541
-7.300505 13.597001 -21.133912
-6.604702 13.886870 -21.105738
-6.654479 13.731266 -21.095163
-6.804724 13.929887 -21.080939
-6.839041 13.850863 -21.081431
-6.459995 13.781609 -21.128858
-6.478829 13.710345 -21.120270
-6.232023 13.754096 -21.145772
-6.199003 13.827643 -21.131004
-7.166952 13.373714 -21.171628
-6.258870 13.298699 -21.196247
-7.684346 12.686331 -21.182145
-6.794905 12.877626 -21.309852
-8.101227 10.587195 -20.795817
-7.128954 10.383448 -20.942647
-8.159091 8.204175 -20.472975
-8.809627 7.253016 -20.057334
-7.706992 7.261548 -20.454302
-8.214571 6.402639 -20.232158
-8.418928 3.640212 -19.805469
-8.883105 2.548550 -19.446247
-9.526965 0.618431 -18.852215
-8.801160 -0.063624 -19.167433
-9.196938 -2.277261 -18.722273
-10.167190 -1.477095 -18.138179
-9.776770 -2.898311 -18.299179
-9.343325 -4.545982 -18.300167
-9.979222 -4.769148 -17.744593
-10.064021 -5.475254 -17.234623
-9.264530 -5.677967 -17.621357
-9.679454 -6.231562 -16.759519
-9.314064 -6.199938 -17.017488
-9.040395 -6.352197 -16.945884
-8.756850 -6.283249 -17.098157
-8.104832 -6.466215 -16.929504
-9.389338 -6.297285 -16.871026
-8.806550 -6.381020 -16.942728
-8.358197 -6.432758 -16.955620
-4.204238 -8.358905 -12.842180
-4.241196 -8.423334 -13.191985
-4.096153 -8.523385 -12.900277
-3.962764 -8.542053 -12.319702
-4.232444 -8.496146 -13.486331
-4.563377 -8.282201 -13.928931
-4.401909 -8.398990 -13.791683
-2.455753 -11.326628 -11.994458
-2.259520 -13.474610 -11.176662
-2.351136 -15.992346 -9.917210
-2.420839 -17.236065 -10.211248
-2.498943 -19.198430 -9.967922
-2.540664 -20.419207 -9.081643
-2.630463 -22.490777 -8.575210
-2.701778 -24.122198 -7.939890
-2.743234 -25.087357 -7.534058
-2.908021 -28.765800 -6.823570
-2.987193 -30.412597 -5.839684
-3.030983 -31.982606 -6.337529
-3.293723 -37.980095 -4.025138
-3.290728 -37.801085 -4.424588
-3.303480 -37.954541 -4.552482
-3.286646 -38.133221 -4.134946
-3.288285 -38.169867 -4.293543
-3.348073 -38.593985 -3.782989
-3.306716 -38.076513 -4.531143
-3.303684 -38.418418 -4.119603
-3.357752 -39.468789 -3.501594
-3.365314 -39.831271 -3.392940
-3.363718 -39.859390 -3.554142
-3.417468 -40.721475 -3.219521
-3.456998 -41.360134 -4.022307
-3.721257 -47.240295 -1.540123
-3.443654 -49.831122 -0.690323
-3.464496 -49.858067 -0.863644
-3.628845 -50.086113 -1.070201
-3.626868 -50.108925 -1.227558
-3.432563 -49.666052 -0.912935
-3.440353 -49.943832 -1.333747
-3.916915 14.663263 -20.659874
-3.907016 14.824087 -20.538077
-3.421486 14.959344 -20.417137
-4.127139 14.685394 -20.646577
-4.752366 14.603727 -20.714202
-4.515590 14.587942 -20.722475
-5.807485 14.021235 -21.088885
-5.435900 13.862279 -21.135907
-3.890029 14.506984 -20.768731
-2.588560 14.846294 -20.478188
-2.787422 14.874289 -20.459481
-3.037274 14.727028 -20.587668
-4.675762 14.108141 -21.012384
-4.606009 13.943454 -21.084783
-5.669687 13.876314 -21.129840
-5.739784 13.794600 -21.154138
-5.779333 13.644184 -21.127058
-5.243666 13.749224 -21.146478
-5.045384 13.656596 -21.137284
-5.893280 13.429415 -21.143897
-5.851808 13.228362 -21.220000
-5.469177 13.357579 -21.183164
-5.715494 12.956185 -21.306821
-5.012102 13.740280 -21.127849
-4.694878 13.825886 -21.106735
-5.118809 13.566368 -21.151486
-4.971646 13.418963 -21.182028
-5.261631 13.324700 -21.205288
-4.700960 11.167081 -21.106884
-5.391755 9.490206 -20.859096
-7.504300 7.884894 -20.557651
-6.978657 6.470235 -20.409176
-7.465791 3.871678 -20.030446
-7.821083 2.056982 -19.749439
-8.058403 0.758584 -19.538344
-8.404953 -1.495530 -19.154777
-7.700917 -1.735822 -19.273696
-8.296045 -4.030376 -18.836381
-8.755747 -4.721317 -18.476846
-8.487121 -5.757983 -17.766765
-6.673450 -6.935265 -16.354618
-6.284074 -7.163517 -16.026098
-6.276655 -7.256933 -15.833262
-5.634111 -7.568060 -15.644072
-5.925311 -7.491753 -15.538579
-5.075184 -7.995063 -14.833634
-5.047798 -8.025933 -14.967931
-5.375011 -7.858238 -15.392947
-4.850147 -8.151064 -14.803157
-5.379623 -7.717569 -15.595870
-5.284444 -7.823276 -15.504745
-4.940796 -8.078358 -15.362842
-4.975083 -8.144068 -15.216109
-4.616181 -8.326491 -14.932051
-4.553370 -8.333010 -14.238842
-4.582069 -8.303967 -15.403041
-4.431993 -8.530738 -15.233416
-3.484385 -9.367260 -13.606412
-4.050825 -8.813750 -14.440317
-4.238377 -8.723915 -15.063839
-2.875778 -10.251705 -12.955113
-2.299418 -12.304566 -11.576276
-2.309376 -14.959403 -12.383132
-2.428031 -17.431582 -11.535143
-2.706620 -24.270893 -9.882277
-2.773701 -26.138587 -7.971614
-2.886215 -28.082800 -8.672087
-2.980237 -30.333872 -7.755668
-3.005277 -31.261930 -7.014548
-3.153368 -34.742979 -5.618829
-3.203391 -35.749267 -5.625969
-3.226258 -36.671592 -6.341787
-3.228664 -36.829498 -6.438056
-3.231798 -36.863874 -6.592620
-3.299306 -38.105706 -5.941635
-3.237483 -36.652408 -5.340251
-3.343797 -39.436917 -5.416330
-3.350779 -39.888780 -5.170512
-3.358814 -39.750614 -3.748080
-3.351055 -39.789561 -5.382294
-3.349492 -40.018152 -5.314959
-3.355025 -39.937561 -5.501510
-3.408601 -40.838782 -4.855668
-3.480297 -42.700964 -4.174199
-3.481548 -42.846495 -4.276232
-3.479212 -42.621223 -4.352604
-3.478585 -42.763979 -4.480504
-3.522243 -43.511911 -3.815453
-3.585500 -45.010372 -3.365192
-3.735346 -48.813862 -1.814078
-3.641254 -49.437504 -2.440923
-3.743131 -48.983963 -3.230561
-3.454914 -50.011171 -1.845848
-3.504912 -50.103497 -2.314449
-2.605068 14.680976 -20.613034
-1.954382 14.765181 -20.524170
-2.148539 14.796296 -20.500188
-1.711597 14.750165 -20.527856
-1.945372 14.608097 -20.646963
-3.492033 13.833406 -21.116407
-1.939595 14.448616 -20.761509
-1.076623 14.510887 -20.687892
-1.105899 14.658806 -20.580731
-0.607194 14.796566 -20.457265
-1.288579 14.535032 -20.676732
-2.322628 13.713757 -21.125613
-1.717029 14.425388 -20.770360
-3.785905 13.749428 -21.128265
-3.465777 13.491087 -21.173771
-3.184802 13.577741 -21.159827
-4.463456 12.777397 -21.312310
-2.932629 13.553111 -21.164871
-2.989221 13.450483 -21.179421
-2.873494 13.292813 -21.215029
-2.644535 13.264646 -21.220560
-3.686937 13.093656 -21.260696
-2.733665 11.099390 -21.114470
-3.596284 8.801415 -20.771853
-5.313419 6.604110 -20.454395
-6.048168 4.008711 -20.103146
-6.344294 3.528199 -19.993274
-6.082546 3.619287 -20.010170
-5.566640 3.568018 -19.998302
-6.085243 3.383946 -19.966824
-5.309457 3.444550 -19.969293
-6.338749 3.112674 -19.933997
-5.265335 0.843346 -19.660674
-5.443661 0.034571 -19.552980
-6.555931 0.908834 -19.639995
-5.454232 -0.203908 -19.514022
-5.511264 -0.371896 -19.480278
-6.185481 -1.464492 -19.329316
-6.955214 -5.001748 -18.472785
-6.269289 -6.763873 -16.759272
-5.037474 -7.237708 -16.633153
-4.141622 -7.845764 -16.546852
-4.804270 -8.152062 -15.424747
-4.241703 -8.674189 -15.226133
-4.211871 -7.930578 -16.404608
-3.872053 -8.806281 -15.600765
-3.937619 -8.487783 -16.071077
-3.861707 -8.548534 -16.165476
-3.907436 -8.617491 -16.001024
-3.838451 -8.668891 -16.064045
-4.086672 -8.839363 -15.237800
-4.007464 -8.931737 -15.015542
-3.880717 -8.924149 -15.419238
-3.976030 -8.956041 -15.306124
-3.882220 -9.067169 -15.226240
-3.665740 -9.280784 -15.170524
-3.820046 -8.936509 -15.530285
-3.582842 -9.310363 -15.270576
-3.590745 -9.213346 -15.465902
-3.499620 -9.265450 -15.556434
-3.243680 -9.830901 -14.899757
-3.040173 -10.178368 -15.216663
-2.494421 -11.483816 -14.183364
-2.316577 -12.640517 -13.681111
-2.492098 -18.724648 -12.043960
-2.524593 -19.882042 -11.029874
-2.650586 -22.583718 -10.283780
-2.778578 -25.913969 -10.081722
-2.825046 -27.034190 -10.171158
-3.052744 -32.386345 -9.479616
-3.127427 -34.058358 -7.792370
-3.235269 -36.483781 -6.708228
-3.232267 -36.644887 -6.824640
-3.230085 -36.765774 -6.788700
-3.265914 -37.356211 -7.048171
-3.412918 -40.793872 -6.108709
-3.454486 -41.839597 -5.104957
-3.453362 -42.575787 -7.240099
-3.520501 -43.895320 -5.837322
-3.515731 -44.103538 -5.650076
-3.535484 -43.801583 -6.020118
-3.650127 -46.668612 -3.888725
-3.654363 -46.647169 -5.067718
-3.440390 -50.206513 -3.034419
-3.454668 -49.999440 -2.960281
-1.069828 14.341515 -20.805302
-0.200989 14.571403 -20.613684
0.255555 14.690251 -20.512147
0.015713 14.543870 -20.629473
0.030067 14.713196 -20.500565
0.005050 14.377232 -20.752441
0.214189 14.351245 -20.766599
-1.159816 13.623276 -21.158407
0.655530 14.466408 -20.669654
0.670214 14.308446 -20.786170
-1.011895 13.495093 -21.172216
-2.176892 13.592924 -21.154283
-1.475162 13.533823 -21.163702
-2.308153 13.379308 -21.196227
-1.540419 12.892111 -21.295390
-1.318194 13.401406 -21.195487
-2.442156 12.545882 -21.316234
-0.985521 9.776186 -20.942272
-1.884869 7.618400 -20.622329
-4.684751 8.052028 -20.663497
-2.817408 6.093588 -20.410308
-1.824370 5.589760 -20.326478
-2.062861 5.608916 -20.330428
-5.188370 4.572081 -20.194581
-2.815081 5.483617 -20.326638
-2.313587 5.513768 -20.319630
-2.530625 4.895285 -20.261000
-2.778136 4.798332 -20.253865
-2.859176 4.540185 -20.219811
-2.829639 4.279194 -20.166801
-3.197555 3.978321 -20.103973
-3.387689 3.786442 -20.056685
-3.182708 3.860443 -20.086075
-2.900524 4.087379 -20.141527
-2.635302 3.732288 -20.023449
-2.912803 3.736048 -20.053849
-2.639436 3.838580 -20.054675
-5.859397 3.234988 -19.923735
-3.395549 3.664251 -20.023969
-3.154116 3.551118 -19.995301
-3.412620 3.331830 -19.929434
-3.141406 3.443083 -19.965185
-2.902081 3.649979 -20.023559
-2.618751 3.632117 -19.989220
-3.146139 3.189896 -19.901692
-3.453974 1.708270 -19.822118
-4.464231 1.742191 -19.798924
-4.972307 1.292010 -19.755516
-5.045174 0.927373 -19.691477
-4.020547 1.637418 -19.865826
-3.866008 1.577119 -19.917435
-4.950733 0.047216 -19.710520
-5.170337 0.066489 -19.729262
-4.640559 -0.054325 -19.667958
-4.613327 0.186203 -19.694445
-3.648696 0.242652 -19.579439
-4.116447 -0.309122 -19.566824
-3.937131 0.132350 -19.560937
-5.321915 -0.519243 -19.472035
-5.245437 -0.180303 -19.688894
-4.730369 -0.233957 -19.664391
-5.235854 -0.412390 -19.635156
-5.043116 -0.576572 -19.620009
-5.323953 -0.763529 -19.426594
-5.396703 -1.125143 -19.366776
-5.071763 -0.688666 -19.598209
-4.859165 -0.839249 -19.573292
-4.507476 -0.417224 -19.634000
-4.588875 -0.547780 -19.632547
-4.578337 -0.684142 -19.611973
-3.955129 -0.477540 -19.595799
-4.341818 -0.836294 -19.585262
-4.867921 -0.929248 -19.543848
-4.131706 -0.876633 -19.582828
-4.181722 -1.212129 -19.494723
-4.972290 -1.412675 -19.327003
-4.992853 -1.540284 -19.298153
-4.491823 -1.818861 -19.247873
-4.339958 -1.251851 -19.452373
-4.266156 -1.432252 -19.355396
-4.033240 -1.485855 -19.355314
-4.180491 -1.813020 -19.221148
-3.960568 -1.977938 -19.192101
-3.434472 -2.011766 -19.175119
-6.953788 -3.728730 -18.996251
-4.180113 -4.157986 -18.921197
-5.782876 -4.288181 -18.869593
-5.880498 -5.858693 -17.947319
-4.113689 -7.989641 -16.443338
-3.787227 -8.443519 -16.295905
-3.598191 -8.565992 -16.282087
-3.729413 -8.653370 -16.179028
-3.587772 -8.957939 -16.026208
-3.998691 -7.946852 -16.555188
-3.586747 -9.035638 -15.845408
-3.455868 -9.180688 -15.872983
-3.439176 -9.304572 -15.660152
-3.434326 -9.162278 -16.034405
-2.991653 -9.790986 -15.884103
-3.027400 -9.448604 -16.141144
-3.182686 -9.607445 -16.223833
-2.849041 -9.976490 -15.920520
-2.879099 -9.754380 -16.106839
-2.694438 -10.939526 -15.223036
-2.697700 -10.473148 -15.734806
-2.275717 -13.250669 -15.052569
-2.306677 -14.092790 -13.657263
-2.398291 -16.601744 -13.948804
-2.487605 -18.695439 -13.470905
-2.625554 -22.059972 -12.910245
-2.676570 -23.138500 -12.613853
-2.713757 -24.100589 -12.092957
-2.631298 -24.036702 -12.405618
-2.639600 -26.247515 -11.770585
-2.769260 -26.138308 -11.529456
-2.836484 -27.132781 -11.037689
-2.766411 -26.753535 -11.726966
-2.743798 -27.317795 -11.542196
-2.975860 -30.438934 -9.909786
-3.069825 -32.404505 -10.175917
-3.054760 -32.356795 -9.864160
-3.060556 -32.476331 -9.834681
-3.064648 -32.543555 -10.305621
-3.072448 -32.612155 -9.965496
-3.170272 -34.892375 -8.058208
-3.242814 -37.046932 -7.727734
-3.298825 -38.025781 -6.506812
-3.379043 -40.078295 -7.970674
-3.510954 -42.916434 -6.191824
-3.570022 -43.784316 -7.530384
-3.526267 -43.932754 -6.158764
-3.516920 -44.039957 -5.958726
-3.529368 -43.910776 -7.497366
-3.596559 -45.077446 -6.558075
-3.586662 -45.170263 -6.342205
-3.601726 -45.422493 -6.594171
-3.615474 -45.110688 -6.718967
-3.593660 -45.483091 -6.759957
-3.617794 -45.485053 -5.561051
-3.764762 -49.287905 -4.677131
-3.723666 -49.779940 -6.659407
-3.391178 -50.269212 -4.469062
-3.425319 -50.414425 -4.299297
-3.674388 -49.734928 -4.847488
-3.543543 -50.558141 -5.082869
1.532046 14.378420 -20.721155
1.582632 13.882404 -21.032198
1.107899 14.262937 -20.810800
0.440325 13.692202 -21.113062
0.767534 13.543565 -21.157829
1.402463 13.735835 -21.107961
1.074858 13.639997 -21.136030
1.315885 13.621158 -21.145010
1.562411 13.612378 -21.144161
1.503668 13.511142 -21.157126
0.634470 13.344909 -21.197516
0.774697 13.195779 -21.225205
1.015223 13.179558 -21.228677
1.396586 13.298980 -21.163757
1.571485 13.138285 -21.174123
1.335937 12.855853 -21.251827
1.429855 12.990050 -21.214014
0.422329 12.681754 -21.319394
-0.125559 11.797158 -21.236773
-0.889674 7.988620 -20.683582
-0.344931 6.828814 -20.515641
-1.602639 5.437678 -20.303388
-2.063625 5.366067 -20.291591
-2.094714 5.262606 -20.280480
-2.242153 4.864038 -20.248848
-2.042919 4.707507 -20.222965
-1.913556 5.104181 -20.275960
-1.817070 4.577165 -20.189972
-1.520646 4.441760 -20.136832
-1.639924 5.199622 -20.265373
-2.311998 4.604017 -20.227671
-2.050917 4.477185 -20.172440
-2.333114 4.456531 -20.184469
-2.016718 4.162159 -20.063367
-2.272803 4.212786 -20.100598
-1.741180 4.343598 -20.107801
-1.753381 4.247186 -20.075333
-2.616482 3.962445 -20.076542
-2.319235 4.072763 -20.068639
-2.325737 3.832650 -20.008586
-2.033024 3.695627 -19.960446
-1.768484 4.033635 -20.023827
-1.546371 3.864252 -20.008818
-1.275432 4.303661 -20.108263
-1.270021 4.188535 -20.091293
-1.334462 3.951808 -20.043935
-1.529812 3.091683 -19.933457
-2.066752 3.568750 -19.951202
-2.822878 3.341308 -19.908585
-2.666303 1.660424 -19.798426
-2.178993 1.483585 -19.763510
-2.474863 1.492766 -19.776827
-2.002412 1.336963 -19.742703
-1.766071 1.181481 -19.723020
-1.835050 0.668066 -19.642183
-2.999968 0.146375 -19.614546
-2.879126 -0.030627 -19.626622
-2.939816 -0.175302 -19.642059
-2.717293 -0.338004 -19.630346
-2.332508 -0.068825 -19.590150
-1.966123 0.006674 -19.536328
-2.397069 -0.208446 -19.593908
-2.091964 -0.224915 -19.542677
-2.087250 -0.366122 -19.521118
-4.030889 -0.620135 -19.591905
-3.877849 -0.797799 -19.628834
-2.796919 -1.735849 -19.276484
-2.197259 -0.622546 -19.513402
-2.182996 -0.865000 -19.455363
-2.214963 -1.104858 -19.401153
-2.231552 -0.975090 -19.438807
-1.963438 -1.260572 -19.341110
-3.771602 -1.618515 -19.308012
-3.306656 -1.888096 -19.242482
-3.855105 -2.285535 -19.183864
-3.003383 -2.107950 -19.182592
-2.517359 -1.920618 -19.227012
-4.482932 -2.328349 -19.195318
-2.701299 -2.543965 -19.171534
-2.528071 -4.323902 -18.920096
-4.100654 -5.183456 -18.662396
-4.490894 -6.282249 -17.911986
-3.413451 -7.312027 -17.468850
-2.753987 -9.020099 -16.593674
-1.616202 -9.852983 -17.189798
-2.347689 -10.948717 -15.909271
-2.357734 -11.982876 -15.324645
-1.875902 -11.688654 -16.313430
-2.162245 -13.402210 -15.737186
-2.307317 -14.978535 -16.048284
-2.435999 -17.259121 -15.465252
-2.505618 -19.130492 -14.921214
-2.552291 -20.235258 -13.188351
-2.650003 -22.603859 -13.235495
-2.604534 -21.388122 -13.896699
-2.610154 -22.065057 -13.875154
-2.415758 -22.250611 -13.873856
-2.672973 -22.931493 -13.037312
-2.616882 -22.844536 -13.179747
-2.640463 -22.160711 -13.712222
-2.653520 -22.281746 -13.681602
-2.470809 -22.485003 -13.670418
-2.546057 -23.616489 -12.751499
-2.540537 -23.110495 -13.071747
-2.384395 -24.121937 -12.506961
-2.446488 -23.020040 -13.184809
-1.031048 -24.153994 -12.512939
-2.154384 -25.829724 -11.915702
-2.463084 -27.034909 -11.781941
-2.857389 -28.152353 -11.685484
-2.444048 -28.146882 -11.822196
-2.916048 -28.995398 -11.403256
-2.785958 -28.911157 -11.779889
-2.704707 -28.804358 -11.926370
-2.876613 -29.038180 -11.781651
-2.931436 -29.525275 -11.808351
-2.774640 -29.343804 -11.977770
-2.763811 -29.767180 -12.174086
-2.862085 -29.876412 -12.057433
-2.870077 -30.018269 -12.179893
-3.057653 -32.256560 -10.083212
-3.069922 -32.630633 -10.105405
-3.135505 -34.168872 -9.830191
-3.212506 -35.803978 -10.045034
-3.274686 -37.559270 -9.930606
-3.419455 -40.250622 -9.784313
-3.419458 -40.348693 -9.541604
-3.414589 -40.495439 -9.660739
-3.484627 -42.555850 -8.229810
-3.552312 -43.703607 -7.732777
-3.518163 -44.062938 -7.574700
-3.527043 -44.152010 -7.232163
-3.580632 -44.807757 -7.423390
-3.574432 -44.626001 -7.819746
-3.537933 -43.968551 -7.964550
-3.513994 -44.087973 -7.714540
-3.587827 -44.760684 -7.947397
-3.582318 -44.884439 -7.887922
-3.602534 -45.232901 -8.468802
-3.580779 -44.948671 -7.536805
-3.606223 -45.242741 -6.829319
-3.583488 -44.971517 -7.701984
-3.600083 -45.390332 -6.923925
-3.603807 -45.339330 -8.283414
-3.598975 -45.469780 -8.228996
-3.607562 -45.620976 -8.375095
-3.701714 -48.079225 -6.691721
-3.774948 -49.396118 -6.783154
-3.537087 -50.592663 -5.392435
-3.488376 -50.371026 -6.236985
-3.424194 -50.444647 -5.777485
-3.595230 -50.778924 -6.541530
1.574835 12.711065 -21.205318
1.407826 12.331925 -21.238049
1.681602 12.187319 -21.172963
1.566376 11.929024 -21.173028
1.852824 11.784915 -21.103745
1.693104 11.426667 -21.111507
1.988473 11.275368 -21.044642
1.286833 11.387785 -21.158366
1.871021 11.020922 -21.048591
2.173371 10.873905 -20.971908
2.023462 10.630283 -21.001713
2.363038 10.488079 -20.914595
2.278446 10.363283 -20.930057
2.583122 10.222210 -20.857075
1.842140 9.752374 -20.943275
2.281510 9.712318 -20.894917
2.590998 9.576271 -20.828415
2.515362 9.456409 -20.840131
1.487264 9.008949 -20.849524
1.178795 7.033890 -20.565049
0.343648 5.134838 -20.288246
-0.481573 4.380039 -20.154903
1.052884 3.432144 -20.052475
-1.069546 1.511946 -19.763287
-1.812794 1.048594 -19.699627
-1.404974 0.405425 -19.596101
-0.149531 -0.165912 -19.533770
-1.061443 -0.083617 -19.534388
-1.439413 0.153817 -19.550262
-1.433024 -0.008430 -19.519613
-1.478107 -0.220472 -19.481346
-1.504994 -0.561884 -19.431528
-1.653066 -1.171804 -19.352574
-0.683293 -1.192586 -19.382947
-0.517035 -3.896680 -19.013774
-0.866811 -6.645385 -18.613516
-2.352638 -5.463646 -18.739848
-2.203633 -6.612684 -18.400776
-0.873001 -8.322614 -18.182007
-1.936220 -7.586604 -18.068577
-1.701499 -8.550709 -17.725238
-1.270307 -10.988897 -17.176228
-1.188773 -12.415911 -17.127292
-1.705117 -12.682618 -16.521345
-1.665679 -13.796174 -16.915442
-2.014661 -13.765185 -16.241455
-2.173297 -14.644678 -16.576242
-1.846094 -14.631497 -17.311832
-2.083766 -14.892146 -16.959720
-2.336049 -15.867831 -17.184762
-2.598659 -20.984792 -15.115520
-2.494763 -21.208904 -15.047178
-2.589105 -20.403588 -15.506451
-2.525523 -20.787612 -15.628203
-2.366555 -20.939204 -15.561378
-2.403527 -21.072833 -15.311748
-2.220049 -21.220629 -15.156646
-1.766731 -21.392630 -14.976091
-1.702419 -21.298101 -15.118315
-2.533482 -21.809701 -14.197589
-2.233475 -21.789035 -14.376616
-2.313080 -22.370302 -13.762081
-1.133190 -22.414732 -13.706346
-1.213479 -23.376941 -12.945218
-0.252730 -24.779965 -12.240477
1.217646 -25.516135 -11.999643
0.181115 -26.018755 -11.869694
-0.816458 -26.777454 -11.776321
-0.239915 -28.786843 -11.874059
-2.484547 -29.131745 -12.010137
-2.579680 -29.247308 -12.041739
-2.500675 -29.696183 -12.189990
-2.763571 -30.025086 -12.294790
-2.499337 -29.949534 -12.285917
-2.420337 -29.850826 -12.255036
-2.850974 -30.434723 -12.382295
-2.637654 -30.339605 -12.456933
-2.839135 -30.566967 -12.478102
-2.890127 -30.699133 -12.477933
-2.978510 -30.564007 -12.164153
-2.540278 -30.644462 -12.610252
-2.663300 -30.762737 -12.653044
-2.854000 -30.863083 -12.587079
-2.710543 -31.332641 -13.014222
