# .PCD v.5 - Point Cloud Data file format
VERSION .5
FIELDS x y z
SIZE 4 4 4
TYPE F F F
COUNT 1 1 1
WIDTH 1330
HEIGHT 1
POINTS 1330
DATA ascii
223.7616032 121.2083995 112.3164967
223.4741002 148.7178057 120.0449020
223.4092951 150.9132981 120.3919947
223.3659923 126.1944026 113.7953028
223.3388126 155.3079039 120.9213063
223.2697010 142.1450973 118.5044050
223.2118994 128.4060031 114.3916026
223.1449038 144.3403065 119.0186962
223.1388986 116.2305027 110.4275957
223.0653018 130.6152940 114.9672046
223.0283916 146.5341002 119.5100993
222.8858918 132.8209043 115.6352982
222.8710055 139.9597079 117.8361997
222.8401899 119.5669025 111.5150973
222.5454003 137.2243017 116.9201955
222.4489003 124.5578974 112.9859984
222.3621011 149.8361975 120.0062037
222.3016024 152.0313025 120.3418002
222.2044915 158.6213112 121.1144030
222.1951038 135.0360960 116.1129996
222.1370935 121.7988953 112.0224968
221.9109982 147.6528049 119.4858029
221.7032909 154.2354971 120.5672026
221.6843963 156.4333886 120.7870021
221.6442972 160.8278900 121.2341040
221.4353979 117.9349944 110.4322001
221.4311957 138.3481026 116.8811992
221.2767899 126.2422055 113.1408960
221.2100923 141.6435987 117.7518964
221.1143076 128.4537017 113.7648970
221.0820019 163.5833979 121.4026064
221.0525125 143.8368112 118.3612943
220.9963948 122.9317039 112.0456010
220.9618986 130.6627989 114.3601984
220.9459990 146.0316032 118.8268960
220.7964063 132.8688115 114.9929985
220.7012028 120.1698035 111.0306978
220.6515074 153.1582028 120.1962009
220.5821127 135.6220990 115.8052981
220.5780894 157.5493962 120.7363978
220.5535024 159.7456038 120.9728047
220.2910036 148.2342035 119.2118973
220.2318013 140.5691057 117.1672940
220.2131003 150.4281014 119.5973977
220.0838923 142.7641064 117.7510992
220.0646996 155.3626955 120.3908995
219.9552059 144.9582130 118.2807013
219.8265940 138.9335096 116.5539995
219.7729051 119.0823019 110.2837026
219.4360942 161.4086032 120.9974959
219.4073051 137.2956932 115.9797013
219.3959057 164.1509980 121.3210970
219.3927020 123.5214993 111.6964072
219.2140967 125.7364005 112.3699024
219.2026973 149.3545026 119.1088036
219.1361934 134.0062022 114.8585975
219.1064060 151.5458077 119.5479929
219.0552056 127.9485971 112.9873991
219.0522999 121.3153973 110.8475029
218.9069986 158.6710960 120.6545010
218.8898027 130.1579028 113.6233956
218.8079953 146.6255933 118.3846965
218.7179029 132.3641986 114.2782941
218.4830010 153.7467092 119.8472977
218.4386998 155.9409052 120.1398000
218.2570100 124.6531010 111.7095053
218.2312012 165.8045948 121.4824989
218.1368023 140.6162977 116.5542006
218.0863917 126.8665940 112.3621985
217.9996967 142.8119987 117.1103939
217.9293931 122.4485040 110.8219996
217.9154903 129.0771067 113.0161956
217.8509980 145.0044960 117.7001074
217.7830040 138.4320110 115.7497987
217.7556008 131.2852055 113.6384979
217.7503109 162.5260860 120.9608987
217.6869065 119.6845993 109.6458957
217.5190002 134.5921904 114.5633012
217.4814045 152.1251053 119.2934066
217.3618972 136.7935985 115.1778996
217.3144966 157.0542008 120.1438010
217.2446996 160.3424102 120.5936000
217.2119021 147.2091079 118.0438995
217.1438038 164.7228003 121.2165952
217.1262950 125.7838905 111.7102951
217.1022892 166.9131964 121.5030998
217.0884013 149.3993104 118.5626015
216.9463933 127.9957891 112.3921946
216.8726921 154.3269008 119.5529997
216.7911083 130.2053034 113.0030975
216.6265994 132.4118078 113.6408970
216.4705992 169.1031903 121.8324006
216.3921893 135.7169002 114.5621017
216.3169980 123.0383962 110.4977056
216.1794007 159.2641026 120.2647984
216.1625028 139.0163004 115.4702008
216.1125988 161.4523977 120.6232011
216.0568982 163.6413038 120.9504977
216.0106897 141.2127018 116.0719022
215.9938067 165.8281982 121.2990060
215.9821987 150.5171955 118.5138971
215.9616947 121.3861033 109.7251996
215.8842981 143.4085965 116.6007966
215.8617973 171.2955087 122.0979989
215.7317102 145.6000954 117.2053963
215.6835049 157.6308012 119.9119017
215.4266983 134.6396059 113.9322966
215.3503001 152.7175009 118.8414022
215.2820975 136.8415952 114.5149991
215.2080983 155.9996903 119.4997057
215.1404023 124.7241944 110.6728986
215.0880992 147.8036940 117.5650060
215.0384933 140.1382983 115.4661998
215.0257975 132.9987943 113.2975966
214.9599046 126.9377917 111.3606021
214.9218023 164.7491008 120.9914982
214.9036974 142.3345953 116.0205975
214.8448974 166.9326872 121.3807017
214.7869021 169.6670055 121.7577979
214.7714943 129.1480958 112.0717004
214.7590071 144.5278972 116.6038960
214.7064060 173.4932959 122.2843975
214.6219015 131.3564032 112.6700938
214.4588977 162.0242000 120.4604059
214.3808007 151.0989964 118.1932986
214.3123001 122.5311011 109.5481068
214.1225040 175.6871939 122.4813983
214.0829861 139.0641928 114.8099974
214.0059918 159.2994928 119.8998988
213.9962018 125.8548945 110.7161045
213.9856964 148.9226073 117.5057963
213.9338106 141.2608922 115.4076979
213.8312012 128.0671954 111.3608032
213.7801945 143.4547007 116.0186976
213.7427032 153.2980055 118.5410023
213.6676908 137.4265999 114.2171994
213.6656046 130.2765906 112.0077968
213.6580050 145.6485987 116.5383980
213.6141956 171.3135093 121.9535992
213.5673016 157.1246088 119.3399951
213.4149969 133.5851997 112.9847020
213.2569999 135.7879043 113.6095971
213.1695002 167.4983948 121.2854013
213.1642997 123.6635000 109.6010953
213.1152004 155.4963142 118.8595966
213.0040973 147.8511989 116.9309989
212.9839063 177.3367077 122.5815937
212.8935009 160.4118943 119.8775992
212.8616869 150.0388980 117.5108030
212.7498984 163.6849940 120.5446050
212.6909047 165.8710092 120.8833009
212.5554979 131.4043999 111.9574979
212.5372887 169.6854979 121.6223016
212.4724984 172.9640067 122.0630035
212.2922987 134.7105950 112.9745990
212.2237980 152.2386968 117.8595945
212.1087909 154.4248909 118.3606014
212.0765150 138.0126923 113.8530001
211.9660974 125.3485978 109.8447070
211.9558007 157.7032059 119.0557033
211.9212002 140.2102113 114.4723967
211.8699998 175.1531065 122.3160028
211.7913067 127.5617033 110.5226949
211.7823064 142.4062997 115.0439978
211.6433978 144.6000934 115.6155020
211.6166949 129.7716945 111.2003997
211.4022076 171.3373959 121.7141002
211.2689912 160.9876007 119.6345016
211.2593949 178.9830923 122.7208003
211.1894935 135.8361095 112.9079983
211.1262083 123.7106025 108.7878048
211.0091001 155.5408984 118.3001027
210.9992057 166.9825017 120.8816990
210.9826952 146.8032002 116.0307974
210.9650970 139.1360015 113.8144955
210.9362930 131.9909990 111.6680950
210.8535022 148.9931941 116.5752038
210.8200938 158.8129997 119.1027015
210.8196020 141.3329989 114.4072041
210.7287049 176.8008024 122.4283949
210.6678933 143.5269862 115.0182039
210.6242031 163.1768048 120.0093031
210.6150985 152.8190076 117.5642982
210.5131000 165.3542966 120.5014065
210.3756964 169.1703945 121.1964041
210.2748007 134.2084110 112.0819002
210.2722973 172.4409014 121.7510030
210.2051973 151.1929035 116.9568002
209.9190056 125.3959984 109.0615019
209.8869979 147.9230970 115.9540042
209.8168880 157.7432007 118.5958982
209.7176015 127.6089996 109.8229960
209.7153962 159.9261016 119.0607026
209.6730918 174.6295989 121.9969019
209.6103132 136.4230961 112.5067994
209.6098959 162.1067971 119.5373014
209.6059024 177.9033095 122.4469021
209.5682919 144.6481943 114.9502993
209.5455080 129.8191994 110.4977056
209.5033973 164.2856002 120.0170964
209.3963921 156.1195999 118.0204973
209.3631029 167.5537974 120.6799969
209.3567103 132.5787008 111.2626046
209.2316002 170.8201021 121.3178039
209.0229988 153.4008980 117.2218025
209.0077102 180.0894886 122.6918027
208.9436054 138.6352926 112.9397973
208.7904066 140.8326030 113.5587990
208.7769955 149.0412056 115.9204990
208.6443007 143.0277973 114.1569987
208.5464895 176.2795001 122.0696047
208.4780037 163.2142067 119.5784956
208.4323019 181.7319989 122.8282005
208.3871067 165.3942019 120.0136021
208.2383037 168.6593890 120.7036003
208.2155049 134.2567056 111.3507971
208.1274986 151.2407959 116.3088009
208.1201971 171.9266027 121.3032007
208.0968916 160.5023891 118.8033968
208.0341876 137.0101869 112.0962948
207.9951018 145.2337950 114.5420969
207.9338133 124.8893961 108.0491990
207.9266906 130.9594959 110.2467999
207.9192102 154.5166075 117.1750054
207.8464031 147.4239081 115.1494011
207.8424096 184.4653934 123.0932996
207.7281922 157.7893943 117.9901958
207.7094018 127.1034032 108.8850051
207.5370997 129.3148100 109.5644981
207.4999958 174.1106957 121.6134056
207.4252963 177.3817986 122.0868975
207.2194070 167.5902009 120.2478036
207.1859986 149.6242136 115.5707985
207.1181983 169.7650999 120.7152009
206.8784982 138.6837065 112.2331992
206.8247944 179.5666963 122.3407015
206.7864984 126.0204017 108.1088036
206.7614049 165.9674048 119.7837964
206.7392021 140.8820897 112.8145009
206.7369968 183.3789945 122.8965968
206.6166997 158.9019001 117.9702953
206.5929025 143.0774927 113.4169027
206.5895945 128.2330900 108.8645980
206.5856904 135.3942007 111.1395061
206.5299004 151.8224925 115.9814969
206.4963132 161.0809863 118.4950024
206.4651102 173.0396003 121.2074980
206.3921988 175.2161980 121.5916947
206.3688040 163.2568985 119.0408990
206.3394934 131.5471977 109.8622978
206.2983960 155.6439996 116.9620007
206.2243074 181.7503124 122.5960031
206.1880976 133.7534934 110.4812995
206.1462998 187.2047037 123.2509986
205.9997022 171.4181006 120.7657978
205.9234083 145.2820003 113.8660982
205.8766037 154.0188044 116.3854972
205.7790011 139.8075968 112.1626943
205.7783902 147.4725008 114.4657955
205.6394070 127.1504015 108.1698984
205.6087106 185.0234121 122.9820028
205.4695040 129.3621063 108.8469028
205.3917944 162.1927023 118.4577048
205.2637935 164.3674076 119.0068945
205.2601874 176.8634915 121.6859967
205.2256018 132.6743066 109.8292992
205.1493973 166.5422916 119.5152998
205.1336020 149.6743858 114.8440018
205.0540000 168.7185913 119.9676991
205.0276101 188.8497919 123.3091950
205.0006986 135.9810084 110.7545048
204.9866915 160.0257009 117.7907065
204.9723119 144.2109048 113.1900996
204.9485892 152.4056941 115.6065017
204.8504055 138.1821036 111.3723963
204.8496008 125.5142987 106.9447994
204.7125995 156.2258005 116.6051030
204.6542913 179.0464967 121.9585016
204.6362013 141.4795965 112.2656018
204.5646012 158.4037989 117.2152013
204.5484930 182.8532964 122.5697994
204.4790089 191.5892959 123.4560981
204.3665946 171.9873101 120.5653995
204.2872012 174.1627008 120.9707037
204.2776048 154.5993984 116.0662025
204.2547017 131.5941066 109.2002988
204.1580081 148.6036032 114.2446995
204.0966004 133.8002086 109.8436937
204.0771991 181.2344044 122.1458986
204.0489912 167.6519066 119.4707006
203.9501071 169.8267013 119.9344024
203.9408982 186.1264110 122.9339018
203.9326876 187.7651960 123.0857000
203.8867921 137.1055990 110.7260957
203.8592994 129.9494952 108.5294038
203.8244903 145.8789110 113.3126989
203.7335038 139.3052042 111.3554016
203.6540955 177.4360985 121.4091033
203.6410123 165.4893905 118.8125983
203.5707980 127.1973997 107.4492037
203.5197020 142.6009089 112.2502983
203.4996003 150.8029997 114.6664992
203.4398019 184.5014989 122.5996986
203.3572942 190.4971898 123.3132035
203.3322006 161.6940051 117.7294031
203.2872885 173.0984002 120.4610020
203.2078952 163.8697088 118.2705015
203.1985074 175.2711982 120.8956018
203.0500025 179.6188056 121.6780990
202.9723972 158.9839011 116.8811992
202.9107064 136.0276937 110.1157963
202.8658986 144.8073983 112.6569957
202.8446048 170.9338129 119.9076995
202.8421909 153.0001014 115.0874048
202.7958930 188.8576895 123.1594980
202.7669102 138.2292062 110.7180044
202.7225047 146.9988972 113.2574007
202.6880085 155.1808864 115.7201976
202.6229948 140.4280961 111.3207042
202.5599033 157.3625058 116.2739024
202.4989873 134.3867034 109.4947979
202.4416924 181.7991883 121.9609007
202.4015039 128.3260882 107.5832993
202.2353113 195.9979981 123.5487014
202.2292912 192.6842034 123.4465986
202.1427006 131.6398978 108.6210981
202.1035999 176.3781011 120.8401993
202.0612955 166.0695970 118.4486002
202.0588964 149.1997093 113.6969030
201.9366026 168.2410985 118.9925969
201.9178867 151.3863951 114.2914966
201.7946988 185.0626916 122.4457994
201.7568946 145.9273994 112.6229987
201.7277032 187.2334033 122.8170022
201.6154975 164.4482017 117.9435998
201.5084922 178.5629988 121.0833937
201.4770061 142.0993954 111.4372984
201.3389021 182.9017997 121.9327003
201.3245970 160.6539041 116.8003976
201.2474090 153.5814106 114.7549972
201.2097985 172.5977063 119.7996959
201.2057006 162.8314108 117.3282042
201.1570036 130.5585057 108.0335006
201.1298984 190.5048043 123.1561974
201.1224926 174.7708023 120.2319041
201.0838985 148.1284946 113.0924970
201.0059953 132.7660084 108.6615995
200.9612024 158.4912986 116.0001978
200.8973956 180.7430983 121.3760003
200.8261979 144.3068981 111.8380949
200.8149028 169.8938012 119.0579981
200.7904053 136.0726953 109.5701009
200.7445097 128.9125979 107.4101031
200.7023990 193.3315992 123.3767048
200.6741911 186.1595064 122.4733964
200.6649077 138.2751018 110.1201028
200.6198019 188.3324981 122.8074059
200.5939931 197.7808028 123.5417053
200.5935907 155.7758898 115.1695997
200.5276978 140.4743046 110.7057035
200.5196959 176.9549996 120.4987019
200.5006969 196.0749924 123.4919950
200.4453987 150.3306031 113.4582981
200.2492100 184.0068102 121.8665987
200.0236064 191.6031092 123.1432036
199.9894977 166.1177129 117.8034991
199.9288946 179.1403890 120.7303032
199.8791099 168.2915986 118.3072999
199.8725981 142.6831037 111.1209020
199.7961998 134.9933892 109.0122983
199.7843087 152.5280029 113.8954982
199.6854991 145.9753960 111.9436994
199.6676922 137.1966004 109.5729992
199.5978951 163.9564037 117.0893013
199.5431930 139.3977106 110.1214960
199.4924992 156.8907052 115.1219010
199.4848996 199.7116953 123.5291958
199.3568987 194.0769106 123.2966036
199.3475109 133.3501041 108.5010022
199.3278116 181.3223958 120.9942997
199.2961019 160.1593047 115.9733981
199.2482990 170.4752892 118.6589003
199.1652101 162.3356044 116.5409014
199.1504133 172.6479977 119.1253960
199.0761012 129.4983029 107.2752997
199.0682036 174.8222113 119.5437983
199.0097910 148.1764019 112.4254018
198.9730000 189.4373000 122.7080002
198.9021003 131.7058951 107.9789996
198.8464892 150.9122998 113.1355017
198.7463087 143.8027024 111.1406982
198.6827999 127.8520972 106.5889001
198.5924989 154.7335088 114.2078042
198.5809058 185.6551021 121.8729988
198.4812915 197.1926987 123.3845949
198.4803081 187.8162920 122.3491952
198.4557956 177.0045012 119.8420003
198.3795911 141.0685033 110.2958992
198.3773112 201.6430050 123.4994978
198.2183009 182.9701960 121.0311949
198.1950104 161.2718105 115.9301996
198.1858909 153.1091034 113.5737970
198.0095059 164.5355076 116.7507991
197.8964955 166.7104065 117.2651947
197.8752017 158.0172032 114.9061993
197.8641897 191.0808980 122.7476001
197.8603899 179.1889071 120.0892031
197.7839023 168.8836068 117.7785993
197.7546960 199.7899860 123.4229952
197.6161003 135.0354999 108.6531952
197.6078898 145.4716921 111.2415045
197.5536048 192.4550980 122.9102015
197.4892020 137.2380108 109.2125997
197.4756867 156.3964933 114.2507046
197.4724978 175.9445965 119.2798987
197.3807961 149.3061930 112.2350022
197.3776966 139.4391954 109.7237021
197.2651035 194.3479031 123.0958030
197.2509027 181.3689023 120.3809008
197.2437054 132.2902143 107.8206003
197.2353011 160.2090001 115.2848974
197.1481889 171.0657924 118.1481034
197.1060038 162.3855978 115.8510000
197.0659047 173.2411087 118.5687035
197.0061958 128.4381002 106.4817980
196.9562918 147.6752907 111.6524935
196.9255060 165.6486094 116.6587025
196.8864053 202.9078007 123.4273016
196.8789995 188.3860976 122.0714003
196.8721896 178.1286895 119.5427030
196.8203038 130.6463033 107.2273031
196.8110949 167.8224057 117.1789020
196.7348903 141.6493058 110.1054996
196.7326999 151.5060961 112.6368046
196.6737062 127.1771044 105.8930978
196.6357976 143.8473016 110.5792001
196.6322064 183.5452020 120.7021996
196.6134906 197.7926046 123.1971979
196.5460926 154.7847986 113.4649962
196.5278089 196.0889995 123.0608970
196.4906007 185.6980026 121.3067025
196.3155121 158.6018950 114.4718975
196.2826997 180.3137958 119.7734028
196.2660998 201.0554075 123.3237982
196.1842030 170.0072885 117.5222024
196.0873008 172.1806973 117.9893017
195.9972978 174.3538082 118.4352040
195.9871054 146.0527033 110.9821051
195.9709972 164.5890027 115.9989014
195.8784908 206.5466046 123.3744994
195.8404928 166.7612046 116.5707037
195.7810968 204.8397958 123.3707964
195.7675070 190.0289059 122.1212968
195.7062930 192.1972930 122.4792004
195.5800951 132.8737885 107.6822951
195.5612898 153.7151039 112.8902957
195.5488026 193.5767978 122.6354018
195.5247074 162.9662961 115.4887974
195.4445094 155.9001058 113.4205014
195.4244971 135.0767016 108.3351001
195.4037994 176.5404940 118.6774969
195.3810006 186.7963970 121.3076040
195.3233033 148.2542008 111.4341989
195.3049898 208.6265981 123.3164966
195.3049898 137.2787952 108.8743955
195.1981932 139.4795030 109.3740985
195.1905042 160.2610946 114.5450994
195.1830983 181.9644868 119.7815016
195.1604038 202.9871941 123.2727990
195.1517016 131.2305033 107.1029007
195.1298118 152.0868093 112.3289019
195.1134950 171.1207032 117.3932031
195.0157881 173.2932031 117.8637967
194.8486865 128.4824908 106.0447022
194.8155016 196.1722970 122.7502972
194.8103905 178.7259132 118.9209968
194.7433054 168.4194058 116.5635958
194.7333068 210.7071131 123.2381016
194.6991980 191.1361963 121.9972968
194.6815103 150.4555941 111.8192971
194.6060061 198.9134997 122.9544953
194.5476085 141.6881979 109.7844020
194.5112050 184.1278076 120.2704981
194.4553107 143.8859999 110.2393046
194.4255978 175.4812896 118.0964932
194.2804009 158.1056118 113.6561930
194.2115873 180.9089035 119.1820949
194.1490024 206.6251040 123.2594028
194.0959990 161.3746881 114.4832000
194.0227896 200.9907961 123.0059937
193.8996017 164.6371037 115.3479964
193.8475072 156.4802974 113.0996048
193.8325018 177.6676029 118.3394045
193.8200146 203.7339956 123.1340021
193.8057989 146.0903883 110.6488034
193.7974989 187.3707026 120.9760010
193.7917024 166.8131948 115.8520952
193.7076002 189.5328015 121.4243025
193.6995983 148.8336921 111.1892983
193.6974078 194.1813082 122.2620979
193.6824024 129.6088994 106.1867997
193.5947984 192.7794963 122.0282987
193.5431063 140.0597990 109.2205942
193.5292035 152.6675969 112.0152995
193.4269965 132.9172999 107.2426960
193.4098899 154.8531950 112.5567034
193.3944970 185.2252036 120.2939972
193.3856010 211.4517987 123.1817007
193.2915002 135.1206005 107.8360006
193.2908893 214.7224993 122.9079962
193.2528019 179.8557043 118.5413972
193.1748986 169.0010130 116.1672994
193.1553930 159.7653031 113.7309000
193.1547970 137.3213977 108.4334031
193.1051016 182.0107996 119.1710979
193.0736005 151.0359049 111.5273982
193.0729002 171.1746007 116.6540012
193.0453926 208.5576057 123.1838986
192.9687113 173.3459979 117.1480045
192.9541081 163.5781974 114.6551967
192.8323954 165.7532007 115.2042001
192.8166002 197.2955912 122.4086955
192.7974969 144.4638968 110.0995988
192.6420033 216.1761969 122.8533983
192.6340908 190.6387955 121.3168055
192.5209016 161.9566083 114.0998974
192.4457997 131.8373978 106.6384986
192.4363971 184.1744930 119.6544021
192.3862994 141.7288035 109.3856990
192.3807114 175.5347997 117.3752993
192.3104972 186.3300949 120.2170029
192.2908872 134.0411007 107.2957963
192.2307014 199.3721873 122.4924996
192.2014058 158.1526995 113.0180955
192.1914965 205.5202872 122.9811981
192.1683103 146.6690004 110.4480997
192.1468973 136.2425983 107.9184040
192.1073049 170.1156050 116.0278022
192.1043992 203.8162947 122.8603944
192.0209974 138.4425014 108.4832028
192.0199990 202.1130919 122.7095053
192.0040995 172.2882986 116.5198013
192.0012087 213.1515890 123.0625957
191.9995993 194.2685992 121.7863038
191.8025017 155.4322094 112.2684032
191.7926073 177.7223945 117.6036969
191.7084008 167.4075872 115.2826026
191.6920990 188.5019988 120.5448955
191.6905046 211.6205990 123.1285036
191.5698946 129.6540052 105.6131944
191.5673018 191.7463094 121.1894006
191.5594041 209.8236978 123.0566055
191.5422976 148.8724947 110.7873991
191.5176958 182.5856864 118.8466027
191.4526075 218.0933952 122.6484030
191.4344877 151.6124010 111.3364995
191.4061010 174.4759083 116.7789996
191.3648993 140.6508982 108.9168042
191.3596988 153.8038999 111.7394045
191.3067997 132.9618990 106.7011058
191.2942976 219.5632011 122.5030944
191.2517995 142.8471059 109.4417050
191.1882907 179.9051911 117.8846955
191.1479086 135.1637989 107.3732972
191.0877079 207.4526995 122.9083017
191.0859942 195.3593045 121.6825992
191.0697967 159.8112881 113.1158993
191.0251081 137.3648942 107.9301015
190.9499019 162.5390947 113.7036979
190.8365935 164.7166014 114.2295972
190.8132881 176.6632944 117.0230061
190.7462031 215.5838907 122.8545010
190.7411963 186.9082004 119.8406965
190.6045079 145.0514942 109.8501012
190.5988008 190.1493967 120.5421016
190.5316859 147.2472996 110.2469042
190.5301064 199.4586885 122.0487952
190.4786974 205.6033909 122.6774976
190.4544979 197.7578998 121.7972040
190.3954893 203.9006054 122.5112975
190.3704107 184.2233986 119.0102026
190.3516948 139.5732015 108.4206998
190.3399080 131.8825036 106.0490012
190.2471930 141.7708993 108.9197993
190.1954114 156.0110003 111.9809002
190.1938021 212.0060027 122.9648963
190.1777983 134.0858042 106.7342013
190.1614964 167.9933965 114.8160025
190.1078075 158.1975967 112.4261990
190.0901049 201.0160089 122.1179962
190.0843978 181.0081899 117.8667992
190.0594085 170.1681018 115.3069958
190.0222003 136.2864971 107.3982045
189.9649948 172.3427027 115.7740057
189.9562031 214.0174955 122.8742003
189.9441034 130.2395910 105.3576991
189.9432987 193.6962008 120.9875047
189.9131984 210.4233950 122.9083985
189.9041981 149.4497061 110.5943993
189.7644997 177.7799129 116.8283001
189.7445917 174.7265905 116.2471026
189.7174120 166.3727015 114.2935008
189.7148043 154.3783993 111.5716994
189.6517873 188.5574013 119.8249981
189.6356046 208.8325024 122.8383034
189.6076947 143.9768970 109.3043983
189.5803064 128.5957098 104.5609936
189.5610988 217.4980044 122.6405054
189.5133108 126.9859970 103.9390042
189.4906014 160.3928059 112.7437949
189.4338131 190.9670979 120.2428937
189.4201934 183.1741035 118.3408946
189.4004941 218.9733982 122.5086004
189.2890036 185.3294075 118.9254001
189.2699003 151.6494006 110.9648943
189.2509013 140.6949013 108.3697006
189.2496049 220.4324007 122.3398969
189.1378015 179.9578965 117.1824038
189.1207993 196.0721016 121.0898012
189.0906096 221.9026983 122.2044975
189.0729070 206.0617059 122.4657968
188.9591068 146.1798996 109.7198054
188.9432073 223.3538032 122.0249012
188.8843924 162.5881046 113.0276024
188.8702959 137.9584074 107.5506955
188.8234019 215.4432982 122.7085069
188.7850910 176.7207086 116.2453964
188.7772083 164.7666991 113.5370061
188.7166053 198.8078058 121.3871017
188.6820942 187.5052899 119.2198023
188.5886937 189.6667033 119.6849942
188.5403991 203.2274902 121.9656989
188.4611100 194.2335963 120.5559000
188.4407997 210.7696980 122.6482987
188.4282082 172.9303002 115.2781993
188.3381009 184.2805892 118.2575971
188.3345097 148.3829916 110.0597978
188.2644892 192.4642920 120.1483011
188.2514060 131.9281012 105.4036021
188.2512122 150.5749077 110.4929969
188.2480085 201.6230077 121.6384992
188.2186979 175.5260080 115.7651022
188.1823987 212.8195912 122.6454973
188.1813109 152.7669132 110.8831987
188.1795973 209.1504931 122.5080043
188.1183088 168.0465937 114.0751019
188.0929023 142.3625946 108.5465997
188.0859137 134.1312975 106.1042994
188.0704015 156.0516953 111.4879996
188.0238056 170.2230126 114.5446971
188.0115122 181.0556948 117.2376052
187.9971921 158.2399011 111.8891016
187.9805028 197.5180060 120.8994016
187.9373938 136.3323033 106.7501009
187.9267991 207.5137049 122.3326027
187.9161000 160.9750092 112.3571023
187.9114062 129.7336966 104.4857055
187.7983958 163.7021899 112.9432991
187.7628863 125.8772016 102.8174981
187.7211034 177.8341979 116.0990000
187.7071112 165.8826023 113.4030968
187.7014041 216.8526053 122.5077957
187.6202971 188.6153966 119.0747023
187.5413060 190.7801032 119.4951013
187.5384003 128.0885935 103.7136987
187.5002980 223.2570946 121.9393015
187.4614954 144.5683986 108.9086011
187.3719096 183.2274050 117.6365986
187.3700023 219.8231965 122.2954020
187.3662025 204.7371119 121.7965037
187.3493046 224.7136980 121.7788011
187.3361021 147.3096907 109.5203981
187.3275042 195.6692934 120.3337982
187.3026043 172.2927988 114.7040054
187.2642040 138.5417879 107.2460040
187.2545034 185.3861958 118.1802973
187.2124970 221.2933004 122.1586019
187.1643066 151.6929865 110.4061976
187.1493012 199.6375024 120.9294945
187.1358901 140.7386065 107.8272015
187.0498955 214.2478973 122.4817932
186.9857907 157.1681947 111.3965958
186.8959069 201.7772049 121.1718991
186.8553907 174.0588099 114.9390042
186.8444085 192.6942021 119.6016967
186.7819130 230.4718047 121.0030019
186.7147088 149.5120972 109.8527014
186.6476983 187.5623912 118.4765026
186.6368949 217.7637964 122.3402023
186.6157949 227.1088958 121.4924008
186.5901053 210.5045915 122.1981943
186.5706891 153.8954079 110.6496975
186.5594983 189.7254884 118.9270988
186.4954978 142.9453045 108.2194000
186.4857078 228.5304964 121.2529019
186.4852011 207.8063041 121.9399050
186.4698976 165.3940976 112.8451005
186.4046007 159.3692005 111.6010994
186.3217950 130.3202063 104.1136011
186.3197982 212.5782967 122.2518012
186.2675995 206.1042935 121.6150969
186.2135082 170.1903045 113.7794033
186.2034053 197.0897913 120.0810969
186.1477047 178.4135997 115.7239974
186.1339957 132.5252056 104.8927978
186.1154884 167.7351147 113.2002994
186.0828996 161.6434008 111.9121015
186.0381067 124.7955039 101.6644016
186.0007048 180.5704087 116.3657978
185.9889030 134.7288042 105.5319011
185.9486997 128.6755949 103.3386961
185.9347969 215.6488895 122.2563013
185.9129071 224.6088982 121.6726005
185.9098971 156.1904997 110.9141037
185.8621091 145.1504081 108.5907966
185.8256012 136.9284987 106.2304974
185.7647002 176.2637943 114.9602979
185.7578009 203.2205015 120.9983006
185.7441962 221.6434032 121.9182983
185.7400090 163.9747024 112.2205928
185.6980026 194.1546947 119.4289997
185.5918020 223.1052965 121.7666045
185.5887026 188.6734068 118.3224022
185.5750978 127.0288974 102.5626957
185.5092049 190.8383071 118.7461987
185.4788065 219.6398079 122.0427006
185.4349971 199.1804987 120.1374009
185.4083985 172.3975986 113.9173955
185.3968054 153.0490965 110.1964042
185.3846014 166.3244963 112.5838980
185.3601038 182.7424914 116.7706028
185.2494925 184.9036962 117.2955036
185.2353066 147.3540068 108.9420989
185.2120906 213.9686048 121.9934970
185.2054000 231.8067998 120.7154021
185.1730943 200.7670999 120.3299016
185.1677001 139.1384006 106.6809967
185.1340979 150.0948071 109.4786972
185.0695908 233.2343012 120.5046028
185.0396991 179.5165986 115.7216057
185.0395948 228.4442037 121.1957037
185.0371957 141.3346976 107.2731987
184.9493980 159.5655978 111.1097038
184.9379987 234.6545011 120.2782989
184.9192977 209.1223001 121.5322018
184.9032044 229.8753113 120.9853962
184.8565042 225.5084068 121.4932054
184.8447025 206.3623965 121.1382970
184.8303080 217.0335948 121.9950989
184.7671121 197.3547041 119.6162999
184.7290993 157.7229053 110.7385010
184.7082078 226.9606888 121.3295981
184.6828014 170.9907949 113.2882014
184.6674979 177.3704141 114.9212047
184.6407950 187.0801002 117.5995991
184.6369058 125.9448975 101.7992049
184.6289933 211.2361044 121.6744035
184.6262962 204.6536952 120.8060980
184.5932007 174.6219993 114.1069010
184.5867038 168.5278863 112.6878932
184.5538914 195.6121922 119.2547977
184.4000965 143.5412019 107.6583043
184.3502969 129.2622089 102.9928997
184.3355000 173.3088940 113.6322990
184.2996925 183.8549078 116.6175976
184.2544973 146.2819129 108.3422005
184.2143983 154.5859128 110.0170016
184.1667891 131.4695030 103.7634984
184.1652989 161.7554873 111.1427024
184.1645092 222.9855955 121.6221005
184.1292977 201.7336041 120.1178953
184.0911955 215.3812945 121.7953041
184.0741038 219.4803059 121.7975989
184.0016991 133.6739957 104.4733003
183.9739084 180.6289107 115.5833006
183.9353889 192.5079077 118.4697002
183.9074939 220.9687978 121.7067018
183.8466078 164.0463024 111.3650948
183.8231981 135.8746886 105.2274033
183.7077886 124.8600036 101.0015011
183.6466044 148.4865993 108.6336970
183.6256981 151.9978940 109.3130037
183.6244017 198.8101900 119.4506958
183.6221069 171.8782932 112.9477024
183.5871041 188.1929040 117.4274981
183.5855991 189.6176040 117.7242994
183.5570037 239.2960042 119.4206029
183.5404038 169.3859994 112.2782975
183.5255027 166.3368940 111.6013005
183.5208982 212.6291990 121.4170009
183.5162938 127.0744950 101.8021032
183.5039109 234.5544994 120.1868951
183.5035980 159.7626954 110.4822010
183.4407002 240.6898886 119.1386059
183.4342927 230.2329987 120.7726970
183.3845079 235.9561026 119.9145988
183.3412945 150.6775916 108.9149043
183.3392978 182.8027964 115.9716994
183.2970977 231.6651046 120.5705032
183.2805872 226.8453985 121.1965010
183.2794994 157.9228938 110.1169959
183.2657903 218.3518112 121.6233969
183.2626909 207.7060938 120.7907051
183.2612008 237.3629063 119.6594983
183.2357943 184.9661022 116.4761931
183.2282990 130.3893030 103.0048952
183.2147986 204.8887908 120.2728003
183.1758022 138.0867064 105.6463048
183.1592023 233.0974042 120.3727052
183.1423938 155.4840952 109.6626967
183.1416041 228.2833010 120.9997013
183.1281036 195.8547980 118.7369972
183.1233054 177.9567003 114.4495010
183.0726862 175.4098088 113.5962009
183.0419004 132.5948983 103.7881970
183.0278039 140.2833015 106.3003987
183.0227077 224.8356044 121.2809980
183.0013990 203.1629980 119.9092045
182.9914004 216.7602926 121.5183064
182.9728931 209.8267972 120.9392995
182.9306930 194.0751970 118.2990000
182.8740984 134.7976923 104.5094952
182.8159094 174.0926057 113.1099015
182.8052998 144.1237032 107.3246002
182.7680916 168.4678048 111.5474999
182.7496886 165.4161960 110.8750999
182.5661063 172.7575064 112.5904992
182.5399995 152.9223025 109.0067998
182.5160980 220.7890898 121.4100048
182.4891120 200.2537996 119.2626059
182.4613065 146.7477977 107.8137010
182.4357063 181.2162995 115.0951982
182.4336946 191.0930872 117.5701991
182.4117005 214.0249908 121.1709976
182.4074984 161.1296982 109.9723950
182.3960990 142.4915045 106.6706032
182.3486090 222.2796977 121.3286966
182.1684986 243.9427078 118.6204031
182.1262985 163.3549035 110.0495011
182.1136922 149.1443068 108.1558987
182.1072996 131.5156966 103.0158028
182.1004003 156.3225985 109.1858968
182.0793003 139.2095089 105.5841967
182.0455045 245.3439087 118.3706000
182.0197999 167.4968004 110.7067987
181.9970012 197.2922087 118.5214967
181.9938123 170.6299037 111.5723029
181.9898039 176.3430089 113.3653000
181.9830984 188.0084127 116.6376024
181.9311976 179.4914007 114.3575981
181.9265038 133.7198913 103.7833989
181.8750054 242.0108020 118.8450977
181.8663925 128.2144040 101.6658023
181.8571985 211.2348080 120.7119972
181.8211973 158.5563123 109.2524007
181.8002909 151.4651030 108.3592996
181.7857921 237.7346903 119.4924042
181.7740053 135.9221041 104.4560000
181.7436963 232.9685092 120.2040017
181.7319095 228.1412929 120.7970977
181.7093045 219.6589112 121.2273985
181.6862077 186.0975027 116.0719022
181.6491932 239.1611934 119.2963049
181.6461086 206.2102109 119.8645979
181.6238016 224.6728092 121.0254952
181.6083044 234.3970090 119.9999973
181.6022992 229.5646966 120.5660999
181.5807968 203.4093887 119.4018051
181.5704107 125.4588068 100.5366966
181.5191954 240.5765951 119.0738976
181.5064996 153.7411064 108.4845960
181.5060973 194.3109035 117.7638993
181.4792007 235.8148098 119.7715029
181.4644039 226.1468023 120.9154949
181.4557910 231.0135067 120.4061955
181.4382970 161.8272960 109.2078015
181.4333051 218.0695981 121.1227998
181.3627034 183.0327064 115.1145995
181.3625991 201.6831040 119.0464050
181.3527048 208.3452046 120.0363040
181.3343018 174.8040020 112.4298051
181.3037992 215.4195011 120.9268048
181.2953949 192.5453097 117.3683032
181.2864989 166.4895862 109.7920015
181.2803000 169.5950031 110.5859950
181.2542975 144.7100937 106.8457067
181.1686009 178.5823107 113.6117056
181.1678857 164.0333980 109.2457995
181.1114997 138.1334960 104.9290001
180.9817106 140.3317004 105.5271029
180.9340119 177.2255003 113.0245999
180.9139997 171.9693989 111.0356972
180.8677912 198.7274885 118.3061004
180.8670908 159.2191011 108.4121987
180.8305085 189.4876957 116.4833978
180.7691008 180.9896976 114.2069995
180.7577014 212.6163095 120.4243004
180.6885004 156.8558067 108.1106067
180.6378067 124.3728995 99.7434258
180.5981994 149.8755068 107.4823961
180.5707961 168.5446948 109.5703989
180.5617064 221.5238065 120.9094003
180.5263907 146.8376070 107.0007011
180.5091947 154.4854045 107.8089997
180.4994047 162.4633074 108.3115041
180.4476976 126.5887916 100.5486026
180.4044992 242.3781008 118.6710000
180.3451926 167.1369076 108.9219972
180.3269982 195.8762109 117.5733060
180.2716106 243.7961996 118.4649989
180.2400947 164.6499038 108.3084047
180.2391112 209.7516954 119.7974980
180.2248955 170.8862036 109.9388003
180.2223921 184.4907999 114.8895994
180.2022010 187.5357926 115.7354936
180.1582873 129.9054027 101.7698944
180.1517904 137.0572895 104.2442992
180.1414043 174.1278023 111.0709980
180.1331043 142.9353952 105.9674993
180.1320910 245.2234030 118.2885990
180.1083982 179.4749051 113.2986024
180.1081002 240.4472977 118.9032942
180.0771952 225.9663939 120.6137016
180.0644994 235.6871963 119.6057945
180.0516993 230.8652997 120.1862991
180.0310910 204.6974897 118.9072058
180.0141037 218.3372974 120.6718013
179.9873114 132.1126968 102.5101990
179.9819916 246.6651052 118.1574017
179.9582988 159.7892046 107.3751003
179.9483001 201.9143105 118.5016036
179.9322069 237.1101081 119.3946972
179.9255908 227.4284065 120.4766035
179.9138039 232.3009074 119.9954972
179.8909009 151.9351900 107.1876958
179.8764020 192.7659065 116.7972013
179.8312068 248.1064051 118.0304065
179.8274964 134.3172044 103.2126993
179.8238009 223.9425927 120.6668019
179.8079014 238.5194004 119.1507056
179.7828972 233.7244004 119.7763979
179.7759980 228.8858891 120.3327030
179.7747910 145.3757882 106.3706949
179.7650009 220.3755975 120.6792966
179.7640920 216.6988105 120.4506978
179.7391027 200.1629025 118.0962995
179.7301024 206.8545073 119.1196963
179.7295958 161.9223058 107.2418988
179.6894968 190.9471005 116.2893027
179.6829998 249.5426983 117.8939939
179.6614081 213.9935046 120.1302037
179.6345115 169.1838950 108.6826995
179.6303988 182.4456006 113.9672026
179.5817018 166.5962934 107.8395993
179.5628965 155.1242024 106.9141999
179.5347035 250.9779036 117.7593991
179.4851124 164.0841961 107.1792990
179.4656068 173.0231047 109.9172980
179.4642061 147.7097869 106.5752059
179.4145107 178.4277111 112.2474000
179.3816090 157.1701914 106.5761000
179.3811023 141.4662004 105.2493006
179.3383956 176.3435900 111.2447977
179.2747974 171.5556979 109.1184989
179.2442948 197.1907914 117.3340008
179.2232990 128.8235933 100.9889022
179.1967005 159.2212915 106.2557027
179.1338921 211.1448050 119.5309013
179.0959984 150.9967893 106.4705998
179.0594012 188.9996082 115.5423969
179.0430993 131.0324967 101.7630026
179.0325046 222.7889001 120.4150990
179.0235043 143.9049989 105.7291999
179.0184081 138.7303919 104.3478996
178.9927036 161.3088995 106.0193032
178.9080948 168.5725003 107.4408069
178.8986921 153.0835032 106.1986014
178.8489968 127.1760017 100.1984030
178.8439900 165.9980863 106.6341028
178.8168997 184.6654117 114.2123044
178.7554920 163.4609997 105.9283018
178.7505895 194.1983104 116.5543944
178.7177026 135.4416013 103.1927988
178.7138134 146.2438107 105.9334055
178.6897033 240.3291911 118.7632978
178.6758006 175.2180010 110.0345999
178.6347032 123.3079955 98.6966193
178.6269099 208.2449943 118.8341975
178.6109060 156.6105932 105.4811031
178.5928905 180.6726009 112.5170961
178.5607040 241.7443991 118.5441986
178.5487980 170.9499061 107.8806967
178.5176992 173.6900061 109.0920046
178.4801930 219.6090966 120.1848015
178.4660965 125.5261004 99.4347259
178.4514040 158.6133987 105.0526947
178.4494072 187.0032996 114.6983057
178.4248054 243.1690097 118.3551028
178.4023046 238.3802980 118.9533994
178.4002036 228.6898047 119.9878976
178.3892959 203.2184005 118.0382967
178.3856899 233.5675955 119.5329949
178.3629060 216.9331014 119.9150980
178.3327907 149.5665014 105.8880985
178.3298999 200.3799975 117.5170988
178.2984883 225.2026945 120.1658025
178.2850921 244.5982993 118.1831956
178.2841980 191.1367029 115.6460047
178.2713979 142.4275041 105.0809026
178.2635897 160.6725007 104.7485992
178.2570928 177.6888967 110.7352972
178.2525033 234.9950969 119.3279028
178.2505065 230.1477939 119.8491007
178.2263964 221.6560990 120.2208027
178.2021970 167.9131985 106.0959995
178.1601012 151.6060084 105.5110991
178.1484038 165.3084010 105.2329019
178.1407893 226.6777009 120.0590953
178.1349033 246.0422963 118.0571988
178.1304032 215.2577937 119.6103990
178.1197935 236.4205867 119.1216931
178.1124026 198.6340880 117.1348020
178.1118959 231.5870076 119.6650043
178.1092137 250.8789897 117.6751032
178.0966967 205.3692043 118.2244048
178.0700982 137.6551092 103.6212966
178.0447960 162.7924889 104.5811027
178.0406088 212.5184089 119.2203015
178.0086011 153.5991132 105.0444990
177.9924035 247.4734038 117.8999022
177.9593080 252.3164153 117.5523028
177.9506058 144.7971910 105.3371951
177.9389977 139.8544014 104.2296961
177.8824031 132.7100992 101.9542962
177.8600067 170.2634990 106.4684018
177.8419912 248.9149868 117.7771986
177.8074056 156.5319002 104.2357981
177.8002083 253.7660003 117.4700037
177.7870953 173.0971932 107.8748032
177.7676940 182.9223037 112.8135026
177.7366102 175.8704036 109.1785952
177.6923984 186.0964894 113.9304936
177.6708066 147.0741034 105.4204032
177.6658893 158.5010141 103.7307978
177.6430011 255.2113831 117.3808947
177.6098013 195.6591904 116.3825989
177.5165945 209.6488029 118.5858026
177.4969995 167.2451943 104.7326997
177.4961948 224.0670919 119.9569032
177.4936020 177.1738976 109.6780002
177.4912030 160.5370045 103.3718064
177.4443984 164.6278948 103.8516983
177.4442047 179.9232066 110.9720021
177.3974001 150.1708925 104.9172953
177.3208082 188.4424984 114.4445017
177.2727966 162.6603007 103.2053977
177.2257984 153.0482024 103.9765030
177.1689057 169.5740074 105.0494015
177.1489978 192.5881058 115.4382005
177.1368980 128.8683861 100.3191993
177.1329045 172.3459959 106.3115969
177.1242917 154.9387127 103.2949984
177.0258099 175.2422005 107.8758016
177.0078987 238.2235974 118.7079996
176.9977957 156.8809003 102.7240008
176.9897044 206.7681998 117.9523990
176.9700944 131.0779005 101.0534018
176.9499034 185.1560920 113.0901054
176.8764108 239.6457046 118.5014993
176.8495888 158.8668972 102.2491008
176.8247932 218.2119042 119.4394976
176.8146902 166.5229946 103.2527983
176.8061966 126.6670972 99.3331522
176.7680049 226.4727056 119.6930036
176.7570078 201.7086893 117.1052009
176.7379045 241.0776019 118.3262020
176.7306030 236.2536937 118.8495010
176.7299920 231.4032018 119.3504035
176.7245084 215.4960036 119.0833971
176.7205000 134.3860030 102.1528989
176.7122000 198.8296062 116.5037975
176.7120063 222.8979021 119.6658015
176.6891927 179.3960035 109.8807007
176.6667962 164.5088941 102.4968997
176.6607016 160.9355956 101.9545943
176.6130030 227.9436886 119.5799038
176.6011119 242.5058037 118.1451008
176.5756011 232.8680009 119.2381009
176.5664071 220.2737033 119.5027009
176.5325963 190.6103045 114.6119982
176.5232980 150.6428123 103.6719978
176.5030921 213.7932032 118.7200025
176.5023917 123.9072010 98.2098952
176.4971912 197.0695108 116.0980985
176.4862090 168.8594073 103.5764962
176.4732003 203.8524896 117.2626019
176.4679998 229.3972075 119.4257960
176.4608026 243.9382076 117.9800034
176.4553040 152.4652988 102.8422043
176.4519066 171.6395020 104.8462987
176.4468998 234.2905998 119.0176010
176.4248908 248.8029003 117.6541969
176.4163971 211.0359967 118.3011979
176.3793975 140.4405981 103.7693024
176.3482094 174.5413095 106.4131036
176.3148010 245.3780919 117.8406999
176.3084978 147.0458061 104.3315008
176.2790978 250.2375841 117.5170019
176.2727946 143.0496126 104.2086035
176.2471050 181.9081008 110.7062995
176.2365997 177.4408966 108.0080047
176.1855930 259.9343956 116.9838011
176.1770993 157.2489887 101.2462005
176.1596948 246.8305975 117.7416965
176.1251986 251.6832054 117.4160987
176.0756969 136.6011947 102.5746986
176.0724038 162.7494991 101.1610031
176.0278046 166.4244980 101.9357964
176.0261953 154.3643028 101.0513008
176.0194004 159.2581868 100.8150056
176.0132015 194.0420121 115.2414978
176.0126948 145.2942044 104.2146012
175.9987026 183.2139045 111.2397984
175.9801060 178.7731051 108.5767969
175.9721935 225.3261954 119.4521040
175.9651899 253.1363964 117.3425987
175.9497076 188.5567904 113.6277020
175.9492904 138.8023943 103.1716019
175.8951992 208.1459016 117.6331043
175.8482903 132.2041005 101.0731980
175.8325994 186.5751892 112.7798036
175.8213043 161.3491923 100.5636007
175.8068949 254.5856833 117.2636002
175.7756025 148.7428993 103.2743007
175.7604927 170.9457934 103.4094989
175.6967008 168.7715054 102.2773981
175.6913066 173.7911999 104.8424020
175.6549031 256.0242116 117.1583980
175.5522043 176.7577082 106.5749973
175.5466014 122.8192970 97.4830687
175.5198985 181.3279986 109.4897985
175.5012125 257.4639916 117.0623973
175.4680872 156.1172903 100.1078039
175.4416078 164.6510959 100.5572006
175.4118949 192.0367032 114.3423021
175.3630936 125.0382960 98.2811004
175.3627062 205.2595019 117.0019954
175.3419042 236.0852957 118.5731962
175.3131002 178.0603081 107.0731953
175.2998978 158.1528038 99.7228995
175.2737015 154.5771062 99.2468894
175.2121001 237.5081033 118.3621958
175.1947999 216.7599052 118.5643002
175.1880944 185.4401976 111.4965007
175.1696020 220.5034047 118.9537942
175.1421988 200.1525015 116.0706058
175.1381010 166.9506133 100.7802933
175.1161069 135.5233043 101.8784046
175.1053929 128.3605099 99.4173214
175.0994027 214.0233070 118.1716993
175.0982106 229.1896939 119.0503985
175.0892997 197.2732991 115.4858023
175.0885993 160.2765918 99.5319337
175.0704050 234.1002971 118.6835989
175.0693023 238.9503866 118.2082966
175.0458926 261.7663741 116.7564020
175.0001013 173.1009036 103.4037024
174.9960035 153.2079875 98.7506434
174.9669015 170.8689034 102.1289006
174.9660969 146.9680965 103.1401977
174.9521941 230.6454033 118.9054996
174.9320030 240.3827906 118.0317998
174.9278009 130.5706948 100.1948044
174.9231964 218.8518047 118.6923012
174.9183983 222.5524038 118.9966947
174.8992056 263.1907165 116.6353002
174.8972088 195.4602897 114.9669066
174.8750061 176.0523021 105.0929055
174.8683006 212.3287022 117.8382039
174.8585999 227.1395028 119.0217957
174.8484075 202.3235857 116.2804067
174.8403907 189.9621040 113.2993028
174.8179048 180.6923002 108.1485972
174.8086959 232.0955992 118.7506989
174.7960001 241.8119013 117.8508997
174.7846007 209.5532119 117.3897982
174.7711003 246.6734052 117.4910963
174.7415066 140.1157975 102.9694974
174.7040004 133.8814944 101.2132019
174.7011989 183.5765988 109.7780988
174.6605039 243.2392985 117.6695004
174.6490002 164.1309112 99.5153859
174.6351868 177.3606986 105.5990979
174.6315062 156.5093994 98.6718088
174.6295989 145.2997029 103.1946018
174.6094972 248.1358945 117.4253970
174.5137870 244.6829081 117.5376996
174.4628996 249.5744079 117.2967032
174.4557023 184.8789006 110.3102043
174.4465083 142.4496025 103.1358987
174.4376123 162.2236073 99.0097597
174.4358987 168.9963043 100.5038023
174.4172126 158.6454064 98.4950662
174.3655950 187.6876056 111.8169054
174.3551940 166.4159000 99.7002199
174.3527055 259.3117058 116.8697998
174.3067950 251.0257065 117.2100008
174.2936969 193.4594959 114.0686050
174.2496938 206.6721916 116.7596951
174.2279977 224.4969904 118.8369021
174.2035002 173.0332971 102.1381989
174.2013991 175.3313988 103.5770029
174.1517931 127.2763014 98.6870900
174.1470098 179.9877882 106.6538990
174.1452962 252.4837852 117.1483994
174.1362065 151.5341103 98.8219604
174.1143018 149.4781077 100.3428996
174.0740985 147.8851885 101.6600057
174.0679890 225.9821892 118.7515035
174.0027070 137.1995956 101.9157991
173.9936918 253.9255917 117.0454994
173.9917994 182.9597950 108.4709987
173.9827991 138.6203021 102.3026928
173.9750952 129.4884086 99.4643793
173.9611924 176.6450107 104.0896997
173.8869995 155.4378122 97.6617411
173.8307923 255.3827167 116.9926971
173.8180965 131.6978037 100.1732051
173.7752110 264.9996877 116.3539961
173.7596989 125.6258041 97.9440957
173.7543941 184.2505932 108.9726985
173.7383008 191.3546026 112.9451990
173.7301052 203.7467062 116.0504967
173.7062931 233.8888943 118.2930991
173.6855954 171.1394042 100.4498005
173.6786067 256.8226159 116.8949977
173.6658961 141.0101950 102.5712937
173.6571044 157.6122046 97.5574031
173.6506969 120.6401959 95.9639996
173.6342013 187.1286929 110.6284037
173.6283004 266.4220929 116.2389964
173.6157089 165.3654873 98.6947790
173.5657901 215.2933031 117.6610067
173.5552102 235.3497893 118.1773022
173.5469103 198.5442042 114.9224043
173.5211015 219.0864980 118.1550995
173.5190004 222.7886021 118.4635013
173.5100001 195.6188977 114.2479032
173.4880060 263.0834877 116.5286005
173.4831929 179.2609990 105.1094979
173.4735966 212.5381976 117.2379032
173.4685004 162.9016995 98.1739536
173.4683961 169.6814001 99.6898264
173.4423041 231.8850011 118.3644012
173.4411865 122.8633001 96.8591794
173.4239906 143.2279944 102.5089025
173.4226942 236.7793024 117.9813966
173.4064072 159.8273963 97.5501761
173.3991951 175.2785891 102.3394987
173.3473986 228.3798009 118.4737012
173.3113974 182.2790056 107.0196033
173.2998043 167.6979959 98.9877135
173.2928008 217.3954993 117.8029999
173.2839942 238.2176965 117.8137958
173.2586026 221.1620957 118.2549000
173.2573956 173.6818999 101.2499034
173.2519120 146.1270005 101.5668064
173.2438058 150.3476948 98.7501815
173.2380092 210.8428031 116.9122010
173.2362956 148.2613087 100.2102941
173.2241064 180.6056052 105.7111993
173.2176095 200.7905990 115.2975038
173.2138097 152.5181979 97.4581018
173.2082069 261.1538172 116.6701987
173.1912941 229.8553884 118.3772981
173.1619984 189.6862090 111.6262972
173.1572002 208.0487907 116.4343059
173.1549054 176.6037047 102.8760970
173.1463075 239.6533936 117.6434979
173.1230021 244.5261925 117.2891036
173.1014997 135.0193024 100.9308025
173.0735898 154.5062959 96.9493389
173.0514020 183.6183071 107.6260954
173.0072945 241.0897911 117.4796969
172.9684025 245.9823042 117.1969995
172.9162037 186.5375936 109.3667001
172.8674024 242.5265908 117.3212975
172.8630066 156.6440016 96.7607424
172.8195995 247.4281043 117.0810983
172.7848947 178.5946041 103.7005037
172.7631986 194.7034001 113.4271994
172.7309972 225.7120013 118.2160005
172.7015078 171.8605012 99.7157544
172.6941019 161.9073004 97.3026752
172.6785004 133.3760917 100.2988964
172.6727039 187.8357977 109.9027023
172.6583987 248.8914877 117.0206964
172.6289093 205.1396966 115.7528982
172.6076007 158.8744074 96.7779681
172.6004034 166.1425978 98.0739966
172.5561917 227.2230089 118.2012036
172.5433022 193.3356076 112.7377972
172.5386083 258.6610019 116.6718975
172.5350916 179.9252033 104.2661965
172.5097895 268.2226002 115.9467027
172.5092083 250.3350973 116.9092059
172.4922955 121.7742041 96.1009562
172.4591106 175.9176999 101.4309973
172.4452078 224.1327912 118.1158945
172.4139005 144.8175907 101.2526006
172.4075973 149.0345001 98.4199941
172.3913997 151.5966952 96.7755541
172.3899990 182.8965992 106.0775965
172.3822951 146.5675086 100.2509966
172.3679900 269.6357965 115.8151999
172.3565906 251.7823875 116.8137938
172.3117977 123.9952967 96.8984589
172.2872853 136.8501037 101.1625007
172.2606122 153.5675079 96.2244868
172.2223014 266.3106024 116.1193028
172.2140908 185.9084964 108.0185026
172.1947938 253.2422841 116.7602986
172.1166968 202.1834999 114.9872988
172.0923036 262.9545927 116.3552031
172.0890999 231.6510975 117.9158017
172.0554978 127.3203939 98.0430096
172.0480919 155.7139009 96.0474610
172.0424891 143.2147026 101.4506966
172.0395982 254.6907067 116.6794002
171.9862968 170.7711071 98.6012518
