# .PCD v.5 - Point Cloud Data file format
VERSION .5
FIELDS x y z
SIZE 4 4 4
TYPE F F F
COUNT 1 1 1
WIDTH 1898
HEIGHT 1
POINTS 1898
DATA ascii
19.5483 23.8807 33.5109
16.61152 23.6388 33.6116
26.84879 32.9957 27.5549
7.933886 27.2392 31.0203
17.2782 23.705 33.589
27.13761 29.32159 30.0343
25.0642 24.07969 33.5059
8.431495 24.46639 32.8956
7.408501 31.0201 28.4815
18.18851 23.7858 33.5621
26.9028 32.4232 27.9543
13.2342 23.23289 33.8294
27.22719 25.81329 32.3954
26.87648 25.0947 32.8715
7.484497 30.4065 28.9018
9.66102 23.1858 33.7919
26.9624 31.74388 28.4185
22.57753 24.02741 33.5039
8.689077 23.9588 33.2569
7.435919 30.80052 28.6464
26.1401 24.453 33.298
22.31601 24.0218 33.509
14.29778 23.3826 33.769
21.99701 24.0134 33.5152
26.7165 24.9182 33.0089
12.4346 23.1221 33.9123
7.795603 28.15531 30.442
17.9151 23.77079 33.5969
8.553506 24.18519 33.1216
14.85488 23.4565 33.74591
8.365304 24.7345 32.752
23.07072 24.0478 33.5288
19.2532 23.87531 33.564
27.21891 27.8044 31.0989
8.277596 25.2122 32.4402
20.41421 23.94819 33.5459
25.65289 24.2337 33.46881
15.46288 23.53419 33.72911
27.19739 28.2567 30.8107
23.42668 24.0601 33.5457
17.61419 23.7516 33.63051
19.89082 23.92191 33.5676
27.26889 26.1257 32.2495
7.76151 28.40011 30.3171
7.642777 29.2371 29.7626
26.4954 24.73171 33.186
8.004011 26.8351 31.3896
7.578494 29.7133 29.4524
15.18661 23.51109 33.7722
21.01708 23.99091 33.5748
10.6037 22.95101 34.056
26.8693 32.81268 27.7894
27.27351 26.38781 32.1066
13.5102 23.3009 33.8892
8.040906 26.6137 31.55281
8.082808 26.3607 31.7233
7.608385 29.49621 29.6107
25.9071 24.3575 33.4432
21.43508 24.0144 33.5849
8.219601 25.56391 32.2706
25.33499 24.1653 33.5703
9.442986 23.338 33.7905
27.0091 25.32621 32.8313
27.08578 30.15619 29.5948
16.2032 23.63139 33.7428
7.675798 29.01511 29.9543
8.315713 25.02671 32.6448
15.83311 23.59399 33.7681
27.16172 28.9454 30.4192
27.23941 27.35621 31.4947
18.46749 23.8456 33.678
27.12491 25.5599 32.7142
21.75 24.04021 33.62031
7.894904 27.54539 30.9777
24.23999 24.102 33.6323
13.90109 23.37019 33.9087
7.5112 30.25141 29.1595
26.97721 31.61019 28.6604
8.120001 26.1599 31.9176
27.0178 31.10441 29.0101
9.09561 23.5959 33.6698
11.64129 23.0466 34.0969
27.0553 30.60672 29.35421
12.66769 23.2068 34.0203
17.08082 23.736 33.7607
20.1678 23.97211 33.6699
27.1467 29.2224 30.2997
26.82451 33.3069 27.5585
11.2505 23.00019 34.1468
27.22672 27.67199 31.3547
27.26659 26.653 32.0396
13.02359 23.265 34.0114
11.97809 23.11019 34.09401
7.363112 31.47772 28.38591
18.807 23.8885 33.72461
7.714303 28.7787 30.2137
27.18288 28.5815 30.7576
27.1211 29.64869 30.0406
23.85542 24.1192 33.6804
8.912415 23.7768 33.5985
10.08061 23.1 34.0784
24.49209 24.13009 33.695
27.03861 30.8491 29.2456
27.25628 26.9459 31.87031
27.24663 27.20171 31.7063
7.453085 30.74151 28.9151
10.9866 22.9962 34.1914
7.333101 31.75339 28.2455
26.99429 31.42822 28.88121
26.91159 32.40222 28.2299
8.181871 25.83389 32.24161
9.825409 23.2058 34.04631
16.8072 23.7309 33.8417
12.28491 23.17731 34.119
7.826001 28.03759 30.7673
26.28249 24.64011 33.443
22.70091 24.11099 33.723
14.45001 23.47579 33.977
27.10292 29.9495 29.9038
16.48879 23.70339 33.8684
7.858695 27.8268 30.9226
27.20872 28.08681 31.1574
7.960112 27.17881 31.3621
26.88462 32.70841 28.0562
7.553102 29.9759 29.4815
19.67269 23.96941 33.76999
8.481116 24.4388 33.22071
27.255 26.0877 32.5136
24.89761 24.1708 33.7523
10.32931 23.06531 34.186
20.79722 24.03889 33.7593
8.395911 24.70229 33.0539
27.19701 25.8185 32.7054
17.40632 23.79891 33.8571
7.923783 27.41839 31.2321
23.57191 24.14571 33.75731
26.91668 25.2648 33.08
7.415713 31.07509 28.77459
22.11291 24.1062 33.768
14.12052 23.4496 34.0414
22.98388 24.1382 33.7738
19.3457 23.9608 33.8211
23.27138 24.148 33.77961
21.26709 24.07421 33.7885
17.90139 23.85099 33.8684
22.4227 24.1252 33.7881
26.60611 24.9308 33.33741
27.19769 28.3342 31.077
15.59639 23.6333 33.987
26.93188 32.21059 28.4773
27.07011 30.46021 29.6583
14.7481 23.53869 34.03971
8.575202 24.27169 33.41941
25.49821 24.3022 33.7572
7.626326 29.4633 29.9218
21.5441 24.09689 33.8147
8.245082 25.51609 32.58371
7.746608 28.6154 30.5013
27.16959 28.87869 30.7398
9.263606 23.5544 33.93441
27.27151 26.35221 32.4388
8.345009 24.9687 32.9677
18.2696 23.89501 33.9011
7.582696 29.7926 29.7209
15.31321 23.6108 34.0298
15.05241 23.58129 34.0441
9.555788 23.38071 34.06321
7.779987 28.3931 30.6671
7.384719 31.36271 28.6676
8.143009 26.1129 32.2053
13.73112 23.42281 34.1319
20.54659 24.0543 33.8538
15.98779 23.6872 34.0057
24.07739 24.1902 33.8458
25.7904 24.42011 33.72811
7.525386 30.2341 29.4442
25.1903 24.2489 33.8314
26.83512 33.2734 27.8156
27.2319 27.6082 31.6239
12.8313 23.3065 34.2057
8.025617 26.82221 31.7467
8.702905 24.09109 33.5926
27.03878 25.49429 33.0394
19.0503 23.9613 33.8994
18.5535 23.92529 33.9182
8.281888 25.3284 32.7675
26.9523 31.99771 28.6932
26.85708 33.05131 27.985
7.483305 30.57009 29.2419
13.39081 23.3884 34.1825
26.03519 24.5481 33.673
11.42168 23.1093 34.3329
17.64801 23.85539 33.9646
10.7165 23.0723 34.349
11.73431 23.1574 34.3145
27.0043 31.36939 29.1355
26.78868 25.159 33.2973
27.0848 30.27689 29.8725
8.207412 25.7612 32.50621
21.0141 24.09591 33.8963
16.24829 23.73069 34.0469
27.02621 31.09199 29.3391
24.63791 24.22279 33.90071
7.985801 27.08819 31.6278
27.21569 27.9904 31.4302
26.96979 31.80331 28.8682
11.14068 23.09321 34.3831
8.063287 26.61811 31.9553
20.2696 24.0609 33.9312
27.051 30.7675 29.5802
12.52481 23.2874 34.2895
7.34839 31.70431 28.5362
21.8091 24.1442 33.9161
9.066016 23.74349 33.9182
23.7768 24.21291 33.91471
13.12819 23.37409 34.25641
16.6609 23.78191 34.0619
7.653029 29.3166 30.1612
27.12742 29.63909 30.3604
19.92762 24.047 33.9618
8.105726 26.3758 32.153
27.24859 27.2225 31.9926
27.1422 29.3981 30.5318
16.9597 23.8143 34.0619
24.3769 24.2354 33.9429
27.1869 28.5963 31.0792
7.884414 27.75031 31.2403
27.26099 26.88859 32.2287
12.24059 23.26789 34.3625
7.428707 31.04931 29.044
26.8113 33.5654 27.7689
7.688107 29.0844 30.36991
27.1098 29.9328 30.21119
26.8974 32.66481 28.3769
17.2481 23.85111 34.0841
7.456691 30.82731 29.209
9.90978 23.287 34.3191
14.28139 23.5417 34.2417
27.156 29.1785 30.7357
26.98568 31.64399 29.0794
8.414478 24.7401 33.3235
18.83272 23.98841 34.04851
8.489192 24.5288 33.4684
10.19132 23.203 34.3941
26.46092 24.89219 33.60791
7.945807 27.3786 31.5498
26.2551 24.73861 33.7071
13.94019 23.5067 34.2816
7.322521 31.96511 28.4762
8.865298 23.9689 33.872
11.96021 23.2446 34.4242
19.54231 24.04649 34.0522
26.87219 32.95642 28.2372
24.94061 24.29041 34.01
10.4641 23.1606 34.4645
20.7589 24.1261 34.0368
23.0988 24.2342 34.01831
7.8142 28.24719 31.0154
8.308412 25.25571 33.0331
7.721813 28.87641 30.5954
14.57378 23.5956 34.282
9.680689 23.41029 34.306
27.22761 26.0733 32.89331
27.06242 30.6634 29.8203
22.22249 24.2098 34.0484
17.83771 23.9284 34.1468
27.22252 27.88929 31.6897
26.6453 25.08451 33.5586
27.17528 28.8555 31.046
8.361191 24.98649 33.2443
15.48541 23.7045 34.2547
15.78179 23.73589 34.2401
19.28491 24.0439 34.10921
22.49021 24.22459 34.0564
22.78909 24.23841 34.0602
8.168609 26.0638 32.52941
27.23661 27.56281 31.9313
27.1959 28.4621 31.3298
18.11043 23.9585 34.1613
21.38981 24.17889 34.0829
9.385706 23.58541 34.2278
7.608892 29.69791 30.0919
27.138 25.8019 33.1178
7.847817 28.0437 31.2087
26.91558 32.51421 28.6246
14.84948 23.645 34.3202
25.63933 24.4693 33.9967
27.09249 30.24509 30.1553
7.395805 31.369 28.9858
10.95238 23.1633 34.5638
7.362695 31.64941 28.7999
23.35039 24.27059 34.0907
7.545026 30.18459 29.7934
15.13949 23.6808 34.3155
13.56271 23.496 34.407
26.93728 32.2738 28.8058
8.129389 26.30961 32.4119
12.6856 23.3854 34.4719
27.26808 26.69389 32.5613
25.9029 24.5889 33.9517
27.26019 26.32859 32.8195
7.508309 30.47418 29.6229
27.0156 31.3246 29.4659
17.48631 23.9203 34.234
11.5805 23.23919 34.5674
8.259297 25.5703 32.9348
23.96679 24.3027 34.1232
8.079202 26.62019 32.2396
24.54001 24.323 34.1357
27.0403 31.0075 29.7072
27.20541 28.2909 31.5328
8.210511 25.856 32.7657
26.84209 33.33199 28.1466
21.9037 24.2289 34.1479
7.754715 28.694 30.85591
8.005709 27.0707 31.95041
27.25381 27.1398 32.3128
20.4922 24.1532 34.1752
16.46772 23.83479 34.3046
25.36401 24.41589 34.1031
20.12828 24.1308 34.1846
16.1019 23.79989 34.325
21.12162 24.19209 34.1701
7.576199 29.9727 30.01261
19.84009 24.1154 34.2028
26.9534 25.5007 33.4241
26.81181 25.3142 33.5464
11.2654 23.21629 34.6273
17.05828 23.8961 34.2979
9.191901 23.75799 34.2269
7.912279 27.6659 31.5815
10.7016 23.2034 34.6337
8.681805 24.2663 33.8783
12.4377 23.3777 34.55371
8.555592 24.4749 33.7472
27.11991 29.8596 30.5296
8.039207 26.8828 32.1264
7.638605 29.525 30.3462
7.479878 30.72148 29.5417
23.6592 24.31591 34.1788
26.8192 33.59291 28.0406
27.07511 30.5478 30.0902
24.21859 24.339 34.19361
18.3762 24.0211 34.2891
27.16369 29.125 31.055
7.41628 31.24249 29.2214
27.13511 29.62319 30.7242
7.786901 28.50289 31.0675
9.003819 23.929 34.16201
27.1847 28.7357 31.3249
12.9914 23.46651 34.55871
13.25229 23.49961 34.54251
21.63559 24.2411 34.2262
14.12341 23.6063 34.4937
16.77579 23.88769 34.368
26.12761 24.7619 33.98401
18.65938 24.0515 34.3066
7.962794 27.373 31.8554
7.336618 31.9232 28.7911
27.24302 27.44999 32.2167
27.14899 29.3968 30.9096
7.877589 27.9164 31.4967
26.97611 31.8774 29.2481
26.99912 31.59061 29.4409
10.00279 23.37171 34.5981
26.8845 32.93279 28.5439
8.397014 24.91981 33.5291
10.2793 23.29649 34.6593
24.81228 24.3822 34.24051
26.95498 32.1362 29.087
19.0348 24.0878 34.32061
27.22821 27.82281 31.9936
20.8545 24.21249 34.2845
12.15771 23.3774 34.66471
27.26141 26.95641 32.5838
25.11829 24.42011 34.2398
7.308008 32.18699 28.6605
7.700206 29.12061 30.7267
7.442297 31.0528 29.4262
17.97769 24.01151 34.37921
13.78781 23.589 34.5768
14.39679 23.6602 34.5434
22.98472 24.32769 34.2773
11.83358 23.3407 34.7047
27.05279 30.8997 29.9573
27.20231 26.09449 33.1895
8.331508 25.24639 33.3675
27.10369 30.16099 30.47059
7.666202 29.3701 30.5904
27.06391 25.7477 33.4294
26.86 33.21981 28.4158
15.6681 23.8045 34.49991
8.828611 24.1442 34.1314
9.527893 23.6074 34.5091
9.764583 23.49131 34.59191
14.9996 23.7361 34.5392
26.54058 25.1047 33.8689
8.460999 24.7477 33.72841
17.667 23.99769 34.4321
26.79748 33.87061 28.00599
8.278192 25.55039 33.1943
27.21217 28.2063 31.8147
15.38369 23.782 34.5354
19.36302 24.13639 34.3916
7.377119 31.61061 29.1267
27.0274 31.26651 29.7735
20.32229 24.2041 34.37281
22.57282 24.3306 34.3379
26.9061 32.74319 28.796
17.33992 23.9784 34.4749
8.107395 26.54539 32.5618
19.64 24.1625 34.4045
27.24961 26.35969 33.0926
13.49911 23.58129 34.668
7.520588 30.46819 29.92961
27.08599 30.46042 30.3573
7.927896 27.64931 31.8406
26.92929 32.49249 28.9958
8.186699 26.0916 32.8923
15.9367 23.8539 34.5582
25.72268 24.6261 34.2501
16.24122 23.8847 34.54731
7.5866 29.97729 30.2807
27.17292 29.02271 31.33851
7.726581 28.98049 30.9583
26.3511 24.9832 34.0384
9.302885 23.77879 34.4908
26.83461 33.5328 28.322
26.88489 25.5111 33.7034
7.81259 28.40429 31.3612
24.44989 24.42661 34.3807
10.48949 23.3244 34.8322
21.15509 24.2764 34.4193
11.07168 23.3034 34.8623
27.24889 27.3412 32.5006
22.0131 24.32671 34.4116
23.86221 24.4139 34.4029
8.225412 25.8905 33.0859
22.30999 24.3465 34.4204
25.97848 24.7626 34.2195
16.51529 23.92529 34.582
11.48111 23.3521 34.86151
19.93162 24.2054 34.46971
27.12169 29.9308 30.7824
7.549705 30.27019 30.1436
20.62789 24.2528 34.4571
26.70348 25.3136 33.8744
12.83568 23.5275 34.77941
7.620694 29.74741 30.5031
14.6609 23.74181 34.68431
23.26879 24.3977 34.4266
27.15633 29.3474 31.1904
27.2674 26.6681 32.9895
25.42898 24.5585 34.3676
7.848502 28.18639 31.56491
27.23411 27.73689 32.28711
7.463397 30.94539 29.7211
10.76779 23.32179 34.9033
13.18312 23.5789 34.7826
7.989795 27.29711 32.18
18.8621 24.13679 34.5303
7.400305 31.4568 29.3806
8.530409 24.64831 33.9702
7.759096 28.78681 31.1798
8.065403 26.839 32.4924
18.20901 24.0858 34.5545
21.43839 24.31419 34.4775
27.18929 28.7378 31.6412
8.144409 26.3803 32.8239
27.00642 31.60658 29.718
27.03962 31.16879 30.0139
27.06519 30.81089 30.2549
26.98639 31.86101 29.5498
10.11208 23.4392 34.8425
12.01859 23.4445 34.8807
7.348688 31.89769 29.1149
8.025498 27.09 32.3533
7.885308 27.9658 31.766
7.321121 32.13671 28.9594
23.55811 24.42939 34.4732
27.1999 28.52569 31.8036
18.54599 24.1224 34.57461
13.97508 23.68609 34.7795
24.11318 24.45711 34.4823
14.2394 23.7173 34.7703
17.0748 24.00191 34.6409
12.28961 23.48859 34.887
15.203 23.82229 34.72731
22.78641 24.40199 34.5017
27.15901 26.0627 33.481
27.13821 29.6932 31.0464
8.366496 25.1629 33.6884
26.81491 33.79521 28.2919
25.02141 24.5132 34.4799
7.685096 29.3199 30.8967
26.95191 32.30169 29.3045
27.00851 25.7522 33.6999
12.56251 23.5289 34.88591
7.427604 31.25411 29.59829
27.2193 28.1107 32.12461
27.25432 27.21691 32.72931
19.12117 24.1788 34.59571
16.80371 23.98489 34.67701
8.296193 25.5412 33.4587
21.74619 24.3556 34.5417
17.5384 24.05409 34.6606
7.644714 29.6134 30.7248
8.62819 24.5111 34.16871
14.89621 23.80329 34.7818
7.292212 32.40931 28.8517
11.73568 23.4358 34.96411
26.89192 33.0025 28.8694
7.493199 30.74339 29.9764
13.71819 23.67641 34.8483
9.132684 23.9719 34.55371
27.26141 27.0137 32.90261
9.637387 23.6602 34.7847
26.8704 33.24461 28.7263
27.2404 27.60671 32.5187
8.940996 24.14729 34.4603
26.55631 25.23731 34.1079
27.109 30.20179 30.7932
20.2345 24.2771 34.62391
24.71578 24.51759 34.5589
23.04441 24.443 34.5739
17.82841 24.09419 34.7007
27.17802 29.0039 31.60711
15.5077 23.88161 34.8005
27.09228 30.4707 30.64231
11.27169 23.40649 35.0507
7.370384 31.75271 29.375
20.9139 24.3337 34.6437
26.18391 24.96999 34.3302
26.82761 25.54089 33.961
27.02171 31.47972 29.9853
8.42479 24.99139 33.9447
27.26072 26.62669 33.2489
19.45919 24.23571 34.6889
8.256109 25.808 33.3992
7.525684 30.5216 30.2276
7.570298 30.1868 30.4542
26.97063 32.13581 29.5599
26.79089 34.1045 28.2376
8.768798 24.3606 34.3919
24.33992 24.5222 34.6127
8.092285 26.7552 32.7736
7.920117 27.8065 32.0661
7.783206 28.69451 31.468
26.91341 32.8142 29.1168
25.24609 24.6069 34.58931
7.817299 28.47189 31.6299
13.45021 23.6828 34.9643
27.23152 26.4 33.4366
19.79509 24.2694 34.7092
27.2063 28.44721 32.0666
7.954718 27.60009 32.236
16.121 23.9646 34.8464
9.881199 23.59891 34.9604
22.5398 24.4469 34.6612
20.49962 24.3224 34.703
27.22621 27.9932 32.3855
8.165182 26.34331 33.0903
25.814 24.7935 34.5036
16.41378 23.9944 34.84101
27.1636 29.3086 31.5055
27.07419 30.7734 30.5241
7.715078 29.1688 31.1916
10.37163 23.46299 35.0748
14.4271 23.7986 34.9385
21.30991 24.37989 34.6988
8.329392 25.4308 33.7255
27.05151 31.10549 30.3167
18.3301 24.167 34.7863
11.02162 23.4237 35.13321
13.0381 23.6499 35.0244
10.62891 23.43429 35.1191
27.26472 26.88619 33.15631
8.210213 26.0949 33.2848
15.78158 23.9418 34.8922
26.93179 32.63259 29.30639
22.1397 24.4381 34.70621
17.297 24.08559 34.84291
7.863701 28.1931 31.8906
27.087 25.9868 33.7814
7.326813 32.15069 29.2316
9.423883 23.84481 34.8465
26.9993 31.81791 29.871
7.447393 31.15549 29.9027
7.597686 30.01341 30.67209
18.67402 24.203 34.80291
27.14873 29.5967 31.3656
26.82778 33.77789 28.5575
26.84879 33.56081 28.7062
18.06471 24.1563 34.8324
7.661106 29.5634 30.9903
23.79611 24.536 34.7087
25.4913 24.7031 34.6334
23.53272 24.5274 34.7226
8.043618 27.09061 32.6805
27.19379 28.7469 31.9756
27.03551 31.3578 30.2234
24.06961 24.55631 34.7233
21.56478 24.4195 34.7632
24.91722 24.60381 34.7105
15.07989 23.89191 34.9841
18.93452 24.2359 34.8353
8.12468 26.6144 33.0132
23.27028 24.51891 34.73841
27.12119 30.08351 31.0882
7.270695 32.6539 28.9454
8.508087 24.83161 34.2186
10.12179 23.5587 35.1081
7.406504 31.49861 29.73471
27.2443 27.55131 32.8019
12.7444 23.645 35.1156
26.3679 25.1649 34.3848
14.68849 23.85659 35.0161
12.1291 23.5748 35.15451
16.65411 24.04859 34.9348
16.98318 24.0795 34.9257
27.16971 26.2222 33.7063
12.45982 23.6168 35.14341
7.743718 29.0118 31.42621
11.4696 23.50011 35.2011
26.69132 25.4595 34.2095
27.2156 28.27859 32.33249
17.54999 24.1308 34.9098
22.83499 24.50619 34.7729
27.13409 29.8806 31.2604
19.2596 24.2714 34.8593
21.87932 24.4528 34.797
8.004786 27.346 32.5721
9.032101 24.168 34.7342
20.03321 24.3358 34.8596
7.541598 30.45958 30.4911
26.8988 33.07179 29.1516
27.0994 30.4622 30.9101
7.296593 32.43971 29.1691
26.92589 25.76481 34.0644
9.609015 23.791 35.0225
26.9821 32.0963 29.8236
15.36819 23.9447 35.0453
8.281411 25.75619 33.685
13.8655 23.7927 35.1205
26.06061 24.98931 34.5763
14.16308 23.8252 35.10901
26.77709 34.3571 28.3159
27.25738 27.1898 33.1354
21.09361 24.4199 34.8652
24.52201 24.6167 34.8073
7.686795 29.4269 31.2332
7.469596 31.0215 30.1613
20.74051 24.39889 34.8827
27.08522 30.69728 30.79811
7.502885 30.7661 30.3385
27.2336 27.861 32.7045
7.373185 31.79711 29.6479
9.245099 24.02639 34.9019
27.0631 31.02928 30.5865
19.66489 24.32719 34.9286
7.893712 28.0634 32.1755
13.29681 23.745 35.1865
27.17269 29.21879 31.8144
27.0119 31.739 30.121
7.625224 29.8703 30.9704
8.23471 26.0386 33.5552
26.96231 32.3709 29.7061
17.8051 24.1843 35.0051
7.343115 32.05529 29.50769
26.9444 32.5886 29.565
8.364589 25.3419 34.0357
10.84021 23.5088 35.3183
8.590312 24.73171 34.45201
13.59812 23.78599 35.1943
11.84562 23.5908 35.2882
8.070202 26.9935 32.92961
7.8277 28.4981 31.9165
27.24952 26.64991 33.5663
8.717985 24.54249 34.59051
8.434684 25.08521 34.2207
22.31839 24.51801 34.89631
26.87758 33.35941 29.0702
10.4804 23.55051 35.3172
26.81351 34.04269 28.6283
7.968278 27.6194 32.5411
26.9194 32.90081 29.4003
15.92067 24.03101 35.12551
25.6553 24.84371 34.7865
23.05719 24.5748 34.9165
8.3147 25.61921 33.9076
22.5763 24.54769 34.9295
27.15579 29.5645 31.6624
27.18398 29.0209 32.0288
25.35299 24.757 34.8495
16.1821 24.0621 35.1361
15.63862 24.0114 35.1594
27.19879 28.71491 32.2521
27.26159 27.0307 33.3842
27.2221 28.17909 32.6169
8.867712 24.39341 34.7686
11.1059 23.5441 35.3866
7.761688 28.9562 31.687
14.46951 23.8999 35.2193
7.925303 27.90199 32.4014
16.4901 24.09461 35.13771
23.90829 24.63479 34.933
27.11052 30.3573 31.164
27.04311 31.367 30.4857
17.317 24.1704 35.1143
19.07519 24.3154 35.0542
21.3317 24.4808 34.9937
26.8364 33.84191 28.8332
7.417203 31.4703 30.0162
27.2494 27.4508 33.1312
8.183599 26.37131 33.4547
27.0446 26.03121 34.08451
19.4321 24.34739 35.0569
24.21013 24.66099 34.9518
26.53381 25.40229 34.5042
25.07681 24.7267 34.9268
21.6305 24.507 35.0045
27.14208 29.8357 31.54901
18.5011 24.2767 35.0958
7.557185 30.402 30.7586
20.28421 24.415 35.0446
14.83741 23.95019 35.2435
24.72601 24.6955 34.95481
7.793905 28.7586 31.8727
9.905488 23.7384 35.2843
10.19409 23.6461 35.3523
27.14348 26.259 33.9626
26.82862 25.71961 34.31971
7.589908 30.1674 30.934
17.05069 24.1594 35.1641
15.1175 23.9817 35.2437
16.76879 24.13499 35.1762
18.77329 24.30419 35.1051
9.445787 23.9663 35.1388
20.5515 24.44051 35.0563
27.2165 26.51019 33.8105
8.032889 27.26739 32.8983
8.140982 26.6331 33.3286
27.20761 28.5422 32.45491
26.28508 25.2188 34.6643
22.04362 24.54589 35.0285
7.6468 29.76781 31.2256
7.251592 32.88189 29.1298
12.30741 23.69851 35.3957
11.35239 23.59611 35.45111
19.9247 24.40089 35.094
26.7953 34.3022 28.6028
12.56672 23.73069 35.3921
11.6218 23.62801 35.4453
8.095385 26.9086 33.17431
7.386686 31.73479 29.9259
27.23721 27.81129 32.979
7.7132 29.3161 31.5578
7.44331 31.28469 30.2402
27.0744 30.96461 30.8715
26.85729 33.67421 29.0522
17.6037 24.2231 35.1957
7.27758 32.6578 29.3219
12.8409 23.7688 35.4005
7.52622 30.65198 30.6734
18.19539 24.2733 35.1767
7.312508 32.3562 29.5267
7.859887 28.3544 32.2228
23.32682 24.64071 35.0399
9.658189 23.8757 35.271
27.02779 31.63782 30.4411
27.0966 30.6333 31.1163
27.1247 30.17869 31.4271
26.99217 32.11212 30.1289
26.9737 32.3469 29.9728
23.664 24.6682 35.0522
13.10989 23.8056 35.40911
9.068192 24.26289 35.0172
7.477374 31.0291 30.4494
8.259476 25.9926 33.844
14.01699 23.90159 35.37551
13.4559 23.8481 35.4107
8.386196 25.34731 34.29901
13.74272 23.87769 35.3982
20.9254 24.4966 35.1357
26.93251 32.8598 29.6574
27.05687 31.24872 30.7449
8.493901 25.0273 34.5269
17.94219 24.2683 35.2381
7.677497 29.58299 31.45871
19.66879 24.40789 35.18561
26.76958 34.61072 28.4966
27.2536 27.34829 33.377
22.8169 24.6311 35.10781
10.6183 23.6267 35.5302
25.9167 25.04499 34.9038
27.00949 31.91832 30.3274
12.06461 23.71561 35.5128
7.996709 27.535 32.8691
27.1633 29.51211 31.9487
7.615299 30.02691 31.1911
26.88959 33.37172 29.3555
7.352801 32.0349 29.83989
27.17489 29.28489 32.10431
26.6898 25.6243 34.5501
24.40947 24.7388 35.1022
8.217008 26.25909 33.7466
22.26958 24.60949 35.1588
8.058489 27.17571 33.1412
27.25908 26.97259 33.68711
27.2286 28.07049 32.9526
10.8839 23.6315 35.5861
26.95182 32.66811 29.8659
25.484 24.8947 35.0493
8.630187 24.7968 34.7637
26.81869 34.1534 28.8737
7.736774 29.2017 31.7935
21.19142 24.5413 35.2052
21.8395 24.58779 35.1909
26.93591 25.9473 34.3885
27.18741 29.046 32.3212
27.15123 29.76191 31.8427
24.0393 24.7343 35.15001
9.237082 24.1813 35.2092
26.14442 25.20519 34.89161
24.8816 24.7966 35.1431
26.91069 33.1758 29.5715
14.312 23.9719 35.4796
27.2429 27.684 33.2645
15.7328 24.10601 35.4217
15.37329 24.07311 35.4369
7.892312 28.207 32.50901
14.6437 24.00529 35.4697
27.2443 26.7853 33.8723
19.24882 24.40801 35.3037
20.17471 24.4807 35.278
16.22379 24.1545 35.4153
8.341313 25.61189 34.2722
26.49179 25.47459 34.75171
27.07738 26.2167 34.2769
25.20651 24.8571 35.1492
7.498296 30.9127 30.7194
16.66722 24.1992 35.4155
7.811697 28.73391 32.19751
10.05331 23.797 35.5564
18.9783 24.39619 35.3435
11.13731 23.67261 35.66381
8.171679 26.5598 33.6713
8.120299 26.85401 33.47351
7.286103 32.6207 29.5892
27.21381 28.4708 32.79441
7.539005 30.61509 30.9419
23.1103 24.70219 35.2369
8.926095 24.472 35.09381
7.397623 31.69811 30.2161
8.749516 24.66969 34.9614
14.9388 24.0505 35.5084
26.8395 33.9978 29.0927
21.50908 24.5945 35.2858
7.2338 33.08231 29.2949
11.8027 23.74279 35.65451
16.96372 24.2347 35.43521
18.70018 24.38119 35.3763
7.926793 28.01649 32.7136
20.6798 24.5372 35.31951
8.294106 25.8878 34.1525
7.765295 29.0481 32.024
27.11299 30.47329 31.4783
27.203 28.7366 32.6473
7.568987 30.40469 31.1187
9.784074 23.9162 35.519
23.48301 24.7383 35.257
9.438605 24.095 35.3968
22.54251 24.67641 35.2837
27.16699 26.46801 34.1821
26.8735 33.64998 29.3604
25.7164 25.0303 35.1162
7.452519 31.27632 30.5431
27.13269 30.14439 31.7186
27.08468 30.93621 31.188
7.962109 27.8115 32.88761
8.416207 25.33501 34.5662
10.3662 23.7447 35.67401
7.631899 29.96459 31.44661
26.7871 34.57519 28.7749
26.9804 32.40901 30.233
12.43922 23.83141 35.6804
19.90029 24.49429 35.3946
7.842899 28.56399 32.415
27.03422 31.69799 30.7196
26.99733 32.19569 30.3865
7.325502 32.3016 29.9005
17.73739 24.32149 35.4742
27.09851 30.73999 31.3696
7.699789 29.50591 31.7875
12.69719 23.86099 35.6785
19.51748 24.46841 35.4197
27.2539 27.3482 33.6528
27.2325 28.0052 33.2123
18.35519 24.37579 35.462
11.39301 23.73411 35.7462
8.015604 27.5069 33.1486
15.99732 24.17649 35.55661
13.5743 23.9529 35.6563
24.6267 24.8411 35.2952
23.7895 24.78529 35.3153
8.540899 25.04021 34.8276
17.20599 24.28439 35.5189
27.22088 28.32429 33.02711
22.0587 24.6689 35.3698
7.366688 31.96982 30.1644
8.249105 26.17641 34.0682
26.7995 25.8525 34.6783
27.0693 31.2126 31.0952
7.421704 31.535 30.4685
13.8562 23.98769 35.6661
17.48142 24.31391 35.5284
27.0513 31.4841 30.9252
18.05952 24.36369 35.5123
27.2468 27.5892 33.5461
26.32269 25.41309 34.9899
26.96341 32.66421 30.1427
12.17401 23.8316 35.7571
26.8099 34.39721 28.989
7.5987 30.22629 31.3813
9.069801 24.4061 35.3155
24.22849 24.8338 35.3497
13.30912 23.9456 35.71621
26.89442 33.48979 29.6032
26.02938 25.22929 35.1259
15.20002 24.12289 35.64241
20.4356 24.56261 35.4609
7.664801 29.769 31.703
7.254781 32.91771 29.5852
16.3891 24.23151 35.6056
27.16127 29.67129 32.1853
15.52031 24.155 35.6398
20.95232 24.6052 35.4547
27.01849 31.9691 30.65049
27.17248 29.45061 32.3427
25.0434 24.9134 35.3433
22.91539 24.75419 35.4109
10.916 23.7465 35.8349
7.510395 30.87479 30.9849
27.19391 28.9962 32.6609
14.13539 24.03481 35.7127
26.76189 34.90341 28.69271
27.1419 30.04899 31.9618
8.048178 27.35209 33.3678
8.199186 26.4882 33.9538
21.70253 24.67149 35.4607
10.61609 23.76899 35.8328
7.731409 29.3314 32.0438
26.92679 33.1471 29.8927
26.85669 33.94049 29.3622
27.18321 29.2401 32.5229
27.25148 27.01731 34.0214
26.98779 26.16091 34.59211
21.25159 24.64281 35.4891
27.22392 26.7822 34.18081
9.583504 24.0919 35.6161
11.63861 23.8105 35.85421
12.9891 23.94071 35.7962
16.76879 24.28309 35.6508
8.140803 26.83121 33.7614
7.784308 28.9938 32.30581
9.242893 24.3081 35.48291
26.6178 25.70739 34.9116
8.369298 25.5969 34.6083
7.470103 31.19001 30.8393
7.867307 28.46941 32.6763
27.12351 30.40489 31.7882
27.25563 27.2589 33.90741
10.15592 23.8797 35.81581
14.4468 24.08771 35.7691
20.12479 24.5699 35.5679
23.26387 24.80949 35.4788
8.861304 24.6537 35.2814
8.643181 24.9321 35.0927
27.23691 27.91141 33.48871
19.7317 24.5433 35.5951
18.81921 24.4699 35.6267
19.28359 24.5078 35.6115
25.55201 25.07241 35.3658
23.56988 24.83681 35.483
7.293315 32.6041 29.9326
15.80969 24.2162 35.7377
7.984997 27.76359 33.1998
8.086802 27.1651 33.6058
8.312405 25.9051 34.4585
11.89488 23.86251 35.9053
25.84139 25.19451 35.31341
7.221998 33.2219 29.5419
26.94932 32.93809 30.1488
23.98279 24.87579 35.4938
22.33991 24.75509 35.54171
27.2106 28.63741 33.0415
7.5579 30.55939 31.3376
7.944227 28.0178 33.05461
18.55451 24.45821 35.6678
26.83121 34.28489 29.2564
11.15522 23.80769 35.95401
14.76142 24.1356 35.8135
27.1098 30.67389 31.69101
9.892703 23.9947 35.8092
7.901699 28.284 32.89361
25.30801 25.02541 35.4488
8.466811 25.3067 34.9073
20.73708 24.63989 35.6146
16.13561 24.2601 35.7736
17.0455 24.3385 35.7417
17.8479 24.407 35.716
24.4976 24.92599 35.5096
27.2252 28.2601 33.3324
26.79458 34.67998 29.0183
8.26791 26.17019 34.3388
12.5286 23.9429 35.9288
27.17129 26.6296 34.4396
10.3896 23.8653 35.9404
7.383288 31.88401 30.5026
26.45159 25.6086 35.11441
26.9773 32.6204 30.4235
21.90969 24.7401 35.6037
22.66088 24.79829 35.58271
26.87469 33.84501 29.6072
7.318915 32.40371 30.1611
24.82489 24.9649 35.5244
15.0322 24.175 35.8484
26.1817 25.41439 35.25621
13.64601 24.0535 35.9067
7.817687 28.82731 32.5848
26.914 33.40989 29.9212
18.16252 24.4465 35.74771
27.08081 31.17701 31.4236
7.194014 33.47939 29.4619
27.03908 31.8023 31.0068
27.15069 29.97431 32.2426
27.09079 26.43589 34.6143
7.520915 30.84999 31.2449
7.343681 32.2071 30.3342
13.93178 24.0885 35.9211
27.05899 31.5257 31.22049
27.01131 32.20442 30.7651
8.166702 26.75959 34.0211
26.87258 26.07761 34.8753
27.09422 30.97999 31.5926
21.52381 24.7287 35.66851
7.752986 29.2573 32.3413
27.24281 27.7417 33.7716
17.5913 24.41029 35.8044
17.31539 24.3871 35.81411
7.643016 29.9945 31.8524
27.19861 28.9664 32.9572
7.435204 31.49518 30.845
15.56698 24.24049 35.8851
19.0312 24.534 35.76831
12.8063 24.0013 35.9999
7.698925 29.6226 32.1264
13.2288 24.0404 35.9869
7.264586 32.8683 29.9418
7.578613 30.44948 31.5767
11.38368 23.8774 36.0641
7.610501 30.2265 31.72821
27.13329 30.32949 32.0771
16.50962 24.3295 35.8762
8.970798 24.62469 35.5202
8.546115 25.1839 35.14
23.05609 24.86451 35.6637
21.14561 24.71471 35.727
8.018882 27.6296 33.49601
26.7565 35.14951 28.84929
25.07949 25.0386 35.5966
26.99399 32.4727 30.6536
19.47338 24.58221 35.79091
14.23818 24.1401 35.9778
27.16652 29.6963 32.5253
9.679795 24.1532 35.8779
8.400709 25.5754 34.8983
27.24913 27.53 33.9869
7.404597 31.7412 30.7441
8.229108 26.44479 34.3224
8.113177 27.09301 33.8859
9.381593 24.3237 35.7699
27.23369 26.98789 34.3615
16.83912 24.37061 35.9059
19.89538 24.62481 35.80201
24.25081 24.97309 35.6645
25.69869 25.2196 35.5301
8.720786 24.92361 35.3711
12.2796 23.9791 36.0805
11.68999 23.92709 36.1039
23.42692 24.9117 35.6977
23.74721 24.93749 35.68891
7.229717 33.17541 29.8159
27.21539 28.5688 33.3284
22.17639 24.8163 35.74771
8.058698 27.4203 33.7053
15.2567 24.2442 35.9871
26.89928 33.67591 29.90831
26.85282 34.19942 29.5617
26.78228 34.93941 29.0665
26.94211 33.17371 30.2574
27.001 26.32691 34.8502
26.8127 34.63429 29.2822
7.784398 29.09501 32.5962
20.302 24.6717 35.8301
7.490517 31.10808 31.2482
26.73161 25.96409 35.1045
10.8133 23.9014 36.1551
27.23029 28.1516 33.657
20.86309 24.72301 35.8274
18.35659 24.51789 35.9172
8.338005 25.89179 34.7852
8.291186 26.13909 34.6185
17.97649 24.487 35.9327
14.86498 24.22549 36.0444
10.04651 24.0442 36.065
14.50202 24.1951 36.0589
7.664294 29.89361 32.09571
27.17748 29.50141 32.7708
18.72871 24.5514 35.9126
27.1883 29.2591 32.9347
7.850588 28.68859 32.9115
10.546 23.9353 36.15721
25.9676 25.37571 35.5171
7.959277 28.0258 33.36
12.0211 23.98689 36.1618
9.157092 24.52169 35.7429
27.25119 27.2946 34.267
22.81141 24.88969 35.786
26.96359 32.94298 30.4758
11.11081 23.91749 36.1945
27.20609 28.8322 33.2399
20.56799 24.7084 35.8659
7.537813 30.77549 31.5223
16.00471 24.32909 36.02491
27.02481 32.12991 31.0291
27.11871 30.66179 32.0208
24.6056 25.03979 35.7382
26.8338 34.45539 29.47429
7.351728 32.17688 30.5939
26.3626 25.6481 35.3846
27.0485 31.80271 31.27591
13.44642 24.122 36.1427
22.49521 24.87649 35.8293
25.41119 25.175 35.6923
27.1031 30.94449 31.8593
7.284792 32.7217 30.2549
27.14348 30.22072 32.3538
8.1881 26.73289 34.2986
26.92691 33.4284 30.2071
7.717015 29.56329 32.39641
13.02341 24.09351 36.1766
7.920415 28.2851 33.2658
27.07151 31.4703 31.5349
16.32238 24.3734 36.0681
19.1817 24.61199 35.9694
8.454115 25.48179 35.1604
21.71812 24.8231 35.8847
12.6009 24.0626 36.2033
27.19602 26.86921 34.6317
7.457228 31.37782 31.1938
24.86763 25.08949 35.7808
8.141101 27.00481 34.1434
19.69209 24.6581 35.963
27.1034 26.59 34.8244
26.57151 25.8504 35.313
15.73208 24.3292 36.10431
7.313521 32.4918 30.4549
10.29042 24.0218 36.2072
27.08921 31.20631 31.74791
21.3233 24.7996 35.9243
27.21992 28.4802 33.5814
23.96819 25.0213 35.837
7.199408 33.45191 29.8303
7.167698 33.7323 29.6477
27.15609 30.00101 32.5727
7.629485 30.1629 32.0518
8.607388 25.1749 35.4207
9.533287 24.3217 36.0136
8.814306 24.89179 35.61731
13.7617 24.1752 36.2025
23.21232 24.9659 35.88211
26.88408 33.9753 29.9182
8.253516 26.405 34.60331
14.0332 24.2029 36.2071
27.24192 27.7843 34.0846
17.4917 24.4904 36.0883
7.559897 30.64969 31.7511
7.3725 32.03258 30.8208
27.1323 30.4791 32.2915
27.00851 32.44051 30.9739
20.05843 24.7089 36.0126
17.16462 24.4676 36.1134
7.994116 27.87609 33.6368
27.23432 28.0423 33.9326
7.750602 29.37449 32.6327
7.801922 29.0491 32.8573
26.8012 34.89882 29.336
16.6831 24.43179 36.143
8.09008 27.3267 34.0232
26.99232 32.671 30.8394
9.778113 24.22361 36.1476
15.05512 24.3002 36.2082
7.880629 28.56399 33.198
8.370907 25.81391 35.0541
11.55841 24.0168 36.333
26.16179 25.56841 35.6029
21.0596 24.80361 36.0086
7.683517 29.82069 32.3635
19.42998 24.66789 36.0699
25.6275 25.30549 35.7774
26.86539 34.2311 29.8195
17.76111 24.53141 36.1371
15.38229 24.33491 36.21981
9.299905 24.5014 35.9843
25.20001 25.1908 35.85891
26.9129 33.69421 30.1942
27.16661 29.8225 32.7978
18.9369 24.6326 36.10601
26.75009 35.45049 29.01809
12.35142 24.0919 36.332
14.34422 24.25501 36.2697
7.220717 33.27531 30.0739
7.246198 33.06031 30.2207
11.2733 24.012 36.3768
21.9385 24.8909 36.013
26.9768 32.91291 30.7422
18.55219 24.6056 36.1356
22.2131 24.9156 36.0067
23.57519 25.0331 35.9579
8.308888 26.1492 34.89041
27.19557 29.16311 33.2705
27.2114 28.7482 33.5515
27.2474 27.5563 34.3557
7.422687 31.66741 31.1825
26.9551 33.2042 30.567
26.77688 35.20751 29.2203
24.35559 25.10719 35.9435
8.9916 24.76379 35.85161
26.7126 26.0653 35.3559
27.24302 27.27991 34.5532
26.87839 26.27009 35.2238
13.27342 24.182 36.34121
7.497908 31.1194 31.5754
25.86121 25.43421 35.7779
7.391395 31.90809 31.048
16.1461 24.4182 36.2556
7.58359 30.5171 31.9853
8.028896 27.71731 33.87661
18.2446 24.59301 36.1875
12.7897 24.1494 36.3719
7.837296 28.8634 33.1068
27.0617 31.74159 31.58461
27.18562 29.42121 33.1488
21.5255 24.8755 36.0835
26.8243 34.7456 29.5774
20.8019 24.81359 36.1104
27.03768 32.10989 31.3501
22.9598 25.001 36.03321
8.210988 26.702 34.5813
11.8469 24.0813 36.4161
10.6082 24.0487 36.4148
27.02397 26.51961 35.1055
10.9306 24.02991 36.43531
27.2238 28.39169 33.8622
22.6436 24.9781 36.0573
7.324488 32.43291 30.7416
26.44891 25.8352 35.5702
27.10879 30.98589 32.13301
16.91118 24.4971 36.2789
27.17599 29.6575 33.0356
8.501411 25.4724 35.4535
12.1164 24.11669 36.4408
13.55732 24.2292 36.3959
15.6211 24.39439 36.33001
24.64059 25.16541 36.0038
8.159311 27.0033 34.4248
7.95591 28.1675 33.6457
14.74092 24.32629 36.3667
19.8209 24.74619 36.1948
20.54182 24.81121 36.1784
27.21381 27.08889 34.7924
7.709415 29.69961 32.63581
15.90061 24.42559 36.3465
20.28337 24.7913 36.1948
7.262202 32.94039 30.4569
27.1529 26.85131 34.96251
7.291199 32.70552 30.6189
27.20222 29.0299 33.506
7.5247 30.9509 31.8035
27.08301 31.45671 31.8815
26.84781 34.554 29.8025
18.004 24.6028 36.2893
9.985418 24.22361 36.3751
25.4122 25.3129 35.9761
7.905901 28.48081 33.4827
16.41479 24.4748 36.3519
9.598196 24.399 36.26651
26.9393 33.49981 30.53
26.89693 34.01041 30.1869
7.456304 31.44678 31.4966
27.1475 30.29689 32.68351
27.02192 32.40311 31.2685
8.418501 25.72839 35.3561
7.774295 29.29649 32.9515
13.83442 24.27439 36.4494
7.644118 30.14168 32.3872
8.266122 26.4509 34.8771
23.81391 25.1203 36.1044
7.174285 33.68449 30.0105
21.22158 24.88909 36.2078
7.606687 30.3961 32.2303
19.17708 24.71429 36.2879
27.09639 31.25891 32.0679
24.10841 25.15109 36.10151
17.32221 24.5603 36.35591
27.23652 27.9717 34.2807
8.116783 27.27811 34.3491
8.776099 25.0695 35.8492
27.12119 30.82621 32.37741
8.633913 25.2701 35.7195
15.21608 24.39689 36.4456
7.14481 33.94291 29.8751
22.38709 25.00501 36.19651
19.57879 24.75831 36.3032
8.0584 27.61631 34.1466
27.15782 30.1125 32.8767
26.10111 25.64379 35.8525
18.77082 24.69119 36.3372
12.48968 24.1929 36.5423
26.8789 34.26892 30.0929
14.0889 24.31591 36.4999
27.00561 32.67899 31.1651
23.39098 25.102 36.1705
21.7315 24.9515 36.2364
27.13621 30.5565 32.5922
7.359089 32.18549 31.0823
8.330197 26.1372 35.1593
7.996798 27.9762 33.9231
26.76732 35.47561 29.2945
7.86388 28.76781 33.39791
10.2348 24.1929 36.5209
13.03181 24.24221 36.54811
27.21492 28.6925 33.8669
16.65509 24.526 36.4407
25.70301 25.4572 36.0077
9.351016 24.58671 36.2479
7.672311 29.97929 32.5963
27.0505 32.04539 31.6263
14.50563 24.35851 36.5163
9.119988 24.75819 36.1365
11.65781 24.14819 36.60209
7.204594 33.4287 30.28559
11.11919 24.11561 36.6137
26.8119 35.03951 29.6244
22.13282 25.00251 36.261
7.548185 30.81938 32.053
27.22839 28.25799 34.1902
26.74481 35.73209 29.1681
26.79971 26.2808 35.50711
20.05771 24.8203 36.34781
26.30788 25.8117 35.8176
7.739188 29.5587 32.9231
26.5894 26.05791 35.6732
22.82229 25.07409 36.2549
18.5079 24.693 36.42061
25.06852 25.30201 36.1538
23.14049 25.1051 36.2453
11.388 24.14439 36.642
27.2409 27.79481 34.5294
27.23411 27.3475 34.831
27.07198 31.7353 31.887
17.07861 24.57699 36.4771
14.9408 24.4077 36.5464
10.4779 24.1698 36.6128
13.2983 24.284 36.596
7.413001 31.793 31.4367
24.80248 25.26781 36.17971
26.92151 33.83121 30.4869
26.96359 33.3038 30.8451
16.148 24.50509 36.517
7.814527 29.0951 33.2642
27.19149 29.36309 33.494
26.98621 33.00619 31.0477
7.485898 31.26669 31.804
27.16699 29.95579 33.1026
27.1827 29.5878 33.35521
24.4987 25.2482 36.2184
12.78228 24.2574 36.638
27.09022 26.7864 35.248
9.784699 24.3887 36.4905
17.5857 24.6297 36.4944
26.79292 35.29891 29.538
10.77482 24.15441 36.6748
17.84709 24.6529 36.49019
8.17591 27.0151 34.7025
20.85129 24.91291 36.3835
26.9467 26.5211 35.4361
26.8344 34.8635 29.8405
7.295908 32.69359 30.8897
18.1948 24.68781 36.4964
15.47861 24.47019 36.5899
7.925988 28.4422 33.7686
27.18899 27.0994 35.0792
7.230283 33.22232 30.5522
8.948208 24.96131 36.131
11.95589 24.21459 36.6954
21.4665 24.9808 36.3937
19.81649 24.8353 36.4645
7.575513 30.66289 32.3019
27.03572 32.35871 31.57631
7.377298 32.0738 31.3533
8.234502 26.72301 34.9663
8.445204 25.75579 35.6198
7.699789 29.845 32.862
19.319 24.79569 36.494
27.1059 31.2193 32.3519
7.322194 32.4946 31.088
23.58109 25.19031 36.3303
27.19879 29.19671 33.7232
20.547 24.9079 36.45951
15.75831 24.50751 36.62691
19.0312 24.7755 36.51821
7.117005 34.18779 29.9573
7.434191 31.6588 31.6609
13.59329 24.3475 36.6953
7.259013 32.99361 30.7665
8.366079 26.04939 35.4489
8.282513 26.47811 35.1612
25.52271 25.46879 36.2049
24.1963 25.2604 36.32431
26.86829 34.55511 30.1496
8.094401 27.50431 34.4839
27.0204 32.61679 31.4581
7.627101 30.33021 32.5819
7.962109 28.25819 33.9804
14.30482 24.40719 36.6967
8.529306 25.5688 35.79731
21.9222 25.0459 36.4375
7.143588 33.9548 30.1518
25.94438 25.6578 36.1147
27.2063 28.9901 33.9071
8.686186 25.30321 35.98861
16.5022 24.57949 36.6441
21.13649 24.97619 36.4787
27.12992 30.80201 32.6995
20.26379 24.89951 36.5199
27.0603 32.0296 31.8852
7.780613 29.35719 33.2734
10.0421 24.3506 36.6844
26.8912 34.32271 30.35489
22.58221 25.1189 36.43621
27.14372 30.5317 32.9032
27.0904 31.5372 32.22831
26.4436 26.0095 35.9223
7.513882 31.10659 32.1047
12.26503 24.2812 36.7921
8.040697 27.82671 34.3274
27.2193 28.58071 34.2318
16.84052 24.6211 36.6775
13.96608 24.40379 36.7625
27.11693 31.0786 32.571
26.9483 33.64679 30.8453
14.6834 24.4578 36.7484
9.224714 24.7886 36.4124
26.18829 25.83 36.0732
23.8871 25.26131 36.4106
7.655711 30.16341 32.7806
9.438516 24.64971 36.5216
7.1705 33.72559 30.3897
27.23369 28.04731 34.6221
22.2874 25.10769 36.4937
27.17421 29.8728 33.4023
23.33811 25.2117 36.4488
26.85338 26.4688 35.6811
7.891596 28.7054 33.7831
18.64571 24.78011 36.6467
27.22642 28.32739 34.45
17.2261 24.6626 36.6968
8.319081 26.3357 35.3894
27.15358 30.35068 33.09491
8.13228 27.337 34.7159
26.91001 34.1492 30.5472
26.68411 26.27049 35.8268
27.21191 28.8329 34.1225
11.7242 24.2704 36.8583
27.0285 26.7584 35.51461
27.23998 27.7574 34.8492
26.8234 35.14719 29.8865
26.7849 35.55539 29.6122
11.23589 24.24319 36.8716
13.09741 24.36329 36.835
8.814097 25.1866 36.19371
26.8524 34.834 30.10659
10.9736 24.24091 36.8753
20.02108 24.90841 36.6194
15.10221 24.507 36.788
24.9441 25.39649 36.4005
13.3569 24.38341 36.8353
7.999391 28.091 34.2394
26.97981 33.2765 31.1639
7.453413 31.54999 31.9099
25.2536 25.4574 36.3767
15.97399 24.57671 36.77411
16.25782 24.5993 36.76751
26.9309 33.9199 30.74299
19.54502 24.8722 36.6556
7.836313 29.054 33.6076
7.591696 30.60311 32.5655
8.198083 26.99929 34.9969
23.02319 25.2036 36.52021
7.544906 30.9194 32.361
27.15349 27.08389 35.348
7.391395 32.00221 31.6355
26.76082 35.84242 29.47429
27.00201 32.9918 31.3918
12.5719 24.3459 36.8889
7.195504 33.52091 30.62291
27.21501 27.36321 35.1773
9.659202 24.5668 36.68541
10.64208 24.2818 36.902
10.35911 24.3258 36.8672
24.45489 25.36329 36.4785
20.71679 24.9919 36.6495
18.09851 24.76241 36.7523
7.284911 32.81 31.1377
7.344307 32.3571 31.4459
19.18599 24.8592 36.7246
15.35478 24.5509 36.8521
9.037287 24.9988 36.4221
17.4872 24.7174 36.7896
27.07753 31.8608 32.20291
18.40109 24.79359 36.759
26.8068 35.4054 29.8251
21.38862 25.0639 36.6459
25.74372 25.64971 36.3479
8.39311 26.0435 35.7221
27.1833 29.6891 33.67601
17.77232 24.74561 36.79451
27.2353 27.6178 35.069
27.16431 30.1612 33.3629
26.9652 33.54129 31.0932
14.4645 24.4969 36.904
7.225098 33.28401 30.8594
27.0344 32.56732 31.7595
8.581997 25.57319 36.0702
7.709028 29.87119 33.1746
20.9989 25.0414 36.7028
21.71302 25.11 36.6721
12.04631 24.3485 36.981
7.481427 31.37919 32.17231
18.906 24.85381 36.7922
14.86153 24.5348 36.9208
22.744 25.215 36.63111
14.18489 24.4881 36.9394
11.50671 24.3203 36.9987
8.248121 26.7861 35.2825
15.605 24.592 36.9097
13.79362 24.4648 36.9572
16.62189 24.66969 36.88131
27.09899 31.52499 32.50641
27.04901 32.36979 31.9398
7.924111 28.5811 34.081
25.4643 25.57739 36.4693
12.81408 24.40551 36.9889
7.746102 29.6504 33.3658
8.081795 27.6908 34.6921
27.19251 29.4583 33.9133
24.10791 25.37159 36.5957
23.73389 25.33181 36.61551
16.99591 24.707 36.89331
7.671387 30.1249 33.0644
27.13549 30.83882 33.00711
26.94941 26.7124 35.7737
7.097812 34.34619 30.2371
7.800819 29.32471 33.6197
26.0239 25.83439 36.3462
26.90202 34.4106 30.614
7.126005 34.10441 30.4065
27.21372 28.7919 34.3937
9.853215 24.5433 36.8771
26.8437 35.0931 30.1618
19.7565 24.94791 36.8157
8.451612 25.90151 35.9414
24.694 25.4478 36.5906
26.56561 26.24921 36.09381
8.040101 27.9389 34.5714
27.12259 31.11189 32.8489
7.421286 31.81651 31.9619
7.25338 33.0677 31.1199
26.35721 26.0701 36.2192
27.23131 28.1004 34.8777
7.308604 32.6435 31.4112
7.860423 28.9762 33.8834
26.94911 33.8417 31.0273
12.33709 24.3998 37.0526
7.507117 31.22058 32.37861
8.339108 26.343 35.668
10.09351 24.46781 36.9625
27.20028 29.2404 34.12461
26.8842 34.6491 30.4911
22.0125 25.17199 36.74401
8.289487 26.60329 35.4972
27.08239 26.9859 35.6379
27.0181 32.8964 31.6766
9.209991 24.92399 36.6478
26.7447 36.1698 29.4774
7.603915 30.57781 32.8308
27.14801 30.59739 33.2303
8.161576 27.28729 35.0522
16.10282 24.6602 36.9853
7.151486 33.8898 30.6079
27.18899 27.3325 35.43521
27.2255 28.3377 34.7624
7.558794 30.8809 32.6518
27.08802 31.7902 32.45571
8.887501 25.2229 36.47561
8.702219 25.4471 36.32151
27.23497 27.91761 35.0626
26.81682 26.55999 35.96801
7.95889 28.42349 34.3218
15.1239 24.59959 37.0417
27.06281 32.23109 32.17781
20.49592 25.04229 36.8603
25.10199 25.54041 36.626
19.3713 24.94009 36.9093
26.9931 33.29518 31.4683
20.01208 24.9988 36.8854
27.2193 28.5833 34.6349
7.997901 28.20919 34.4892
7.446887 31.65171 32.1753
7.358105 32.28721 31.7485
9.491206 24.76871 36.83911
13.58029 24.50619 37.1026
16.40219 24.7038 37.0376
26.86891 34.90031 30.42289
27.10998 31.42011 32.7678
17.25879 24.7727 37.0178
17.91778 24.82629 36.99601
7.066579 34.61212 30.2062
13.2739 24.4935 37.1243
11.83719 24.412 37.1507
26.77959 35.89261 29.7702
10.7905 24.3891 37.155
27.22338 27.6069 35.345
22.35612 25.2461 36.8283
26.9227 34.27109 30.87281
7.633211 30.41401 33.0522
23.20042 25.33619 36.787
8.115114 27.57829 34.965
27.15859 30.39899 33.4761
11.1109 24.38451 37.171
27.2063 29.063 34.3758
21.19449 25.1299 36.8864
26.97799 33.54901 31.36431
19.08389 24.9332 36.9753
26.82799 35.38781 30.1296
15.7992 24.66941 37.08471
23.48331 25.3699 36.7787
12.5781 24.4618 37.1592
17.63642 24.8134 37.0359
24.40179 25.4758 36.73471
7.170589 33.7348 30.8359
10.4602 24.43851 37.1448
8.211614 27.0717 35.3332
26.80269 35.68089 29.9562
18.59921 24.8985 37.01551
27.17599 29.9761 33.7927
7.890821 28.85 34.1405
20.77851 25.0985 36.93061
27.16738 30.2014 33.65721
18.17638 24.86749 37.0455
8.510412 25.83501 36.19271
7.385196 32.10351 31.96791
7.688494 30.07749 33.3371
21.47511 25.17611 36.923
11.36872 24.4185 37.2234
26.21821 26.0499 36.4437
25.65712 25.749 36.6338
16.81131 24.764 37.1097
20.2519 25.05959 36.9854
27.03822 32.71201 31.9979
23.93389 25.4451 36.8106
14.01472 24.5703 37.1877
7.270814 32.95121 31.4289
14.64269 24.6122 37.1774
27.1866 29.69619 34.0335
7.72378 29.8659 33.50911
12.9841 24.5111 37.2139
7.200511 33.49751 31.0659
8.254797 26.869 35.5342
21.8074 25.2193 36.9323
24.87478 25.56461 36.7723
22.91918 25.34011 36.8842
7.765891 29.6153 33.70391
25.36318 25.66761 36.72451
27.1366 27.2337 35.7138
22.6253 25.31309 36.91111
15.38769 24.6731 37.18811
26.68569 26.48359 36.2183
8.059801 27.92591 34.86
7.821293 29.28819 33.9434
27.12992 31.0955 33.1396
19.61661 25.0173 37.06
7.521392 31.176 32.676
8.312107 26.58929 35.7706
27.0536 32.50381 32.2015
25.91258 25.8912 36.6118
9.047092 25.15989 36.7555
27.0755 32.14091 32.45591
26.50321 26.30889 36.3548
12.20831 24.4901 37.2747
27.0083 33.21609 31.7383
26.961 33.88119 31.2921
14.32261 24.61591 37.2494
27.1014 31.6833 32.7838
26.92068 26.80659 36.0507
8.369298 26.3192 35.9864
22.13621 25.27711 36.9768
27.22809 28.1672 35.1568
8.615107 25.6866 36.4285
10.1963 24.5572 37.2197
26.94151 34.1599 31.1346
7.413091 31.9258 32.2229
14.92119 24.6613 37.2536
7.323207 32.57069 31.7893
27.21217 28.84979 34.70621
27.1419 30.86349 33.3551
9.705187 24.746 37.0957
9.273292 25.00251 36.9198
26.85371 35.24518 30.4239
7.587583 30.75519 33.02871
7.080914 34.4792 30.5212
11.60339 24.4796 37.3236
16.19658 24.75591 37.2377
26.76231 36.24779 29.7619
17.07161 24.82439 37.2191
27.23098 27.9717 35.3283
8.778811 25.4682 36.6194
7.551999 30.99179 32.89041
7.136823 34.0133 30.8575
27.11711 31.40962 33.0289
7.109971 34.23411 30.7124
26.89269 34.81111 30.7506
27.1985 29.3542 34.4163
8.141608 27.5224 35.2424
18.40672 24.93989 37.193
7.224382 33.31861 31.3397
18.86669 24.98151 37.1812
13.7949 24.609 37.32441
7.925899 28.7165 34.4498
16.5596 24.7948 37.2619
27.21882 28.5681 34.9569
26.91558 34.5419 30.9507
27.1872 27.49111 35.686
8.014114 28.224 34.792
23.68909 25.48049 36.9665
10.9461 24.4846 37.3676
8.421511 26.16051 36.1909
24.5986 25.59081 36.9174
26.99411 33.5007 31.6667
25.1486 25.67661 36.87461
7.444204 31.72511 32.44761
27.19158 29.58651 34.3004
7.483782 31.45671 32.6348
17.42131 24.87109 37.26371
7.03931 34.83251 30.3655
11.93822 24.52479 37.3835
24.17842 25.5494 36.9616
7.963986 28.5155 34.6304
20.99499 25.19701 37.1323
20.45411 25.1441 37.1592
12.7461 24.5686 37.3834
27.0319 27.05811 36.0188
27.15132 30.6963 33.5839
27.1605 30.47079 33.7355
27.17841 29.99151 34.0572
27.2046 29.1437 34.6264
26.79739 35.9481 30.055
9.919883 24.6956 37.2458
27.02719 33.03379 32.0222
7.285 32.86579 31.7182
20.05333 25.1113 37.1934
7.658304 30.3345 33.4348
7.846505 29.1996 34.2039
17.9914 24.93061 37.283
27.08981 31.99059 32.7439
8.187504 27.3153 35.4799
22.42959 25.3613 37.0934
19.27152 25.04499 37.2445
26.74148 36.56369 29.6821
23.35769 25.4699 37.0499
15.64709 24.75771 37.3668
10.60519 24.5426 37.4095
8.095623 27.8117 35.1644
26.82212 35.71719 30.2614
26.79369 26.7058 36.3043
27.17018 30.236 33.9509
12.46679 24.5762 37.4361
25.5343 25.81809 36.883
26.0948 26.0885 36.722
15.12539 24.7312 37.4021
27.2179 27.76691 35.6244
19.79709 25.1053 37.25599
21.94831 25.32421 37.158
15.93328 24.78869 37.3907
23.0301 25.446 37.1017
7.24882 33.14328 31.6099
13.13651 24.6198 37.4511
21.323 25.25979 37.1948
13.44609 24.6367 37.4479
7.151396 33.89791 31.1093
27.06799 32.4226 32.5245
8.526475 25.9435 36.47821
21.6603 25.2995 37.1888
14.72822 24.71499 37.4349
26.3376 26.27139 36.6365
7.334979 32.51141 32.0513
8.3327 26.5921 36.0485
7.781894 29.6058 34.01861
27.04832 32.76351 32.3081
17.69501 24.9307 37.3641
26.87812 35.1215 30.72519
18.6218 25.00979 37.3351
7.73731 29.8748 33.8433
9.461076 24.967 37.1736
22.74758 25.4274 37.1507
7.622005 30.58889 33.3722
8.044482 28.1174 35.03971
25.79111 25.94741 36.8698
7.690103 30.16612 33.6621
27.1844 29.84731 34.28821
27.12602 31.32981 33.2953
14.44072 24.70849 37.4693
27.22112 28.4155 35.2537
27.13588 31.113 33.4456
7.181705 33.66131 31.3202
20.70049 25.2133 37.27101
8.892805 25.4285 36.8789
8.278699 26.8878 35.889
26.8454 35.53271 30.4871
7.362099 32.32521 32.23
26.78228 36.23152 30.022
8.662404 25.72301 36.6874
19.51769 25.10291 37.3353
26.9365 34.42711 31.24
14.08091 24.6952 37.4957
26.95349 34.20401 31.3948
26.97 33.98219 31.5485
7.87601 29.07429 34.4368
9.145678 25.2075 37.0591
8.227379 27.16319 35.729
27.12289 27.3539 36.00071
11.1458 24.56599 37.5383
16.92671 24.8926 37.4524
8.378387 26.416 36.2569
11.4671 24.5834 37.5543
15.423 24.78939 37.50051
18.2688 25.00368 37.4178
27.10432 31.81201 33.0411
12.18742 24.6147 37.5527
23.8778 25.5896 37.14701
7.389904 32.13799 32.4076
26.93901 26.97959 36.2827
7.063301 34.61659 30.74311
26.98612 33.78761 31.7266
26.61091 26.56489 36.5633
16.34908 24.85891 37.4939
27.22541 28.17419 35.5048
19.06949 25.0808 37.4076
7.54279 31.11771 33.1176
17.2427 24.9284 37.47571
10.30302 24.66871 37.50811
24.97399 25.7469 37.0984
27.01771 33.3342 32.0552
27.08179 32.26 32.777
25.296 25.8172 37.0629
8.154393 27.5736 35.5312
22.24469 25.4121 37.2808
16.66668 24.8914 37.5123
7.011206 35.05671 30.4933
24.7162 25.7149 37.13311
26.9056 34.895 31.0267
7.507594 31.3541 32.9925
13.6644 24.70539 37.5841
7.300587 32.7788 32.03691
24.38158 25.676 37.1627
26.8662 35.38021 30.7078
7.456006 31.69832 32.7711
27.21328 28.7551 35.1625
11.76581 24.62269 37.60891
23.59101 25.57829 37.2184
7.580103 30.88879 33.3203
12.9247 24.6728 37.6026
7.992179 28.45649 34.96441
7.813902 29.4673 34.284
27.18759 27.65371 35.9117
10.05262 24.7594 37.4944
