# .PCD v0.7 - Point Cloud Data file format
VERSION 0.7
FIELDS x y z rgb
SIZE 4 4 4 4
TYPE F F F F
COUNT 1 1 1 1
WIDTH 995
HEIGHT 1
VIEWPOINT 0 0 0 1 0 0 0
POINTS 995
DATA ascii
0.043156676 0.32002401 1.9200001 -2.1428658e+038
0.048623987 0.32168791 1.9300001 -2.1293658e+038
0.054201305 0.32368481 1.9420002 -2.0892811e+038
0.06018053 0.32751477 1.9650002 -1.8890637e+038
0.06641788 0.33201095 1.9920001 -1.8089972e+038
0.072657458 0.33584005 2.0150001 -2.1558477e+038
0.078672789 0.33816868 2.029 -2.049041e+038
0.084929883 0.34116364 2.0470002 -2.0356966e+038
0.1540954 0.37408721 2.2450001 -1.9019933e+038
0.15368924 0.34574193 2.075 -1.9686624e+038
0.1574771 0.34173363 2.0510001 -1.9688182e+038
0.16232671 0.34022447 2.0420001 -2.0088514e+038
0.16778469 0.34004802 2.0410001 -1.9821626e+038
0.17315181 0.3397046 2.039 -1.9554738e+038
0.17824472 0.3388612 2.0340002 -1.9555259e+038
0.18240651 0.33635151 2.0190001 -1.8889081e+038
0.18583509 0.33267567 1.9970001 -1.902304e+038
0.18780306 0.32666764 1.9610001 -1.9957149e+038
0.19203727 0.32482412 1.95 -2.0757813e+038
0.19762799 0.32531253 1.9530001 -1.9956634e+038
0.2043774 0.32763278 1.9670001 -1.9154927e+038
0.20736405 0.32395652 1.9450001 -1.9289928e+038
0.20356211 0.31012064 1.8620001 -1.9290969e+038
0.20502347 0.30477935 1.83 -2.1562118e+038
0.20872051 0.30293563 1.8190001 -2.2497786e+038
0.21317954 0.30225754 1.8150001 -2.4099628e+038
0.21773656 0.3017458 1.812 -2.5167181e+038
0.22276823 0.3019 1.8130001 -2.449996e+038
0.22730248 0.30138794 1.8100001 -2.449996e+038
0.23258962 0.30187473 1.8130001 -2.4899775e+038
0.23841642 0.30302727 1.8200001 -2.4766331e+038
0.24374576 0.30351356 1.8230001 -2.2898632e+038
0.24936359 0.30433261 1.8280001 -2.5166138e+038
0.25486878 0.30498493 1.8320001 -2.6100246e+038
0.26152962 0.30696875 1.8440001 -2.623369e+038
0.26724315 0.307787 1.8490001 -2.623369e+038
0.27283582 0.30843854 1.853 -2.6234216e+038
0.27979907 0.31058785 1.8660001 -2.6767992e+038
0.31833586 0.3351737 2.0140002 -1.9692863e+038
0.32458663 0.33598939 2.0190001 -2.1160747e+038
0.32726738 0.33314392 2.0020001 -2.3694623e+038
0.32968932 0.33013222 1.9840001 -2.4360801e+038
0.33268884 0.32778621 1.9700001 -2.3828067e+038
0.33698457 0.32677141 1.9640001 -2.2360182e+038
0.34177014 0.32625565 1.9610001 -2.2360182e+038
0.34901661 0.32806897 1.9720001 -2.2226738e+038
0.36009532 0.33337548 2.0040002 -2.2092252e+038
0.4072533 0.35058466 2.108 -1.848771e+038
0.41059461 0.3485705 2.0960002 -2.0355923e+038
0.4162536 0.34855199 2.0960002 -1.9822147e+038
0.42311963 0.34953108 2.102 -1.9555259e+038
0.4281815 0.34901363 2.0990002 -1.9021487e+038
0.4332265 0.34849614 2.0960002 -1.9421819e+038
0.43972036 0.34914249 2.1000001 -1.9288371e+038
0.4472957 0.35062 2.1090002 -1.9555259e+038
0.45448938 0.35176489 2.1160002 -1.9822147e+038
0.47549257 0.34618619 2.0830002 -1.9024083e+038
0.47394904 0.34101591 2.052 -1.9292531e+038
0.4694339 0.33385208 2.0090001 -1.8893241e+038
0.46681356 0.32818463 1.9750001 -2.2629675e+038
0.46974692 0.32650569 1.9650002 -2.1830053e+038
0.48253766 0.3316392 1.9960001 -2.2095898e+038
0.50576186 0.34375027 2.069 -2.1295234e+038
0.51825774 0.34838411 2.0970001 -1.9827349e+038
0.50916815 0.33856466 2.0380001 -2.0892298e+038
0.50935656 0.33505878 2.0170002 -2.129263e+038
0.51121783 0.33271605 2.003 -2.1159701e+038
0.5137772 0.33087209 1.9920001 -2.1027297e+038
0.51679808 0.32936054 1.983 -2.0893853e+038
0.52056015 0.32834762 1.9770001 -2.0494036e+038
0.52242756 0.32617238 1.9640001 -2.076248e+038
0.52126908 0.32217076 1.9400001 -2.089592e+038
0.52025229 0.31833577 1.9170001 -2.2365364e+038
0.52075595 0.31549764 1.9000001 -2.2899656e+038
0.52255183 0.31349015 1.8880001 -2.1565213e+038
0.52512121 0.31198114 1.8790001 -2.223347e+038
0.52905285 0.31130266 1.8750001 -2.3301022e+038
0.53666586 0.31278262 1.8840001 -2.3033613e+038
0.54921561 0.31708497 1.9100001 -2.5034761e+038
0.56800032 0.32487324 1.9570001 -2.7703127e+038
0.57942194 0.32834512 1.978 -1.9563041e+038
0.57647085 0.32368335 1.95 -2.0497148e+038
0.56740266 0.31570256 1.9020001 -2.1299875e+038
0.56349421 0.31071025 1.8720001 -2.4504088e+038
0.56337237 0.30787629 1.8550001 -2.4905442e+038
0.56683594 0.30703437 1.8500001 -2.450511e+038
0.57119989 0.30669066 1.848 -2.5439736e+038
0.5755533 0.30634728 1.8460001 -2.5039403e+038
0.57769477 0.30484265 1.8370001 -2.4639067e+038
0.58073956 0.30383623 1.8310001 -2.5705577e+038
0.58375221 0.30283019 1.825 -2.6239349e+038
0.58866817 0.30282009 1.825 -2.6107467e+038
0.59976435 0.30596289 1.8440001 -2.6240396e+038
-0.32529747 0.35876712 2.1910002 -3.3967221e+038
-0.31893101 0.3582927 2.1880002 -2.662935e+038
-0.31372455 0.35912812 2.1930001 -2.6496934e+038
-0.30863068 0.36012721 2.1990001 -2.5829712e+038
-0.30254009 0.35997981 2.1980002 -2.5696267e+038
-0.29604933 0.35934073 2.194 -2.5562825e+038
-0.2901085 0.35935655 2.194 -2.6228488e+038
-0.28546214 0.36101013 2.204 -2.4626646e+038
-0.28000009 0.36168087 2.2080002 -2.5026974e+038
-0.27513614 0.36317039 2.217 -2.5160422e+038
-0.26949441 0.36367691 2.22 -2.5961087e+038
-0.22551051 0.32620168 1.9910001 nan
-0.21900889 0.32457584 1.9810001 -2.4363401e+038
-0.21363935 0.32458815 1.9810001 -2.4365474e+038
-0.20868975 0.32525563 1.9850001 -2.5568537e+038
-0.20341066 0.32543132 1.9860001 -2.556905e+038
-0.19842473 0.32609838 1.9900001 -2.5168718e+038
-0.19331954 0.32660133 1.9930001 -2.3700833e+038
-0.18848047 0.32759571 1.9990001 -2.449838e+038
-0.18342514 0.32826203 2.003 -2.4363898e+038
-0.17852534 0.32925603 2.0090001 -2.1560013e+038
-0.17333405 0.32975805 2.0120001 -2.1559498e+038
-0.16812599 0.3302598 2.0150001 -2.1292614e+038
-0.16241682 0.32977793 2.0120001 -2.1293656e+038
-0.15648943 0.32880396 2.006 -2.1160212e+038
-0.15119658 0.32914096 2.0080001 -2.2094322e+038
-0.14596498 0.32964161 2.0110002 -2.1025212e+038
-0.14078653 0.33030587 2.0150001 -2.0490394e+038
-0.13531737 0.33031422 2.0150001 -2.0222992e+038
-0.1303633 0.33163369 2.023 -2.0089027e+038
-0.12518027 0.33246109 2.0280001 -1.9689216e+038
-0.1199697 0.33328819 2.033 -2.0357481e+038
-0.11445017 0.33329535 2.033 -1.9956634e+038
-0.10909104 0.33379403 2.036 -1.9689745e+038
-0.10391874 0.33494812 2.043 -1.9289413e+038
-0.098563671 0.33561018 2.0470002 -1.8888043e+038
-0.093322895 0.33676377 2.0540001 -1.8754081e+038
-0.087573893 0.33611354 2.0500002 -1.8620637e+038
-0.082126379 0.33661065 2.0530002 -1.8353749e+038
-0.076587729 0.33677948 2.0540001 -1.8487197e+038
-0.071216285 0.33776784 2.0600002 -1.8353749e+038
-0.065557182 0.33744416 2.0580001 -1.8220305e+038
-0.059821337 0.33662823 2.0530002 -1.8487193e+038
-0.05413888 0.33597583 2.049 -1.8487193e+038
-0.048193529 0.33335549 2.033 -1.8355309e+038
-0.041516393 0.32433978 1.978 -1.9024083e+038
-0.035247572 0.31630743 1.9290001 -2.3295852e+038
-0.029804889 0.31417778 1.9160001 -2.4496845e+038
-0.024753725 0.31614721 1.9280001 -2.3430852e+038
-0.01975875 0.3200841 1.9520001 -2.2496744e+038
-0.014522224 0.32156092 1.9610001 -2.2096412e+038
-0.0091007762 0.3182821 1.9410001 -2.5832841e+038
-0.0037662855 0.31319919 1.9100001 -2.5565953e+038
0.0013997748 0.3081159 1.8790001 -2.5166663e+038
0.0064527751 0.30565596 1.8640001 -2.5033736e+038
0.011448966 0.30385163 1.853 -2.396618e+038
0.016545467 0.30499864 1.8600001 -2.4900804e+038
0.021726405 0.3068012 1.8710001 -2.4767359e+038
0.027138984 0.3105711 1.8940001 -2.4367027e+038
0.032540087 0.31302887 1.909 -2.3031025e+038
0.038042355 0.31565028 1.9250001 -2.1028322e+038
0.043563996 0.31777939 1.9380001 -2.0627478e+038
0.049508866 0.32220376 1.9650002 -2.089177e+038
0.068055898 0.33465445 2.0410001 -1.902304e+038
0.074428946 0.33842126 2.0640001 -2.1024186e+038
0.08081039 0.3416957 2.0840001 -2.0757302e+038
0.12880303 0.36542389 2.2290001 -1.8086861e+038
0.13110349 0.35525176 2.1670001 -1.875356e+038
0.149 0.37048054 2.26 -2.0621262e+038
0.1559581 0.37243852 2.2720001 -1.8886489e+038
0.15488362 0.3427501 2.0910001 -1.9820068e+038
0.15771692 0.33667594 2.0540001 -2.0220915e+038
0.16225693 0.33453557 2.0410001 -1.9821626e+038
0.16787688 0.33468965 2.0420001 -1.9688182e+038
0.17350176 0.33484343 2.043 -1.9020961e+038
0.17904399 0.33483306 2.043 -1.9688182e+038
0.18413393 0.33400294 2.0380001 -1.9822147e+038
0.18919623 0.33317256 2.033 -1.9955591e+038
0.19221967 0.32890067 2.0070002 -1.9555259e+038
0.19480605 0.32413706 1.978 -1.9555259e+038
0.1991574 0.322487 1.9680001 -1.9421815e+038
0.20397353 0.32165611 1.9630001 -1.8888039e+038
0.20289791 0.31181309 1.9030001 -1.8889596e+038
0.20051245 0.30049589 1.8340001 -2.3294291e+038
0.20357859 0.29769909 1.817 -2.2763632e+038
0.20781429 0.29670447 1.8110001 -2.0896971e+038
0.21225184 0.29603735 1.807 -2.383274e+038
0.21642685 0.29504243 1.8010001 -2.3432408e+038
0.22130607 0.2950303 1.8010001 -2.3432408e+038
0.22605914 0.29485413 1.8000001 -2.4100149e+038
0.23119113 0.2951692 1.802 -2.4900292e+038
0.23672637 0.29597545 1.807 -2.5700957e+038
0.24228814 0.29678139 1.812 -2.4900288e+038
0.24774 0.29742333 1.8160001 -2.5700953e+038
0.25265637 0.29740995 1.8160001 -2.5700953e+038
0.257714 0.29756013 1.817 -2.61018e+038
0.26277649 0.29771015 1.8180001 -2.61018e+038
0.26828548 0.29835126 1.8220001 -2.6502132e+038
0.27441534 0.29964706 1.83 -2.5567509e+038
0.28303045 0.30356237 1.8540001 -2.5566995e+038
0.32878315 0.33478653 2.0450001 -1.795809e+038
0.33349597 0.33395138 2.0400002 -1.8890637e+038
0.33452502 0.32951486 2.013 -1.9957147e+038
0.33608299 0.32573351 1.9900001 -2.369358e+038
0.34008968 0.32440749 1.9820001 -2.3294291e+038
0.34544688 0.32439089 1.9820001 -2.2893958e+038
0.35398921 0.32732001 2 -2.262707e+038
0.41684583 0.36850458 2.2520001 -1.9155969e+038
0.42349237 0.36897606 2.2550001 -1.8087378e+038
0.41171548 0.34864941 2.131 -1.7686529e+038
0.41433516 0.34601316 2.115 -2.0089039e+038
0.42282599 0.34828493 2.1290002 -1.9421819e+038
0.47927964 0.3392309 2.075 -1.9290969e+038
0.47833118 0.33463538 2.0470002 -1.862531e+038
0.4715583 0.3261171 1.9950001 -1.9559419e+038
0.4700031 0.32135943 1.9660001 -2.116179e+038
0.47626925 0.32199612 1.9700001 -2.0894902e+038
0.49209023 0.32900703 2.013 -2.1428678e+038
0.49949229 0.33029714 2.0210001 -1.9959751e+038
0.5026896 0.32880905 2.0120001 -2.1559518e+038
0.50558561 0.32715777 2.0020001 -2.1293145e+038
0.50893766 0.32583356 1.9940001 -2.1159701e+038
0.51250422 0.32467306 1.9870001 -2.1426587e+038
0.51551151 0.32318598 1.978 -2.1293143e+038
0.51925987 0.32218933 1.9720001 -2.0894368e+038
0.52137953 0.32021269 1.96 -2.0894366e+038
0.5212847 0.31692949 1.9400001 -2.14297e+038
0.52081048 0.31348342 1.9190001 -2.2098478e+038
0.52077103 0.31036454 1.9000001 -2.2632253e+038
0.52312022 0.30871624 1.8900001 -2.0897993e+038
0.52541518 0.3070682 1.8800001 -2.3033613e+038
0.52963144 0.30656385 1.8770001 -2.2900688e+038
0.53554058 0.30703968 1.8800001 -2.3433943e+038
0.54606658 0.3101286 1.899 -2.3700318e+038
0.56191933 0.31615695 1.9360001 -2.4901317e+038
0.57387012 0.31989887 1.9590001 -2.0097331e+038
0.56850243 0.31400663 1.9230001 -2.2632766e+038
0.56234419 0.30778852 1.8850001 -2.1968137e+038
0.56109869 0.30434686 1.8640001 -2.42372e+038
0.56216979 0.30221194 1.8510001 -2.4905446e+038
0.56592858 0.30154681 1.8470001 -2.4771998e+038
0.57152069 0.30186158 1.8490001 -2.5706624e+038
0.57587641 0.30152357 1.8470001 -2.5439736e+038
0.57864916 0.30036968 1.84 -2.4772511e+038
0.58201879 0.29954261 1.835 -2.4904913e+038
0.58568168 0.29887921 1.8310001 -2.6105909e+038
0.58964574 0.29837936 1.8280001 -2.6374355e+038
0.59814769 0.30016497 1.8390001 -2.570662e+038
-0.33411536 0.35588396 2.21 nan
-0.32694757 0.35461268 2.2020001 -2.769586e+038
-0.3202596 0.35382426 2.197 -2.6362975e+038
-0.31417024 0.35367978 2.1960001 -2.6764331e+038
-0.30822596 0.35369611 2.1960001 -2.6097111e+038
-0.30214325 0.35355118 2.1950002 -2.5563335e+038
-0.29593027 0.35324493 2.1930001 -2.6897775e+038
-0.29012415 0.35342172 2.194 -2.5696267e+038
-0.28405285 0.35327613 2.1930001 -2.4228385e+038
-0.27798629 0.35313028 2.1920002 -2.2893431e+038
-0.2720485 0.35314527 2.1920002 -2.3426692e+038
-0.26623148 0.35332114 2.1930001 -2.3827024e+038
-0.22608954 0.32162079 1.9960001 nan
-0.21835791 0.3182494 1.9750001 -2.3829623e+038
-0.21268082 0.31777811 1.9720001 -2.383274e+038
-0.20807078 0.31891802 1.9790001 -2.4901317e+038
-0.203115 0.3195743 1.983 -2.57025e+038
-0.19843614 0.32071394 1.9900001 -2.4634942e+038
-0.19294269 0.32056397 1.9890001 -2.5167156e+038
-0.18792562 0.32121962 1.9930001 -2.4764226e+038
-0.1826116 0.32139152 1.9940001 -2.476423e+038
-0.17782484 0.32253024 2.0010002 -2.3962006e+038
-0.17308573 0.32382995 2.0090001 -2.2493606e+038
-0.16780213 0.32416233 2.0110002 -2.1960876e+038
-0.16234571 0.32417205 2.0110002 -2.1695031e+038
-0.15673278 0.32385904 2.0090001 -2.2095363e+038
-0.15188329 0.32515782 2.0170002 -2.1293143e+038
-0.14677213 0.32597271 2.0220001 -2.0891768e+038
-0.14156356 0.32662615 2.026 -2.0756243e+038
-0.13592993 0.32631198 2.0240002 -2.0489359e+038
-0.13069339 0.32696488 2.0280001 -2.0489359e+038
-0.12537302 0.32745624 2.0310001 -2.0756251e+038
-0.12015402 0.32826975 2.036 -2.0223522e+038
-0.11468233 0.3284381 2.0370002 -1.9689749e+038
-0.10925843 0.32876733 2.039 -1.9289417e+038
-0.10407768 0.32990247 2.046 -1.8621155e+038
-0.098569706 0.3300699 2.0470002 -1.8353749e+038
-0.093283162 0.33104321 2.0530002 -1.8620116e+038
-0.087536544 0.33040372 2.049 -1.8620116e+038
-0.082291439 0.33169892 2.0570002 -1.8486157e+038
-0.076890759 0.33251008 2.062 -1.8753045e+038
-0.071635544 0.33412716 2.072 -1.8753045e+038
-0.066007227 0.33413142 2.072 -1.8619601e+038
-0.060291272 0.33365148 2.069 -1.8753045e+038
-0.054617859 0.33333254 2.0670002 -1.8620641e+038
-0.048836615 0.33220688 2.0600002 -1.8620637e+038
-0.035980705 0.31753683 1.9690001 -1.9556817e+038
-0.030366784 0.31479728 1.9520001 -2.4228399e+038
-0.025397256 0.31899199 1.978 -2.3027403e+038
-0.020488828 0.32641187 2.0240002 -2.1293145e+038
-0.014997107 0.32657424 2.0250001 -1.8356861e+038
-0.0093733054 0.32238194 1.9990001 -2.1159186e+038
-0.0038789241 0.31722167 1.9670001 -2.1427632e+038
0.001425192 0.30851308 1.9130001 -2.3165002e+038
0.0064635626 0.30109432 1.8670001 -2.5033732e+038
0.011480573 0.29964229 1.858 -2.4633915e+038
0.016599871 0.3009316 1.8660001 -2.5167692e+038
0.022076141 0.30657491 1.9010001 -2.4632354e+038
0.03305351 0.31269974 1.9390001 -2.1294699e+038
0.03859809 0.31495523 1.9530001 -2.062488e+038
0.058478806 0.33784601 2.095 -1.9422328e+038
0.063924864 0.33655214 2.0870001 -1.7953926e+038
0.077102169 0.34476769 2.138 -2.0622811e+038
0.082327738 0.34234399 2.1230001 -1.8754599e+038
0.089421831 0.34749889 2.1550002 -1.8754599e+038
0.11722966 0.36101851 2.2390001 -1.8887004e+038
0.12297893 0.36004376 2.233 -1.8486672e+038
0.14762437 0.3609786 2.2390001 -1.8486157e+038
0.15692849 0.36854687 2.286 -1.9285779e+038
0.16234836 0.36676401 2.2750001 -1.9817466e+038
0.15887812 0.33353549 2.069 -2.075313e+038
0.16298206 0.33046317 2.0500002 -1.9688182e+038
0.16862674 0.33061463 2.0510001 -1.915389e+038
0.17436129 0.33092695 2.0530002 -1.9420778e+038
0.17993091 0.33091661 2.0530002 -1.9287849e+038
0.18531929 0.33058363 2.0510001 -1.9288371e+038
0.1910686 0.3308951 2.0530002 -1.9288371e+038
0.19558309 0.32911101 2.0420001 -1.9288371e+038
0.19885543 0.32539281 2.0190001 -1.9688703e+038
0.20230612 0.32215807 1.9990001 -1.9555263e+038
0.20585565 0.31924561 1.9810001 -1.9421819e+038
0.19943045 0.29392251 1.8240001 -2.4898733e+038
0.20246956 0.29117185 1.807 -2.316552e+038
0.20679311 0.29035479 1.802 -2.1698146e+038
0.21120647 0.28969866 1.7980001 -2.1698146e+038
0.21583797 0.28936464 1.7960001 -2.276622e+038
0.22094962 0.28967482 1.7980001 -2.5435101e+038
0.22632271 0.29030702 1.802 -2.6636098e+038
0.23107542 0.29013348 1.8010001 -2.6235244e+038
0.23621514 0.29044303 1.8030001 -2.6368688e+038
0.24123143 0.29059133 1.8040001 -2.4767359e+038
0.24666181 0.29122257 1.8080001 -2.543458e+038
0.25155672 0.29120937 1.8080001 -2.5834912e+038
0.25645104 0.29119599 1.8080001 -2.5435099e+038
0.26163387 0.29150456 1.8100001 -2.5835431e+038
0.26697415 0.29197395 1.8130001 -2.5169769e+038
0.27233008 0.29244316 1.8160001 -2.5703032e+038
0.27999163 0.29532757 1.8340001 -2.5701989e+038
0.33217606 0.33263728 2.066 -1.8091534e+038
0.33907109 0.33390862 2.0740001 -1.8356861e+038
0.34251872 0.33179891 2.0610001 -1.8487706e+038
0.34437522 0.32824042 2.039 -1.8621146e+038
0.3483429 0.32677487 2.0300002 -1.9289926e+038
0.35382992 0.32675797 2.0300002 -2.0891255e+038
0.36480331 0.3317306 2.0610001 -2.1691919e+038
0.40786263 0.35986009 2.2360001 -2.0891257e+038
0.41816092 0.36354244 2.2590001 -1.7421201e+038
0.424263 0.36352307 2.2590001 -1.7686529e+038
0.42579219 0.35964173 2.2350001 -1.7952381e+038
0.48423958 0.36720616 2.283 -1.9287336e+038
0.4888956 0.36606023 2.276 -1.8754081e+038
0.49373069 0.36507529 2.2700002 -1.8620637e+038
0.49853268 0.36409041 2.2640002 -1.8355309e+038
0.50307876 0.36294487 2.2570002 -1.8355309e+038
0.48299366 0.33619565 2.0910001 -1.8889596e+038
0.48302278 0.33231884 2.0670002 -1.9690261e+038
0.48173997 0.32763866 2.0380001 -1.9823705e+038
0.47384536 0.31861863 1.9820001 -2.0491967e+038
0.47652805 0.31683326 1.9710001 -2.2360184e+038
0.48452917 0.31858447 1.9820001 -2.2360182e+038
0.49407205 0.32129988 1.9990001 -2.2360182e+038
0.50020826 0.32176507 2.0020001 -2.262707e+038
0.50433975 0.32094452 1.9970001 -2.1560033e+038
0.50767821 0.3196421 1.9890001 -2.0493521e+038
0.51123112 0.31850064 1.9820001 -2.1027297e+038
0.51422471 0.31703803 1.973 -2.1293658e+038
0.51716948 0.31557566 1.9640001 -2.102677e+038
0.51953328 0.31379223 1.9530001 -2.0893324e+038
0.51941931 0.31056324 1.9330001 -2.1562102e+038
0.51974016 0.30765599 1.9150001 -2.1696584e+038
0.52023774 0.30490983 1.8980001 -2.1431258e+038
0.52396524 0.30409181 1.8930001 -2.30331e+038
0.52738601 0.30311334 1.8870001 -2.3033098e+038
0.53133869 0.3024565 1.8830001 -2.3034132e+038
0.53555465 0.3019605 1.8800001 -2.2634315e+038
0.54262984 0.30307081 1.8870001 -2.290069e+038
0.55380625 0.30642971 1.9080001 -2.2900175e+038
0.56275213 0.30850375 1.9210001 -2.503528e+038
0.560238 0.30431491 1.8950001 -2.3300507e+038
0.5593738 0.30109012 1.8750001 -2.4101687e+038
0.55990714 0.29866877 1.8600001 -2.4903907e+038
0.56248569 0.29737183 1.8520001 -2.3837376e+038
0.56594056 0.29655695 1.8470001 -2.4771998e+038
0.57153231 0.2968663 1.8490001 -2.5706106e+038
0.5758878 0.29653373 1.8470001 -2.517233e+038
0.57960361 0.29588035 1.8430001 -2.5305774e+038
0.58266389 0.29490623 1.8370001 -2.4105295e+038
0.5879311 0.29505616 1.8380001 -2.597195e+038
0.59223628 0.29472491 1.8360001 -2.5839021e+038
0.60141009 0.29680181 1.8490001 -2.570662e+038
-0.34011185 0.3498891 2.21 nan
-0.33383003 0.34958953 2.2080002 -2.5561797e+038
-0.32696435 0.34865636 2.2020001 -2.6630885e+038
-0.3202762 0.34788129 2.197 -2.6097622e+038
-0.31390047 0.34742263 2.194 -2.5563332e+038
-0.30725956 0.34664702 2.1890001 -2.5696777e+038
-0.30092028 0.34618789 2.1860001 -2.6362956e+038
-0.29473144 0.34588683 2.184 -2.6896217e+038
-0.28908175 0.34621906 2.1860001 -2.609504e+038
-0.28329092 0.34639272 2.187 -2.4493715e+038
-0.27711353 0.346091 2.1850002 -2.3293763e+038
-0.27107039 0.34594738 2.184 -2.382754e+038
-0.26515338 0.34596193 2.184 -2.44958e+038
-0.25887957 0.34550101 2.181 -2.44958e+038
-0.22666852 0.3170121 2.0010002 -2.3429804e+038
-0.21825953 0.31274679 1.9740001 -2.5568022e+038
-0.21247704 0.31212506 1.9700001 -2.5568535e+038
-0.20766196 0.31292903 1.9750001 -2.3168108e+038
-0.20281923 0.31373283 1.9800001 -2.2232955e+038
-0.19774936 0.3142195 1.983 -2.2499322e+038
-0.19227466 0.31407213 1.9820001 -2.276621e+038
-0.18708773 0.31439987 1.9840001 -2.4898712e+038
-0.18179788 0.31456894 1.9850001 -2.369772e+038
-0.17694639 0.31553003 1.9910001 -2.4496825e+038
-0.17223419 0.31680799 1.9990001 -2.2894985e+038
-0.16731124 0.31776875 2.0050001 -2.2228807e+038
-0.16243593 0.31888774 2.0120001 -2.1827962e+038
-0.15705407 0.31905559 2.013 -2.0893853e+038
-0.15234406 0.32064962 2.023 -2.1293145e+038
-0.14714378 0.32129246 2.0270002 -2.0891255e+038
-0.14185147 0.32177645 2.0300002 -2.1290023e+038
-0.13607232 0.32115063 2.026 -2.1556912e+038
-0.13063674 0.32131705 2.0270002 -2.1022618e+038
-0.12531881 0.32180023 2.0300002 -2.0488846e+038
-0.12022025 0.32291719 2.0370002 -1.9555263e+038
-0.11485814 0.32339978 2.0400002 -1.8621155e+038
-0.10926501 0.32324794 2.039 -1.8621155e+038
-0.10398223 0.32404706 2.0440001 -1.8220822e+038
-0.098479345 0.32421163 2.0450001 -1.848667e+038
-0.093288817 0.32548577 2.0530002 -1.8753045e+038
-0.087755471 0.32564977 2.0540001 -1.8620116e+038
-0.082616508 0.32739893 2.0650001 -1.8753045e+038
-0.077193782 0.3281965 2.0700002 -1.8753045e+038
-0.071812801 0.32931086 2.0770001 -1.8753045e+038
-0.066297986 0.32994926 2.0810001 -1.8753045e+038
-0.060557242 0.32947746 2.0780001 -1.8619601e+038
-0.054885462 0.3293224 2.0770001 -1.8619601e+038
-0.049124107 0.32853279 2.072 -1.8886489e+038
-0.043368779 0.32758427 2.066 -1.8620637e+038
-0.037390064 0.3244155 2.046 -1.8488749e+038
-0.031504363 0.32108784 2.0250001 -1.9823705e+038
-0.020945648 0.32806778 2.069 -1.8622708e+038
-0.015309102 0.32775182 2.0670002 -1.835582e+038
-0.0096880635 0.32759401 2.066 -1.8489264e+038
0.011648123 0.29889351 1.8850001 -2.5033736e+038
0.046491977 0.3278999 2.0680001 -2.048988e+038
0.052790761 0.33217791 2.095 -2.0356436e+038
0.058621958 0.33296731 2.1000001 -1.9288367e+038
0.065827951 0.34073275 2.1490002 -1.9421811e+038
0.07273303 0.34580222 2.181 -2.0489367e+038
0.07822489 0.34389502 2.1690001 -1.9154931e+038
0.082022496 0.33532852 2.115 -1.8621155e+038
0.087684363 0.3350063 2.1130002 -1.782049e+038
0.094882578 0.34023276 2.1460001 -1.8888043e+038
0.10160274 0.34323913 2.1650002 -1.9421819e+038
0.10768111 0.34386697 2.1690001 -1.9555263e+038
0.15700649 0.36251789 2.2870002 -1.8218226e+038
0.16307162 0.36219141 2.2850001 -1.9817466e+038
0.16458179 0.32808474 2.0700002 -2.0087471e+038
0.16962326 0.32696554 2.0630002 -1.9287849e+038
0.17522079 0.32695556 2.0630002 -1.9688182e+038
0.18125606 0.32773766 2.0680001 -1.995507e+038
0.1869565 0.32788551 2.069 -1.9555259e+038
0.19294107 0.32850853 2.0730002 -1.9421815e+038
0.19789314 0.32738808 2.066 -1.9688703e+038
0.2021172 0.32515824 2.052 -1.9154927e+038
0.20626479 0.32292828 2.0380001 -1.9688703e+038
0.19911358 0.2885116 1.8210001 -2.6233173e+038
0.20203264 0.28564861 1.8030001 -2.4766848e+038
0.20634551 0.28484523 1.7980001 -2.4234102e+038
0.21110064 0.2846753 1.7970001 -2.3566363e+038
0.21609017 0.28482202 1.7980001 -2.4767881e+038
0.22133034 0.28528535 1.8010001 -2.5435101e+038
0.22646059 0.28558999 1.8030001 -2.5168213e+038
0.23108788 0.28526092 1.8010001 -2.7169352e+038
0.23570375 0.28493169 1.7990001 -2.6635576e+038
0.2404419 0.28476059 1.7980001 -2.4500991e+038
0.24599272 0.2855396 1.8030001 -2.4633913e+038
0.25087422 0.28552654 1.8030001 -2.5968875e+038
0.25589707 0.28567168 1.8040001 -2.4369104e+038
0.26078016 0.2856583 1.8040001 -2.490288e+038
0.26595706 0.28596139 1.8060001 -2.5036322e+038
0.27114424 0.28626433 1.8080001 -2.5836989e+038
0.27832642 0.2886253 1.8230001 -2.5701989e+038
0.28869677 0.29415223 1.858 -2.5567509e+038
0.33396128 0.32879081 2.0770001 -2.0626967e+038
0.34154019 0.33067372 2.089 -1.8223416e+038
0.34652421 0.33002377 2.085 -1.8755637e+038
0.35097915 0.32889891 2.0780001 -1.8888039e+038
0.35591027 0.32824883 2.0740001 -1.9154927e+038
0.36186495 0.32854822 2.0760002 -1.8889596e+038
0.37101597 0.33169606 2.0960002 -1.8756152e+038
0.40313876 0.34969971 2.21 -1.9154931e+038
0.41484806 0.35458609 2.2410002 -1.848771e+038
0.42202857 0.35551637 2.2470002 -1.8353228e+038
0.42581141 0.35359868 2.2350001 -1.8619601e+038
0.42721 0.34978271 2.2110002 -1.8887004e+038
0.43474767 0.35102922 2.2190001 -1.8887525e+038
0.44848511 0.35717928 2.2580001 -1.7819973e+038
0.4917081 0.36196351 2.289 -1.8754081e+038
0.49592572 0.36052048 2.2800002 -1.8754081e+038
0.50119501 0.35986808 2.276 -1.8488753e+038
0.50621921 0.35905769 2.2710001 -1.8355309e+038
0.48416683 0.33133453 2.0960002 -1.8756152e+038
0.48467654 0.32783881 2.0740001 -1.9957149e+038
0.48719451 0.32576606 2.0610001 -1.8889596e+038
0.48749024 0.32227114 2.039 -1.8889596e+038
0.48089701 0.31435138 1.9890001 -2.0491967e+038
0.48405719 0.31291208 1.9800001 -2.2093294e+038
0.4908759 0.3138434 1.9860001 -2.2226738e+038
0.49822626 0.31509072 1.9940001 -1.9691301e+038
0.50284117 0.31459993 1.9910001 -2.0625925e+038
0.50641859 0.31347725 1.9840001 -2.2360695e+038
0.50969988 0.31219685 1.9760001 -2.1027297e+038
0.51293778 0.31091666 1.9680001 -2.0492994e+038
0.51560545 0.30932078 1.9580001 -2.1560546e+038
0.51768696 0.30740932 1.9460001 -2.2227764e+038
0.51782256 0.3043924 1.927 -2.249621e+038
0.51948386 0.30232367 1.914 -2.049715e+038
0.52080089 0.30009741 1.9000001 -2.1698146e+038
0.52508712 0.29960877 1.8970001 -2.2232957e+038
0.52823895 0.29848868 1.8900001 -2.2900175e+038
0.5321995 0.29784265 1.886 -2.3034132e+038
0.5352838 0.29672313 1.8790001 -2.3433943e+038
0.54120582 0.29718298 1.8820001 -2.3033613e+038
0.54830503 0.29827458 1.8890001 -2.2499843e+038
0.55485594 0.29905051 1.8940001 -2.1966069e+038
0.55581647 0.29682678 1.8800001 -2.3834285e+038
0.55729824 0.29491919 1.868 -2.4768392e+038
0.55961865 0.2934857 1.8590001 -2.3701355e+038
0.56310534 0.29268399 1.8540001 -2.2902759e+038
0.56687176 0.29204053 1.8500001 -2.5038377e+038
0.57123482 0.291713 1.848 -2.5572153e+038
0.57527548 0.29122794 1.845 -2.5971443e+038
0.57930028 0.29074323 1.8420001 -2.3437562e+038
0.58330899 0.29025885 1.8390001 -2.5704549e+038
0.58826143 0.2902483 1.8390001 -2.6238319e+038
0.59256899 0.28992236 1.8370001 -2.6238838e+038
0.60369676 0.29291096 1.8560001 -2.5838506e+038
-0.34234911 0.34015897 2.1860001 nan
-0.3393594 0.34313259 2.2050002 -3.1966599e+038
-0.33278853 0.34252694 2.2010002 -2.756448e+038
-0.32609007 0.34176543 2.1960001 -2.5832295e+038
-0.31941792 0.34100366 2.1910002 -2.556489e+038
-0.31291512 0.34039727 2.187 -2.5696777e+038
-0.30573145 0.33901238 2.1780002 -2.5963667e+038
-0.29914635 0.33824977 2.1730001 -2.6629842e+038
-0.29353237 0.33857661 2.1750002 -2.6362954e+038
-0.28790683 0.33890316 2.177 -2.6361932e+038
-0.28201061 0.33891827 2.177 -2.3425646e+038
-0.2763674 0.33924448 2.1790001 -2.3293761e+038
-0.27058849 0.33941475 2.1800001 -2.3427205e+038
-0.26456067 0.33927345 2.1790001 -2.3028431e+038
-0.25830019 0.33882049 2.1760001 -2.2761543e+038
-0.22702084 0.31206405 2.0040002 -2.2763098e+038
-0.21805046 0.30709314 1.9720001 -2.5968356e+038
-0.21227312 0.30648205 1.9680001 -2.530217e+038
-0.20756842 0.30742812 1.9740001 -2.4635992e+038
-0.20262572 0.30806246 1.978 -2.4768392e+038
-0.19736162 0.30822945 1.9790001 -2.2499322e+038
-0.19180046 0.30792886 1.9770001 -2.3433432e+038
-0.18662685 0.30825105 1.9790001 -2.3832207e+038
-0.18144187 0.30857301 1.9810001 -2.1828986e+038
-0.17651214 0.30936202 1.9860001 -2.1962434e+038
-0.17172714 0.31046242 1.9930001 -2.1827432e+038
-0.16690361 0.31156254 2 -2.1694518e+038
-0.16228384 0.31312984 2.01 -2.1826921e+038
-0.15698515 0.31345063 2.0120001 -2.0492481e+038
-0.15227763 0.31501752 2.0220001 -2.0225077e+038
-0.14707978 0.31564942 2.026 -2.1024699e+038
-0.14213935 0.31690425 2.0340002 -2.1156583e+038
-0.13621469 0.31597754 2.0280001 -2.0756251e+038
-0.13070889 0.31598538 2.0280001 -2.0889178e+038
-0.12526447 0.31614867 2.029 -2.0889178e+038
-0.12010933 0.31709084 2.0350001 -1.9555259e+038
-0.11447081 0.31678611 2.033 -1.862115e+038
-0.10862845 0.31585783 2.0270002 -1.8488749e+038
-0.10307269 0.31570825 2.026 -1.862115e+038
-0.097666547 0.31602591 2.0280001 -1.8621146e+038
-0.092476435 0.31712237 2.0350001 -1.8354258e+038
-0.0873762 0.3186861 2.0450001 -1.8487181e+038
-0.082381412 0.32087293 2.059 -1.8620629e+038
-0.077161133 0.32243609 2.069 -1.9020961e+038
-0.071851715 0.32384318 2.0780001 -1.8620116e+038
-0.066429444 0.32493824 2.085 -1.875356e+038
-0.060735777 0.32478622 2.0840001 -1.8353228e+038
-0.055020921 0.32447797 2.082 -1.8753045e+038
-0.049269345 0.32385772 2.0780001 -1.8886489e+038
-0.04364432 0.32401639 2.079 -1.8887004e+038
-0.037904065 0.32323959 2.0740001 -1.9153892e+038
-0.032362007 0.32417685 2.0800002 -1.875356e+038
-0.026761558 0.32480204 2.0840001 -1.9287336e+038
-0.021200029 0.32636204 2.0940001 -1.875356e+038
-0.015502614 0.32620731 2.0930002 -1.8219784e+038
-0.0098574795 0.32761079 2.102 -1.8353228e+038
-0.0041634021 0.32901394 2.1110001 -1.9020448e+038
0.0015766211 0.3297933 2.1160002 -1.9020446e+038
0.018710507 0.32776532 2.1030002 -1.9023038e+038
0.024784984 0.33259553 2.1340001 -2.5428353e+038
0.030655224 0.3333731 2.1390002 -2.0090591e+038
0.046180036 0.32011861 2.0540001 -1.9955066e+038
0.052088369 0.32214171 2.0670002 -1.9955587e+038
0.059239686 0.33071005 2.1220002 -1.9822143e+038
0.066781573 0.3397454 2.1800001 -2.0489363e+038
0.07303758 0.34129968 2.1900001 -2.0222475e+038
0.077941068 0.33677563 2.161 -1.9156484e+038
0.080204606 0.32227767 2.0680001 -1.902304e+038
0.085490145 0.32102603 2.0600002 -1.9289928e+038
0.091704689 0.3232024 2.0740001 -2.0490925e+038
0.098041959 0.32553425 2.089 -2.0224037e+038
0.10376533 0.32568413 2.0900002 -1.9556301e+038
0.10986035 0.32692435 2.098 -1.9421819e+038
0.15054326 0.35571244 2.283 -1.8486157e+038
0.15694703 0.35617086 2.286 -1.8886489e+038
0.16293843 0.35569414 2.283 -1.9418695e+038
0.16772771 0.35272437 2.2640002 -2.0084354e+038
0.17251097 0.32683361 2.098 -2.0087471e+038
0.17811882 0.32666779 2.0970001 -2.0221958e+038
0.18407136 0.32712474 2.1000001 -1.995507e+038
0.18976855 0.32711411 2.1000001 -1.9688182e+038
0.19518594 0.32663587 2.0970001 -1.9555259e+038
0.19991598 0.32506707 2.0870001 -1.9288371e+038
0.20449272 0.32334241 2.0760002 -1.9154927e+038
0.20961648 0.32255206 2.0710001 -1.9021487e+038
0.19901524 0.2834276 1.8200001 -2.5166667e+038
0.20159554 0.28014633 1.7990001 -2.5968869e+038
0.20566823 0.27904513 1.7920001 -2.4635992e+038
0.21064225 0.2791895 1.7930001 -2.4768394e+038
0.21622209 0.28011221 1.7990001 -2.4501506e+038
0.22109649 0.28010044 1.7990001 -2.4369104e+038
0.22622155 0.2803998 1.8010001 -2.4367547e+038
0.23058696 0.27976489 1.7970001 -2.5435099e+038
0.23519213 0.27944118 1.7950001 -2.7170387e+038
0.2396522 0.27896163 1.7920001 -2.463495e+038
0.24518695 0.27972731 1.7970001 -2.530217e+038
0.25019157 0.27987012 1.7980001 -2.5303211e+038
0.25520104 0.2800127 1.7990001 -2.4504104e+038
0.26021528 0.28015509 1.8000001 -2.4237216e+038
0.26538154 0.28045297 1.802 -2.557166e+038
0.27055812 0.28075066 1.8040001 -2.5971475e+038
0.27772972 0.28307122 1.8190001 -2.5302699e+038
0.28731266 0.28772557 1.8490001 -2.5434065e+038
0.33526412 0.32441732 2.085 -2.0493523e+038
0.34188393 0.32533437 2.0910001 -1.7956528e+038
0.34720582 0.32500648 2.089 -1.8489264e+038
0.35285398 0.32498965 2.089 -1.9154405e+038
0.35867304 0.32512832 2.0900002 -1.9421294e+038
0.36467111 0.32542232 2.092 -1.9154927e+038
0.37174138 0.32664955 2.1000001 -1.8888039e+038
0.38119051 0.32989845 2.1210001 -1.8620114e+038
0.40894291 0.34354904 2.2090001 -1.9287334e+038
0.41753972 0.34570763 2.223 -1.8887002e+038
0.42373458 0.34584439 2.2240002 -1.8887002e+038
0.4293544 0.34551448 2.2220001 -1.9020446e+038
0.4382934 0.34782782 2.237 -1.8620114e+038
0.4491004 0.35154027 2.2610002 -1.9021487e+038
0.49942583 0.35684341 2.296 -1.8621155e+038
0.50451803 0.35604647 2.2910001 -1.8621155e+038
0.50891393 0.35478342 2.283 -1.8354266e+038
0.5101074 0.35134506 2.2610002 -1.8754599e+038
0.48649502 0.3272227 2.1060002 -1.9288371e+038
0.48656401 0.32347575 2.082 -1.9421815e+038
0.49170381 0.32314718 2.0800002 -1.8889081e+038
0.49707133 0.32297406 2.079 -1.902304e+038
0.49542114 0.31829605 2.049 -1.9823705e+038
0.48651883 0.30911401 1.9900001 -2.0889695e+038
0.49015117 0.30800989 1.983 -2.1291587e+038
0.49649394 0.30861452 1.9870001 -2.2092252e+038
0.50184757 0.30859792 1.9870001 -2.0757811e+038
0.5056693 0.30764964 1.9810001 -1.9424928e+038
0.50842643 0.30608037 1.9710001 -1.9691814e+038
0.51165062 0.30482194 1.9630001 -2.1293658e+038
0.51298791 0.30247685 1.9480001 -2.1960878e+038
0.51530826 0.30075327 1.937 -2.1427615e+038
0.51676297 0.29856417 1.9230001 -2.1028326e+038
0.52112752 0.29808319 1.9200001 -2.1563148e+038
0.52273452 0.29604998 1.9070001 -2.1697631e+038
0.5267626 0.29541427 1.9030001 -2.2365366e+038
0.52993041 0.29431316 1.8960001 -2.3032585e+038
0.53362459 0.29352269 1.891 -2.2766725e+038
0.53643721 0.29226688 1.8830001 -2.2899654e+038
0.540932 0.29194266 1.881 -2.3166544e+038
0.54831862 0.29317063 1.8890001 -2.3166029e+038
0.55516243 0.2940883 1.8950001 -2.1431258e+038
0.5570122 0.29236794 1.8840001 -2.6502132e+038
0.55790776 0.29018247 1.8700001 -2.4367025e+038
0.55993217 0.28861812 1.8600001 -2.1431771e+038
0.56402874 0.2881403 1.8570001 -2.2768798e+038
0.56810927 0.28766271 1.8540001 -2.2635871e+038
0.57217377 0.28718546 1.8510001 -2.2902755e+038
0.57591051 0.28655338 1.8470001 -2.1435388e+038
0.57994026 0.28607675 1.8440001 -2.3436002e+038
0.58363688 0.2854453 1.84 -2.4503033e+038
0.5879519 0.28512445 1.8380001 -2.5303697e+038
0.59193391 0.28464884 1.835 -2.5970918e+038
0.60208023 0.28712076 1.8510001 -2.6905539e+038
-0.34346232 0.33531517 2.1930001 nan
-0.33706757 0.3348732 2.1900001 -2.6631418e+038
-0.33068827 0.33443102 2.187 -2.636711e+038
-0.32417598 0.33383572 2.1830001 -2.6099184e+038
-0.31768459 0.33324015 2.1790001 -2.5031118e+038
-0.31121409 0.33264431 2.1750002 -2.5297489e+038
-0.30448374 0.33174238 2.1690001 -2.7028635e+038
-0.29750976 0.33053416 2.161 -2.4893534e+038
-0.29300779 0.33207902 2.171 -3.0630093e+038
-0.28752515 0.332553 2.174 nan
-0.28137776 0.33226195 2.1720002 -2.8497053e+038
-0.275621 0.33242956 2.1730001 -2.2894472e+038
-0.26973403 0.33244398 2.1730001 -2.2762583e+038
-0.26396775 0.33261114 2.174 -2.3162917e+038
-0.25795797 0.33247212 2.1730001 -2.3162917e+038
-0.22793952 0.30786407 2.0120001 -2.2497253e+038
-0.2185047 0.30236757 1.9760001 -2.650213e+038
-0.21303989 0.30222633 1.9750001 -2.57025e+038
-0.20800051 0.30269697 1.978 -2.4903394e+038
-0.20294432 0.3031674 1.9810001 -2.2901733e+038
-0.19747236 0.30302545 1.9800001 -2.3967206e+038
-0.19190821 0.30273014 1.978 -2.370032e+038
-0.18663734 0.30289376 1.9790001 -2.3699805e+038
-0.18145213 0.30321023 1.9810001 -2.2363805e+038
-0.17652215 0.3039856 1.9860001 -2.3162915e+038
-0.17190923 0.30537301 1.9950001 -2.2628099e+038
-0.1675808 0.30737257 2.0080001 -2.2227251e+038
-0.1633428 0.30967814 2.023 -2.0625409e+038
-0.15777448 0.30953422 2.0220001 -2.0758854e+038
-0.15251237 0.31000239 2.0250001 -2.0624367e+038
-0.14723349 0.31047022 2.0280001 -1.942337e+038
-0.14214759 0.31139717 2.0340002 -1.9690261e+038
-0.13655844 0.31125209 2.033 -1.9822143e+038
-0.13090989 0.31095365 2.0310001 -1.9555259e+038
-0.12521006 0.31050178 2.0280001 -1.9421815e+038
-0.11940808 0.30974337 2.023 -1.8621146e+038
-0.11346398 0.30852526 2.0150001 -1.8489262e+038
-0.10761656 0.30745995 2.0080001 -1.8355818e+038
-0.10216299 0.30746612 2.0080001 -2.0490923e+038
-0.096805416 0.30777821 2.01 -2.2225696e+038
-0.091663912 0.30885562 2.0170002 -2.2358097e+038
-0.086697735 0.31069842 2.029 -2.2091209e+038
-0.081786126 0.31300035 2.0440001 -2.0222992e+038
-0.076718189 0.31499577 2.0570002 -1.9421289e+038
-0.071475632 0.31653151 2.0670002 -1.8620114e+038
-0.066274099 0.31852639 2.0800002 -1.848667e+038
-0.060710266 0.31898957 2.0830002 -1.8353228e+038
-0.055103507 0.31929931 2.085 -1.8620116e+038
-0.049414575 0.31914929 2.0840001 -1.8486157e+038
-0.043793906 0.31945837 2.0860002 -1.8620116e+038
-0.038107388 0.31930768 2.085 -1.8620116e+038
-0.032503989 0.31992233 2.089 -1.8619601e+038
-0.026827378 0.31992412 2.089 -1.8486157e+038
-0.021120308 0.31946611 2.0860002 -1.8753045e+038
-0.015399843 0.31839514 2.079 -1.8887004e+038
-0.0098252436 0.32084629 2.095 -1.8353228e+038
-0.0041616806 0.32314396 2.1100001 -1.9687669e+038
0.0015856576 0.3259007 2.128 -1.9287336e+038
0.025146542 0.33156401 2.1650002 -1.8888039e+038
0.031058377 0.33186862 2.1670001 -1.9154923e+038
0.036912788 0.33156034 2.1650002 -1.9688699e+038
0.046002932 0.31333113 2.046 -1.995507e+038
0.051637862 0.31378764 2.049 -1.9554734e+038
0.059969112 0.32894528 2.148 -1.9822143e+038
0.066754937 0.33368883 2.1790001 -2.1022618e+038
0.072608367 0.3333784 2.177 -1.9555255e+038
0.079123385 0.31239 2.0400002 -2.2892916e+038
0.084416158 0.31146637 2.0340002 -2.1025742e+038
0.090295136 0.31268623 2.0420001 -2.0358521e+038
0.096311167 0.31421196 2.052 -2.0090593e+038
0.10193437 0.31435928 2.0530002 -1.9423372e+038
0.10792923 0.31557804 2.0610001 -2.0089035e+038
0.11451807 0.31832761 2.079 -1.9555263e+038
0.15578894 0.34737879 2.2690001 -1.8486157e+038
0.16209139 0.3476758 2.2710001 -1.9552139e+038
0.16744101 0.34598228 2.26 -1.995091e+038
0.19240932 0.33598095 2.1950002 -2.0487803e+038
0.19565341 0.33137813 2.1650002 -1.9688182e+038
0.19919954 0.32754055 2.1400001 -1.9421294e+038
0.20366326 0.32538652 2.1260002 -1.9287849e+038
0.20854299 0.32399762 2.1170001 -1.9554222e+038
0.21367697 0.32306767 2.1110001 -1.9020446e+038
0.1990262 0.27850139 1.8200001 -2.3298451e+038
0.2014945 0.27512407 1.7980001 -2.5434069e+038
0.20579419 0.27434796 1.7930001 -2.5036329e+038
0.21077111 0.27448973 1.794 -2.4901838e+038
0.21587312 0.2747843 1.7960001 -2.5568543e+038
0.22037089 0.27431369 1.7930001 -2.4102216e+038
0.22535425 0.27445483 1.794 -2.5036329e+038
0.22970085 0.27383089 1.7900001 -2.5036329e+038
0.23441832 0.27366579 1.789 -2.5970433e+038
0.23912977 0.27350047 1.7880001 -2.3034664e+038
0.2446539 0.27425277 1.7930001 -2.4369102e+038
0.249787 0.27454594 1.7950001 -2.5170282e+038
0.25493035 0.27483889 1.7970001 -2.4638065e+038
0.2597948 0.27482584 1.7970001 -2.4770992e+038
0.2649532 0.27511847 1.7990001 -2.503788e+038
0.27042174 0.27571675 1.8030001 -2.6103877e+038
0.27804896 0.27845559 1.8210001 -2.5968877e+038
0.28872544 0.28409925 1.858 -2.5700953e+038
0.33528042 0.31877667 2.085 -1.8091534e+038
0.34140995 0.31921902 2.0880001 -1.8489262e+038
0.34672388 0.3188968 2.0860002 -1.8888035e+038
0.35287079 0.31933874 2.089 -1.9420778e+038
0.35869002 0.31947485 2.0900002 -1.9554738e+038
0.36468816 0.3197636 2.092 -1.9554738e+038
0.37034243 0.31974658 2.092 -1.8754599e+038
0.37743372 0.32095215 2.1000001 -1.9287334e+038
0.38639188 0.32368568 2.118 -1.9020446e+038
0.40044519 0.33054492 2.1630001 -1.8753558e+038
0.41192329 0.33511114 2.1930001 -1.9020446e+038
0.42089531 0.33753765 2.2090001 -1.8887002e+038
0.42956644 0.33965814 2.223 -1.9020446e+038
0.43870434 0.34208393 2.2390001 -1.9020446e+038
0.44693464 0.34374547 2.25 -1.8621155e+038
0.45582774 0.34586513 2.2640002 -1.8754599e+038
0.46601975 0.348901 2.2840002 -1.8621155e+038
0.51576728 0.34904978 2.286 -1.8888039e+038
0.49136433 0.3247357 2.1270001 -1.9288371e+038
0.49172342 0.32120627 2.1040001 -1.9288371e+038
0.49975929 0.3227149 2.1140001 -1.9421811e+038
0.50689214 0.3236129 2.1200001 -2.0090593e+038
0.49435928 0.30861932 2.0220001 -1.9423372e+038
0.49115658 0.30326059 1.9870001 -2.0624367e+038
0.495511 0.30263352 1.983 -2.2225696e+038
0.50034869 0.3023119 1.9810001 -2.0624882e+038
0.50491977 0.30183777 1.978 -2.0357992e+038
0.50792658 0.30044827 1.9690001 -2.022559e+038
0.51062399 0.29890648 1.9590001 -2.0092662e+038
0.51168692 0.29644948 1.9430001 -2.102677e+038
0.51372755 0.29460311 1.9310001 -2.0894366e+038
0.51839066 0.29428273 1.9290001 -2.2096925e+038
0.5243997 0.29472518 1.932 -2.1830037e+038
0.52960235 0.29471016 1.932 -2.0228191e+038
0.53092939 0.29255983 1.9180001 -2.0095789e+038
0.53273976 0.29071492 1.9060001 -2.2897589e+038
0.53674304 0.29009053 1.9020001 -2.3165495e+038
0.54043961 0.28931385 1.8970001 -2.2499324e+038
0.54612219 0.28960499 1.899 -2.223192e+038
0.55355716 0.29081127 1.9070001 -2.1965034e+038
0.56308591 0.29308507 1.9220001 -2.1965034e+038
0.56500816 0.29139432 1.9110001 -2.0897482e+038
0.56150073 0.28695941 1.8820001 -2.1698144e+038
0.56175089 0.28450724 1.8660001 -2.343343e+038
0.56525588 0.28373256 1.8610001 -2.1300913e+038
0.56995982 0.28356805 1.8600001 -2.42372e+038
0.57404023 0.28309888 1.8570001 -2.503786e+038
0.57841635 0.28278247 1.8550001 -2.5037335e+038
0.58183837 0.28200904 1.8500001 -2.5036809e+038
0.58586806 0.28154081 1.8470001 -2.5303697e+038
0.58796239 0.28015834 1.8380001 -2.3969257e+038
0.59065366 0.27908111 1.8310001 -2.1834152e+038
-0.35020813 0.33011559 2.1980002 nan
-0.34332249 0.32923117 2.1920002 -2.556284e+038
-0.33677632 0.32864693 2.1880002 -2.6098153e+038
-0.32964617 0.32746163 2.1800001 -2.5432489e+038
-0.32285562 0.32657644 2.174 -2.4765268e+038
-0.31595093 0.32554078 2.1670001 -2.5564894e+038
-0.30894032 0.32435465 2.1590002 -2.6363999e+038
-0.29356277 0.32680443 2.1750002 nan
-0.28793684 0.32711986 2.177 nan
-0.28061512 0.32548165 2.1660001 -2.2492586e+038
-0.274367 0.32504529 2.1630001 -2.276207e+038
-0.26900342 0.32566062 2.1670001 -2.3429804e+038
-0.26386037 0.32657635 2.1730001 -2.3429806e+038
-0.25868404 0.32749188 2.1790001 -2.3162917e+038
-0.21940124 0.29822093 1.9840001 -2.5034246e+038
-0.21348296 0.297481 1.9790001 -2.6636087e+038
-0.20822223 0.29764283 1.9800001 -2.5036838e+038
-0.20285302 0.297654 1.9800001 -2.3568951e+038
-0.19728374 0.29736423 1.978 -2.4634942e+038
-0.19182184 0.29722461 1.9770001 -2.4234094e+038
-0.18702498 0.29813713 1.983 -2.2098476e+038
-0.18201184 0.29874873 1.9870001 -2.2630693e+038
-0.17777647 0.30071336 2 -2.1561587e+038
-0.1736424 0.30297855 2.0150001 -2.169399e+038
-0.17076179 0.30764946 2.046 -2.1560031e+038
-0.16529001 0.30780932 2.0470002 -2.1024699e+038
-0.15942214 0.30721697 2.043 -1.9957147e+038
-0.15365086 0.30677474 2.0400002 -2.0889695e+038
-0.14833097 0.30723441 2.043 -2.0090593e+038
-0.1429944 0.30769384 2.046 -1.9823705e+038
-0.13743958 0.30770189 2.046 -2.0090593e+038
-0.13117529 0.30605528 2.0350001 -1.9156482e+038
-0.12472335 0.30380663 2.02 -1.875615e+038
-0.11835249 0.30155763 2.0050001 -1.7957044e+038
-0.1126822 0.30096275 2.0010002 -2.3027916e+038
-0.10708686 0.30051786 1.9980001 -2.2362251e+038
-0.10166015 0.30052394 1.9980001 -2.2362251e+038
-0.096184939 0.30037925 1.9970001 -2.1960876e+038
-0.090896651 0.30083594 2 -2.1960876e+038
-0.085890926 0.30234531 2.01 -2.1959321e+038
-0.080750555 0.30355355 2.0180001 -2.1959321e+038
-0.075678356 0.3052128 2.029 -2.1290541e+038
-0.070615314 0.3071726 2.0420001 -2.0489363e+038
-0.065577 0.30958346 2.0580001 -1.9154405e+038
-0.060247511 0.31094107 2.0670002 -1.8753558e+038
-0.05457817 0.31064355 2.0650001 -1.875356e+038
-0.049014393 0.31094751 2.0670002 -1.9020448e+038
-0.043397591 0.31095022 2.0670002 -1.8887004e+038
-0.03776237 0.31080216 2.066 -1.875356e+038
-0.032070231 0.31005204 2.0610001 -1.8486672e+038
-0.026366632 0.30885032 2.0530002 -1.8219784e+038
-0.020615295 0.3062942 2.036 -1.875356e+038
-0.014985926 0.30433953 2.023 -1.8887002e+038
-0.0095631825 0.30674729 2.039 -1.9687666e+038
-0.0040790844 0.31111047 2.0680001 -1.9020446e+038
0.0015783003 0.31863257 2.118 -1.9287334e+038
0.0074970578 0.325703 2.1650002 -1.9420778e+038
0.013498195 0.32856071 2.184 -1.8887002e+038
0.019442394 0.3287102 2.1850002 -1.875356e+038
0.025322272 0.32795665 2.1800001 -1.8887004e+038
0.031088892 0.3263002 2.1690001 -1.8486672e+038
0.036693323 0.32374072 2.1520002 -1.875356e+038
0.041770346 0.31787142 2.1130002 -1.8887002e+038
0.045668382 0.30553311 2.0310001 -1.9688182e+038
0.051086459 0.30492851 2.0270002 -1.995507e+038
0.05882794 0.31695989 2.1070001 -2.0488846e+038
0.065686576 0.32252216 2.1440001 -2.0756251e+038
0.069710828 0.31439504 2.0900002 -1.8889594e+038
0.073621757 0.30701989 2.0410001 -2.2760514e+038
0.078507438 0.30445817 2.0240002 -2.1960365e+038
0.083964556 0.30430299 2.023 -2.1426589e+038
0.089946665 0.30595258 2.0340002 -2.0892298e+038
0.095894359 0.30730087 2.043 -1.942337e+038
0.10139411 0.3071447 2.0420001 -1.9690261e+038
0.10730709 0.30819154 2.049 -2.0089035e+038
0.11386371 0.31089252 2.0670002 -1.9688707e+038
0.15312003 0.33536926 2.23 -1.9686626e+038
0.16031621 0.33776653 2.2460001 -1.8885962e+038
0.16708013 0.33911067 2.2550001 -1.9552139e+038
0.17289391 0.33849952 2.2510002 -2.0085916e+038
0.17836738 0.33728656 2.243 -1.9285251e+038
0.18494821 0.3381786 2.2490001 -1.9018361e+038
0.19139111 0.33876944 2.253 -1.9819026e+038
0.1969786 0.33785644 2.2470002 -1.995247e+038
0.20090614 0.3342368 2.223 -2.0352802e+038
0.2035858 0.32881293 2.187 -2.0486246e+038
0.20731501 0.32534361 2.164 -1.9820583e+038
0.21219954 0.32382867 2.154 -1.9419736e+038
0.21723168 0.32261422 2.1460001 -1.9953514e+038
0.2217001 0.32064793 2.1330001 -1.9686626e+038
0.19991186 0.27477697 1.8280001 -2.0626971e+038
0.20172952 0.27055743 1.8000001 -2.7167286e+038
0.20557567 0.26919377 1.7910001 -2.5701468e+038
0.21031241 0.26903236 1.7900001 -2.5568545e+038
0.2152836 0.26917142 1.7910001 -2.5169769e+038
0.21976797 0.26870903 1.7880001 -2.3701882e+038
0.22473799 0.26884767 1.789 -2.4902878e+038
0.22907123 0.26823473 1.7850001 -2.5971993e+038
0.23390634 0.26822272 1.7850001 -2.5570614e+038
0.23874088 0.26821056 1.7850001 -2.3434994e+038
0.24425708 0.26894945 1.7900001 -2.4768907e+038
0.24938224 0.2692374 1.7920001 -2.5035795e+038
0.25423396 0.26922464 1.7920001 -2.517028e+038
0.259085 0.26921174 1.7920001 -2.4769947e+038
0.26452458 0.26979959 1.7960001 -2.5170282e+038
0.27058518 0.27098808 1.8040001 -2.6902462e+038
0.27928424 0.27472982 1.8290001 -2.61018e+038
0.32744324 0.31104872 2.0710001 -2.6767467e+038
0.33577904 0.31358594 2.0880001 -1.875615e+038
0.34175333 0.31387013 2.0900002 -1.9421815e+038
0.34707278 0.31355345 2.0880001 -1.9420778e+038
0.35322532 0.31398746 2.0910001 -1.8887002e+038
0.35904998 0.31412098 2.092 -1.9821111e+038
0.36505374 0.31440455 2.0940001 -1.9420778e+038
0.37000534 0.3137871 2.0900002 -1.9020446e+038
0.37601295 0.3140704 2.092 -1.915389e+038
0.38276047 0.31495407 2.098 -1.8887002e+038
0.39231685 0.31808925 2.1190002 -1.8620114e+038
0.40273717 0.32182437 2.1440001 -1.8620114e+038
0.41424465 0.32630947 2.174 -1.9020446e+038
0.42417422 0.32944325 2.1950002 -1.9020446e+038
0.43304074 0.33167607 2.21 -1.9287334e+038
0.44019973 0.33255798 2.2160001 -1.915389e+038
0.44759166 0.33358973 2.223 -1.8887517e+038
0.45542875 0.33492145 2.2320001 -1.9421294e+038
0.46558794 0.33790356 2.2520001 -1.9287849e+038
0.50179112 0.32196653 2.1470001 -1.9555772e+038
0.50852442 0.32254821 2.151 -2.0222475e+038
0.51217037 0.32118064 2.1420002 -2.0355919e+038
0.51020581 0.31636474 2.1100001 -1.9288367e+038
0.49975517 0.30645192 2.0440001 -1.9956104e+038
0.49438661 0.29983845 2 -1.982266e+038
0.4960272 0.29757324 1.9850001 -2.0090591e+038
0.49985984 0.29665753 1.9790001 -2.1558991e+038
0.50468075 0.29634157 1.9770001 -2.0224548e+038
0.50716871 0.29467669 1.9660001 -2.0359035e+038
0.50855446 0.29241267 1.9510001 -2.0226106e+038
0.50959563 0.2899991 1.9350001 -2.102677e+038
0.51321077 0.28908458 1.9290001 -2.1428143e+038
0.51974952 0.28981867 1.9340001 -2.2630184e+038
0.52930057 0.2922011 1.95 -2.1164911e+038
0.53674453 0.29338473 1.9580001 nan
0.5392487 0.29187149 1.9480001 nan
0.54141909 0.29020867 1.937 -2.0489367e+038
0.54550552 0.28959495 1.9330001 -1.9825258e+038
0.55156463 0.29003012 1.9360001 -2.0360592e+038
