# .PCD v0.7 - Point Cloud Data file format
VERSION 0.7
FIELDS x y z rgb
SIZE 4 4 4 4
TYPE F F F F
COUNT 1 1 1 1
WIDTH 988
HEIGHT 1
VIEWPOINT 0 0 0 1 0 0 0
POINTS 988
DATA ascii
-0.25653666 0.3405551 1.9810001 -2.2092254e+038
-0.25028437 0.33936596 1.9740001 -2.2493626e+038
-0.2459307 0.34075531 1.9820001 -2.2494141e+038
-0.24129032 0.34180072 1.988 -2.2628099e+038
-0.23697279 0.34336179 1.9970001 -2.1826919e+038
-0.23272192 0.34509474 2.0070002 -2.2358097e+038
-0.22943544 0.34837508 2.026 -2.0489367e+038
-0.2240558 0.34856018 2.0270002 -2.2757916e+038
-0.21273974 0.33928698 1.973 -3.1164892e+038
-0.20634091 0.33757958 1.9630001 -2.3293248e+038
-0.20101978 0.33759156 1.9630001 -2.2760514e+038
-0.19609693 0.33829123 1.9670001 -2.1826919e+038
-0.19018202 0.3372708 1.9610001 -2.1693475e+038
-0.18467623 0.33693799 1.9590001 -2.1826392e+038
-0.17945549 0.33712089 1.96 -2.169139e+038
-0.17422879 0.33730355 1.9610001 -2.1557429e+038
-0.16675673 0.33301362 1.9360001 -2.1423985e+038
-0.1447928 0.30860621 1.794 -2.3029473e+038
-0.13891187 0.3063786 1.7810001 -2.1696593e+038
-0.13332689 0.30466664 1.771 -2.0496634e+038
-0.1285941 0.30484676 1.7720001 -2.2765183e+038
-0.12329666 0.30365026 1.7650001 -2.4497867e+038
-0.11830544 0.30314162 1.7620001 -2.5431975e+038
-0.11320128 0.30228853 1.7570001 -2.4764755e+038
-0.10824738 0.3017793 1.7540001 -2.5298531e+038
-0.10354544 0.30195794 1.7550001 -2.4764755e+038
-0.09855637 0.30127606 1.751 -2.4232021e+038
-0.093695857 0.30093795 1.7490001 -2.4100137e+038
-0.088591635 0.29973924 1.7420001 -2.4233581e+038
-0.083814025 0.29957262 1.7410001 -2.3299475e+038
-0.079995543 0.30301917 1.761 -2.3831693e+038
-0.063840628 0.31783614 1.8470001 -1.9289928e+038
-0.057646308 0.31147289 1.8100001 -2.262707e+038
-0.05246852 0.30992767 1.8010001 -2.2895514e+038
-0.04768287 0.31061921 1.8050001 -2.276207e+038
-0.043041259 0.31251508 1.8160001 -2.2228809e+038
-0.03838174 0.31475487 1.8290001 -2.1961406e+038
-0.033651486 0.3169944 1.8420001 -2.1826921e+038
-0.028772745 0.31837311 1.8500001 -2.2226211e+038
-0.02388897 0.32026783 1.8610001 -2.2092252e+038
-0.019066807 0.32422739 1.8840001 -2.1291587e+038
-0.014156659 0.32904714 1.9120001 -2.0624369e+038
-0.0089021577 0.32681063 1.899 -1.9422328e+038
-0.0037024813 0.32319704 1.8780001 -2.0757811e+038
0.0013913156 0.3214761 1.868 -2.1158143e+038
0.0064723152 0.32182008 1.8700001 -2.1557433e+038
0.011570338 0.32233578 1.8730001 -2.1290545e+038
0.016649049 0.32216275 1.8720001 -2.0222479e+038
0.021803545 0.32319409 1.8780001 -1.9954555e+038
0.026976245 0.32405302 1.8830001 -1.9287336e+038
0.032244191 0.32559994 1.8920001 -1.9019933e+038
0.037402872 0.32576981 1.8930001 -1.9286823e+038
0.042836558 0.32800445 1.9060001 -1.9954043e+038
0.048365917 0.33041078 1.9200001 -1.7952383e+038
0.054166529 0.33402136 1.9410001 -1.8886491e+038
0.059652336 0.33522233 1.9480001 -1.9019933e+038
0.065376014 0.33745545 1.9610001 -1.9020448e+038
0.071206152 0.33986026 1.9750001 -1.9420778e+038
0.077073351 0.34209257 1.988 -1.9420778e+038
0.082679033 0.34294787 1.9930001 -1.9020448e+038
0.08782544 0.34191006 1.9870001 -1.9153892e+038
0.092985906 0.34104398 1.9820001 -1.9020448e+038
0.098218203 0.34052172 1.9790001 -1.8887004e+038
0.10348628 0.34017125 1.9770001 -1.8353226e+038
0.10885332 0.3401646 1.9770001 -1.8620116e+038
0.11422002 0.34015763 1.9770001 -1.875356e+038
0.11928394 0.33929002 1.9720001 -1.8620116e+038
0.12400438 0.33756194 1.9620001 -1.875356e+038
0.12886791 0.33634976 1.955 -1.8486672e+038
0.13403624 0.33599752 1.9530001 -1.875356e+038
0.13947871 0.3363331 1.955 -1.9020448e+038
0.1450057 0.33684051 1.9580001 -1.9020448e+038
0.15047178 0.33717546 1.96 -1.8887004e+038
0.15594831 0.33751014 1.9620001 -1.875356e+038
0.16127084 0.33750045 1.9620001 -1.8486672e+038
0.16676275 0.33783454 1.9640001 -1.8620116e+038
0.17261554 0.33885637 1.9700001 -1.8620116e+038
0.17940375 0.34159783 1.9860001 -1.8620116e+038
0.18879047 0.34898275 2.029 -1.9554222e+038
0.19697358 0.35378709 2.0570002 -1.9420778e+038
0.20314163 0.35480711 2.0630002 -1.9154931e+038
0.20853226 0.35445097 2.0610001 -1.9021487e+038
0.2129765 0.35254678 2.0500002 -1.8621155e+038
0.1973078 0.31039056 1.8050001 -1.9687666e+038
0.19872667 0.30504835 1.774 -1.9821111e+038
0.20089488 0.3010819 1.751 -2.0089035e+038
0.20481697 0.29986662 1.7440001 -2.1024701e+038
0.2100223 0.30054247 1.748 -2.3159806e+038
0.21635449 0.30276549 1.761 -2.2627072e+038
0.22137536 0.30309695 1.7630001 -1.9959751e+038
0.22512375 0.30170906 1.7550001 -1.9960793e+038
0.22922119 0.3008368 1.7500001 -2.2496231e+038
0.23690072 0.30460572 1.7720001 -2.3830671e+038
0.24524443 0.30906168 1.7980001 -2.0628014e+038
0.25261545 0.31214201 1.8160001 -1.9824747e+038
0.26008335 0.31522188 1.8340001 -2.0356966e+038
0.26822618 0.31898877 1.8560001 -2.0222483e+038
0.27575135 0.3218959 1.8730001 -1.9688703e+038
0.27572146 0.31603798 1.8390001 -2.0355923e+038
0.27184379 0.30605626 1.7810001 -1.8889596e+038
0.27712741 0.30655733 1.784 -2.5696284e+038
0.29368949 0.31391633 1.8270001 -1.9290969e+038
0.29797593 0.31321386 1.8230001 -1.9290969e+038
0.30074477 0.31096509 1.8100001 -2.0091633e+038
0.30293614 0.30820107 1.794 -1.9959745e+038
0.30418259 0.30457824 1.7730001 -2.0895924e+038
0.30740613 0.30301702 1.7640001 -2.0764038e+038
0.3112883 0.30214292 1.7590001 -2.0630594e+038
0.3156819 0.30178413 1.7570001 -2.0230262e+038
0.31732854 0.29884899 1.7400001 -2.0630594e+038
0.31925288 0.29625756 1.725 -2.049715e+038
0.32278562 0.29521191 1.7190001 -2.0630594e+038
0.32876161 0.29639876 1.7260001 -2.0363706e+038
0.33535436 0.29810056 1.7360001 -2.3966693e+038
0.3439593 0.30151924 1.756 -2.4368563e+038
0.40177444 0.33373049 1.9440001 -2.1029372e+038
0.40011129 0.32804808 1.9110001 -2.0761967e+038
0.40378326 0.32682922 1.904 -2.143023e+038
0.41364524 0.33058822 1.9260001 -2.2897072e+038
0.43080181 0.34001082 1.9810001 -2.5966285e+038
0.44627303 0.34788778 2.0270002 -2.3430848e+038
0.45597461 0.35113019 2.046 -2.0626965e+038
0.4637481 0.35282788 2.056 -2.0759369e+038
0.46997723 0.3533242 2.059 -2.0625925e+038
0.47922438 0.35605121 2.075 -2.0759369e+038
0.49019286 0.35997906 2.098 -2.1026257e+038
0.5017575 0.36424974 2.1230001 -2.0759367e+038
0.50843662 0.36491713 2.1270001 -2.1562102e+038
0.51223606 0.36352593 2.1190002 -2.3563759e+038
0.51452523 0.36110562 2.105 -2.2630163e+038
0.51797426 0.35954338 2.0960002 -2.2363793e+038
0.52162403 0.35815296 2.0880001 -2.1697615e+038
0.52624047 0.35744885 2.0840001 -2.2231387e+038
0.53032452 0.35640189 2.0780001 -2.169917e+038
0.53566533 0.35621276 2.0770001 -2.2232947e+038
0.53995806 0.35533774 2.072 -2.2900688e+038
0.54448694 0.35463449 2.0680001 -2.196658e+038
0.54846179 0.35358849 2.062 -2.3167576e+038
0.55321032 0.35305718 2.059 -2.2767759e+038
0.55767101 0.35235471 2.0550001 -2.0231797e+038
0.56238389 0.35182384 2.052 -2.1032974e+038
0.56597352 0.35060751 2.0450001 -2.4370102e+038
0.56840742 0.34870574 2.0340002 -2.5705577e+038
-0.39216736 0.35582247 2.105 nan
-0.38666469 0.35600996 2.1060002 nan
-0.38151774 0.35653543 2.1090002 -2.7701005e+038
-0.37617564 0.35689178 2.1110001 -2.6768448e+038
-0.37117305 0.35758623 2.115 -2.6235719e+038
-0.36597538 0.35811159 2.118 -2.5968317e+038
-0.36042061 0.35829869 2.1190002 -2.6367094e+038
-0.35485965 0.35848558 2.1200001 -2.6766909e+038
-0.34879863 0.35816512 2.118 -2.2630147e+038
-0.34047994 0.35547686 2.102 -2.356374e+038
-0.32746887 0.34771454 2.056 -2.3964604e+038
-0.31674132 0.34214997 2.023 -2.1695542e+038
-0.31019214 0.34098235 2.016 -2.1828475e+038
-0.30428478 0.34049106 2.013 -2.2228296e+038
-0.29809612 0.33966124 2.0080001 -2.2495184e+038
-0.29251683 0.33950776 2.0070002 -2.1559518e+038
-0.28708532 0.33952329 2.0070002 -2.195985e+038
-0.28109181 0.33886188 2.003 -2.2492584e+038
-0.2745688 0.33752352 1.9950001 -2.2493099e+038
-0.26808849 0.33618486 1.9870001 -2.209328e+038
-0.26046091 0.33332306 1.9700001 -2.2361211e+038
-0.2533133 0.33096841 1.9560001 -2.3295317e+038
-0.24738207 0.3301363 1.9510001 -2.3162388e+038
-0.24222191 0.33031926 1.9520001 -2.2495164e+038
-0.23741981 0.3310096 1.9560001 -2.2895496e+038
-0.23271416 0.3318691 1.9610001 -2.2495164e+038
-0.22809677 0.33289763 1.9670001 -2.2361724e+038
-0.22344632 0.33392605 1.973 -2.1960878e+038
-0.2180995 0.33393875 1.973 -2.2227251e+038
-0.21167381 0.33225861 1.9630001 -2.0492479e+038
-0.20603761 0.33176291 1.96 -2.3294804e+038
-0.20103163 0.33228266 1.9630001 -2.2627583e+038
-0.19590911 0.33263284 1.9650002 -2.1560546e+038
-0.1900963 0.33179778 1.96 -2.1959321e+038
-0.18487577 0.33197817 1.9610001 -2.169139e+038
-0.17974091 0.3323276 1.9630001 -2.1557429e+038
-0.17361729 0.33081448 1.9540001 -2.0756769e+038
-0.15041932 0.30526865 1.8030001 -2.3029473e+038
-0.14359088 0.30121395 1.779 -2.3564805e+038
-0.13837431 0.30037591 1.774 -2.2764137e+038
-0.13318449 0.2995376 1.7690001 -2.3431357e+038
-0.12809396 0.29886821 1.7650001 -2.3698245e+038
-0.12267549 0.2973519 1.756 -2.3830647e+038
-0.11757412 0.29651257 1.751 -2.4364423e+038
-0.11262839 0.29601163 1.748 -2.556542e+038
-0.10782207 0.29584911 1.7470001 -2.4365466e+038
-0.10319787 0.29619434 1.7490001 -2.4899759e+038
-0.098224781 0.29552317 1.7450001 -2.4233581e+038
-0.093165964 0.29451299 1.7390001 -2.4101174e+038
-0.088292032 0.29401055 1.7360001 -2.4100652e+038
-0.083771154 0.29469338 1.7400001 -2.3566363e+038
-0.063118778 0.30928242 1.8260001 -1.9421811e+038
-0.057522569 0.30589867 1.8060001 -2.3160847e+038
-0.052442722 0.30488586 1.8000001 -2.2897076e+038
-0.047685906 0.30573592 1.8050001 -2.3030516e+038
-0.042854387 0.30624697 1.8080001 -2.1696593e+038
-0.038174327 0.30811274 1.8190001 -2.1829519e+038
-0.033416118 0.30980888 1.8290001 -2.1161257e+038
-0.028572382 0.31116596 1.8370001 -2.1693475e+038
-0.023659421 0.31218395 1.8430001 -2.1026255e+038
-0.018835241 0.31523427 1.8610001 -2.0892813e+038
-0.013965047 0.31947011 1.886 -2.0757811e+038
-0.008860535 0.32014841 1.8900001 -1.9823703e+038
-0.0036968032 0.31760797 1.8750001 -2.0624367e+038
0.001389915 0.31608352 1.8660001 -2.1425031e+038
0.0064519611 0.31574446 1.8640001 -2.1025214e+038
0.011527833 0.31608269 1.8660001 -2.1158658e+038
0.016587853 0.3159124 1.8650001 -2.0624367e+038
0.021723665 0.31692752 1.8710001 -2.0224037e+038
0.026892006 0.31794232 1.8770001 -1.9822143e+038
0.032109901 0.31912613 1.8840001 -1.9421819e+038
0.037306458 0.31980148 1.8880001 -1.968819e+038
0.042614527 0.32115406 1.8960001 -1.942078e+038
0.047991119 0.32267565 1.9050001 -1.9287336e+038
0.053500175 0.32470497 1.9170001 -1.9153892e+038
0.058921143 0.32588711 1.9240001 -1.9020446e+038
0.064513318 0.32774639 1.9350001 -1.9020446e+038
0.070201091 0.32977465 1.9470001 -1.9020446e+038
0.076225236 0.33298814 1.9660001 -1.9287334e+038
0.082227893 0.33569312 1.9820001 -1.9287334e+038
0.087565742 0.33551839 1.9810001 -1.9287334e+038
0.092804082 0.33500469 1.978 -1.9954555e+038
0.097876936 0.33398256 1.9720001 -1.9420778e+038
0.10323102 0.33397627 1.9720001 -1.8753558e+038
0.10847467 0.33363098 1.9700001 -1.9020961e+038
0.11393825 0.33396277 1.9720001 -1.9020446e+038
0.11904939 0.33327815 1.9680001 -1.915389e+038
0.1242649 0.33293191 1.9660001 -1.8753558e+038
0.12940323 0.33241603 1.9630001 -1.8353226e+038
0.13466223 0.33223861 1.9620001 -1.875356e+038
0.13998674 0.33223021 1.9620001 -1.9020448e+038
0.14531085 0.33222151 1.9620001 -1.875356e+038
0.15086487 0.33272049 1.9650002 -1.8887004e+038
0.15635525 0.33304977 1.9670001 -1.8620116e+038
0.16169162 0.33304015 1.9670001 -1.8353228e+038
0.16719739 0.33336887 1.9690001 -1.8353228e+038
0.17262594 0.33352798 1.9700001 -1.8486672e+038
0.17986619 0.33707279 1.9910001 -1.8620114e+038
0.19029057 0.34620368 2.0450001 -1.9020446e+038
0.1988048 0.35144019 2.0760002 -1.9287334e+038
0.20453231 0.35159755 2.0770001 -1.9288375e+038
0.20996113 0.35124677 2.075 -1.9021487e+038
0.21423572 0.3490338 2.062 -1.8888043e+038
0.1958981 0.30330884 1.7920001 -1.9821111e+038
0.19862613 0.30008167 1.7730001 -1.9954555e+038
0.20193906 0.29786998 1.7600001 -1.9688703e+038
0.20494613 0.29531971 1.7450001 -1.9957149e+038
0.20919316 0.29463103 1.7410001 -2.2360184e+038
0.21489233 0.29597285 1.7490001 -2.22283e+038
0.22025762 0.29680678 1.7540001 -2.1295234e+038
0.22282724 0.29391778 1.7370001 -2.0094233e+038
0.22556618 0.29136723 1.7220001 -2.3431377e+038
0.23330393 0.29524615 1.7450001 -2.5166154e+038
0.24266613 0.3009856 1.779 -2.0094238e+038
0.25012514 0.3041867 1.7980001 -2.0358521e+038
0.25626826 0.30569559 1.807 -2.0623854e+038
0.26303762 0.30788085 1.8200001 -2.0089039e+038
0.27208519 0.31260312 1.848 -1.8622193e+038
0.27468649 0.30988219 1.8320001 -1.9823189e+038
0.26911047 0.29819682 1.7630001 -1.862531e+038
0.27217072 0.29632217 1.7520001 -2.5697845e+038
0.27991253 0.29952133 1.771 -2.6098178e+038
0.28807804 0.3030583 1.7920001 -1.9425971e+038
0.29406804 0.30422729 1.7990001 -1.9290969e+038
0.29826748 0.30353588 1.7950001 -1.955837e+038
0.30210698 0.30250627 1.789 -1.9826816e+038
0.30419767 0.29978576 1.7730001 -2.0629036e+038
0.30742127 0.29824898 1.7640001 -2.0764038e+038
0.31183442 0.2978957 1.7620001 -2.049715e+038
0.31839234 0.29957107 1.7720001 -2.0630594e+038
0.32281518 0.29921761 1.7700001 -2.049715e+038
0.32389513 0.29582134 1.7500001 -2.049715e+038
0.32392746 0.2915802 1.725 -2.1431258e+038
0.32725298 0.29038185 1.7180001 -2.15647e+038
0.33208564 0.29053572 1.7190001 -2.3568424e+038
0.33888197 0.2923795 1.7300001 -2.4235632e+038
0.34673008 0.29506806 1.7460001 -2.4235119e+038
0.35929358 0.30164298 1.7850001 -2.2232436e+038
0.3862907 0.31580454 1.8690001 -2.4900804e+038
0.39405638 0.31798422 1.8820001 -2.2098478e+038
0.40380043 0.3216843 1.904 -2.0630594e+038
0.41903207 0.32960752 1.9510001 -2.4099624e+038
0.43799636 0.34023288 2.0140002 -2.5833354e+038
0.44937369 0.34477574 2.0410001 -2.0228708e+038
0.45777598 0.34695333 2.0540001 -2.0228191e+038
0.46421769 0.34761056 2.0580001 -2.0625925e+038
0.47068045 0.34826776 2.062 -2.0759369e+038
0.47947389 0.35061386 2.0760002 -2.0360079e+038
0.49137983 0.35515517 2.1030002 -2.0226633e+038
0.50461257 0.36054042 2.135 -2.2362253e+038
0.51371449 0.36288565 2.1490002 -2.1696584e+038
0.51854002 0.36219135 2.1450002 -2.3431874e+038
0.52065462 0.35963988 2.1300001 -2.396616e+038
0.52194655 0.35658228 2.112 -2.1965016e+038
0.52414036 0.35420042 2.098 -2.22319e+038
0.52752095 0.35266301 2.089 -2.2366387e+038
0.5316183 0.3516323 2.0830002 -2.2500346e+038
0.53723031 0.35161468 2.0830002 -2.2900678e+038
0.54127848 0.35058439 2.0770001 -2.2767755e+038
0.54555726 0.34972319 2.072 -2.3168087e+038
0.54874486 0.34818712 2.0630002 -2.356842e+038
0.55322707 0.34749517 2.059 -2.3701864e+038
0.55687338 0.3462972 2.052 -2.0899015e+038
0.56130391 0.34560579 2.0480001 -2.2901191e+038
0.56460577 0.34423971 2.0400002 -2.477044e+038
0.56786424 0.34287387 2.0320001 -2.5439218e+038
0.56882215 0.34015855 2.016 -2.6372282e+038
-0.3933036 0.35113069 2.1110001 nan
-0.38741744 0.35098264 2.1100001 nan
-0.38207868 0.35133356 2.112 -2.8103406e+038
-0.37672845 0.35168442 2.1140001 -2.717034e+038
-0.37154216 0.35220158 2.1170001 -2.5968313e+038
-0.36633897 0.35271868 2.1200001 -2.5034209e+038
-0.36060855 0.35273656 2.1200001 -2.409959e+038
-0.35404041 0.3519223 2.115 -2.2498261e+038
-0.34716928 0.35077503 2.108 -2.4764737e+038
-0.33903939 0.34829628 2.0930002 -2.3964075e+038
-0.3270078 0.34165663 2.0530002 -2.3563233e+038
-0.31675771 0.33668041 2.023 -2.1827943e+038
-0.30928501 0.33453295 2.01 -2.2095363e+038
-0.30354488 0.33421603 2.0080001 -2.1694518e+038
-0.2967757 0.33273372 1.9990001 -2.1561076e+038
-0.29136634 0.33274925 1.9990001 -2.2227253e+038
-0.28552708 0.33226517 1.9960001 -2.2627586e+038
-0.27914217 0.33111501 1.9890001 -2.2093809e+038
-0.27141806 0.3282997 1.9720001 -2.2093807e+038
-0.26432508 0.32614991 1.9590001 -2.3028429e+038
-0.2576986 0.32449925 1.9490001 -2.4096496e+038
-0.25216168 0.32418022 1.9470001 -2.2895496e+038
-0.2470154 0.32436052 1.9480001 -2.3162384e+038
-0.24223544 0.32504016 1.9520001 -2.2362237e+038
-0.23706903 0.32522005 1.9530001 -2.2495164e+038
-0.23189658 0.32539976 1.9540001 -2.2228276e+038
-0.22637023 0.32507965 1.9520001 -2.1827943e+038
-0.22130719 0.32542545 1.9540001 -2.1693988e+038
-0.21601161 0.3254379 1.9540001 -2.1160212e+038
-0.21103901 0.32594976 1.9570001 -2.1827434e+038
-0.20552391 0.32562864 1.955 -2.2227251e+038
-0.20032643 0.32580698 1.9560001 -2.2093807e+038
-0.19502324 0.32581851 1.9560001 -2.2359653e+038
-0.19020449 0.32666263 1.9610001 -2.1158656e+038
-0.18554668 0.3278397 1.9680001 -2.0489876e+038
-0.18066727 0.32868347 1.973 -2.0355915e+038
-0.15609477 0.30188146 1.812 -2.089177e+038
-0.14875971 0.29705903 1.7830001 -2.4097026e+038
-0.14279236 0.29473522 1.7690001 -2.4632358e+038
-0.13799265 0.29474363 1.7690001 -2.3698245e+038
-0.13304196 0.29441854 1.7670001 -2.3297913e+038
-0.12788402 0.29359335 1.7620001 -2.3431357e+038
-0.12240352 0.29193467 1.7520001 -2.3563759e+038
-0.11731271 0.29110879 1.7470001 -2.4364423e+038
-0.11250643 0.29094917 1.7460001 -2.4899242e+038
-0.10776699 0.29095593 1.7460001 -2.3831689e+038
-0.10285018 0.2904624 1.743 -2.3699805e+038
-0.097893097 0.28980201 1.7390001 -2.3699805e+038
-0.093011007 0.28930795 1.7360001 -2.3834285e+038
-0.088348389 0.28948024 1.7370001 -2.3834285e+038
-0.084209688 0.29148543 1.7490001 -2.3699807e+038
-0.092908002 0.36249417 2.1750002 -2.3699805e+038
-0.063433856 0.30584165 1.835 -1.9154923e+038
-0.057462484 0.30067864 1.8040001 -2.195985e+038
-0.052446019 0.30001536 1.8000001 -2.2630188e+038
-0.04758323 0.30018517 1.8010001 -2.2229852e+038
-0.042762272 0.30068803 1.8040001 -2.2096925e+038
-0.03794587 0.30135727 1.8080001 -2.2228809e+038
-0.033253793 0.30335972 1.8200001 -2.2362253e+038
-0.02838753 0.30419505 1.825 -2.1693475e+038
-0.023532536 0.30553016 1.8330001 -2.1560031e+038
-0.018664367 0.307365 1.8440001 -2.0892813e+038
-0.013810426 0.31086642 1.8650001 -2.1025742e+038
-0.0087626399 0.31153384 1.8690001 -2.0225077e+038
-0.0036753484 0.31070083 1.8640001 -1.9958189e+038
0.0013832989 0.30953413 1.8570001 -2.1425031e+038
0.0064350618 0.3098672 1.8590001 -2.1158658e+038
0.011510029 0.31053337 1.863 -2.1026257e+038
0.01656222 0.31036583 1.8620001 -2.0490923e+038
0.021655371 0.31086469 1.8650001 -2.0224035e+038
0.026807738 0.31186324 1.8710001 -2.0356966e+038
0.031992622 0.31286147 1.8770001 -1.9689745e+038
0.037190247 0.31369272 1.8820001 -1.9688707e+038
0.042369969 0.31419027 1.8850001 -1.9688707e+038
0.047666624 0.31535417 1.8920001 -1.9688707e+038
0.053029079 0.31668442 1.9000001 -1.9288375e+038
0.058465455 0.31818098 1.909 -1.9821111e+038
0.063883871 0.31934386 1.9160001 -1.9420778e+038
0.069340095 0.32050642 1.9230001 -1.9421294e+038
0.075183123 0.32316861 1.9390001 -1.9821626e+038
0.081486218 0.32733041 1.9640001 -1.9287334e+038
0.087350182 0.32932508 1.9760001 -1.9287334e+038
0.092809863 0.32965282 1.978 -1.9687666e+038
0.097932659 0.32881361 1.973 -1.9821111e+038
0.10318508 0.3284741 1.9710001 -1.9554222e+038
0.10820605 0.32746765 1.9650002 -1.9688182e+038
0.11319412 0.32646096 1.9590001 -1.9287845e+038
0.11814928 0.325454 1.9530001 -2.0622286e+038
0.12383005 0.32644644 1.9590001 -2.1022618e+038
0.1297408 0.32793841 1.9680001 -1.8754073e+038
0.13521956 0.32826361 1.9700001 -1.8887002e+038
0.14042337 0.32792196 1.9680001 -1.875356e+038
0.14568999 0.32774669 1.9670001 -1.8887004e+038
0.1514882 0.32873741 1.973 -1.8887004e+038
0.15723909 0.32956123 1.978 -1.875356e+038
0.16252343 0.32938507 1.9770001 -1.8620116e+038
0.16822645 0.33004162 1.9810001 -1.8486672e+038
0.1738631 0.33053127 1.9840001 -1.8486672e+038
0.1813224 0.33435243 2.0070002 -1.8354266e+038
0.19086018 0.34167141 2.0510001 -1.8621155e+038
0.19919959 0.34649095 2.0800002 -1.8488753e+038
0.20533216 0.34731194 2.085 -1.8488753e+038
0.21088415 0.34713328 2.0840001 -1.8755641e+038
0.21507941 0.34478897 2.0700002 -1.9421819e+038
0.19514412 0.29729608 1.7850001 -1.9420778e+038
0.19841342 0.29495314 1.771 -1.9021487e+038
0.2020653 0.29327631 1.761 -1.8756152e+038
0.20531011 0.29109982 1.748 -1.9289926e+038
0.20848396 0.28892329 1.7350001 -2.1825363e+038
0.21367565 0.28957754 1.7390001 -2.2360182e+038
0.21863735 0.28989857 1.7410001 -2.1827964e+038
0.22091524 0.28672272 1.7220001 -2.0628527e+038
0.22295865 0.28338045 1.702 -2.4099115e+038
0.23050888 0.28703094 1.7240001 -2.5966815e+038
0.24022388 0.2931782 1.761 -2.2362782e+038
0.24805188 0.29682758 1.7830001 -2.0093195e+038
0.25415462 0.29831237 1.7920001 -2.0491967e+038
0.26030552 0.29979685 1.8010001 -2.0889699e+038
0.26782969 0.30277911 1.8190001 -2.0355923e+038
0.27050245 0.30026823 1.8040001 -1.9423372e+038
0.26881921 0.29309717 1.761 -2.0893859e+038
0.26938841 0.28858951 1.7340001 -2.1294187e+038
0.27486894 0.28940764 1.7390001 -2.5697839e+038
0.28326976 0.29322106 1.7620001 -2.4496843e+038
0.29015964 0.29536986 1.7750001 -1.9159081e+038
0.29612216 0.29651996 1.7820001 -1.9958702e+038
0.30144647 0.29700425 1.7850001 -1.996026e+038
0.30472741 0.29549187 1.7760001 -1.996182e+038
0.30778483 0.29381308 1.766 -2.0495592e+038
0.31255746 0.29379806 1.766 -2.1162812e+038
0.31948578 0.29577923 1.7780001 -2.0895924e+038
0.32611352 0.29742736 1.7880001 -2.1295214e+038
0.32946312 0.29608119 1.7800001 -1.996026e+038
0.33013976 0.29240644 1.7580001 -2.0494036e+038
0.33164945 0.28956363 1.7410001 -2.062748e+038
0.33577147 0.28904939 1.738 -1.9428569e+038
0.34163979 0.29003191 1.7440001 -1.956253e+038
0.35032028 0.29334241 1.7640001 -1.9961832e+038
0.35689399 0.29482335 1.7730001 -1.9828388e+038
0.36535162 0.29780057 1.7910001 -2.116437e+038
0.3757661 0.30227384 1.8180001 -2.2899141e+038
0.38904783 0.30890796 1.858 -2.4500991e+038
0.40445369 0.31703761 1.9070001 -2.4634437e+038
0.44192904 0.33778253 2.0320001 -2.3032072e+038
0.45159373 0.34092265 2.0510001 -2.0228708e+038
0.45935446 0.34256649 2.0610001 -2.1027812e+038
0.46536401 0.34288061 2.0630002 -2.1691919e+038
0.4713836 0.34319463 2.0650001 -2.1158143e+038
0.4785684 0.34433964 2.072 -2.0625925e+038
0.48859447 0.34747872 2.0910001 -2.0892811e+038
0.50014049 0.35161453 2.1160002 -2.0760924e+038
0.51182091 0.35574993 2.141 -2.1698146e+038
0.52097631 0.35805738 2.1550002 -2.2498808e+038
0.52629548 0.35770631 2.1530001 -2.3834275e+038
0.52888483 0.35552791 2.1400001 -2.3967715e+038
0.52915514 0.35185471 2.118 -2.3034122e+038
0.53006417 0.34868041 2.0990002 -2.263379e+038
0.53291208 0.34683532 2.0880001 -2.3701853e+038
0.53698999 0.34582111 2.082 -2.3302036e+038
0.54129583 0.34497321 2.0770001 -2.3836338e+038
0.54531109 0.34395951 2.0710001 -2.3703932e+038
0.5492937 0.34294599 2.0650001 -2.4236666e+038
0.55378121 0.34226495 2.0610001 -2.4236664e+038
0.55661839 0.34058774 2.0510001 -2.3569444e+038
0.56186831 0.34040534 2.0500002 -2.3303071e+038
0.56489849 0.33889481 2.0410001 -2.5171288e+038
0.56955671 0.33838084 2.0380001 -2.5571618e+038
0.56911981 0.33487868 2.0170002 -2.5839017e+038
-0.39369458 0.3457512 2.1130002 nan
-0.38817009 0.34593305 2.1140001 -3.1031977e+038
-0.38245863 0.34595114 2.1140001 -2.6902935e+038
-0.37710291 0.34629649 2.1160002 -2.5968827e+038
-0.37138462 0.34631443 2.1160002 -2.5567985e+038
-0.3660112 0.34665954 2.118 -2.6234692e+038
-0.35909534 0.34553149 2.1110001 -2.1430193e+038
-0.35171437 0.34391209 2.1010001 -2.3698229e+038
-0.34471616 0.34261984 2.0930002 -2.3564276e+038
-0.33759847 0.34116355 2.0840001 -2.1827943e+038
-0.32845798 0.33757868 2.062 -2.1694503e+038
-0.31771344 0.33219242 2.029 -2.209432e+038
-0.30899322 0.32877019 2.0080001 -2.2227766e+038
-0.30235127 0.32747608 2 -2.1960363e+038
-0.29560348 0.32601795 1.9910001 -2.2227251e+038
-0.29036132 0.326197 1.9920001 -2.1960365e+038
-0.28411168 0.32522959 1.9860001 -2.2360695e+038
-0.27705184 0.32327926 1.9740001 -2.1828477e+038
-0.26950565 0.32067353 1.9580001 -2.2363296e+038
-0.26312497 0.31937757 1.95 -2.3031029e+038
-0.25744817 0.31890029 1.9470001 -2.116177e+038
-0.25282311 0.31973314 1.9520001 -2.2095874e+038
-0.24778993 0.32007444 1.9540001 -2.2762052e+038
-0.24237299 0.31992412 1.9530001 -2.302894e+038
-0.23683946 0.31960976 1.9510001 -2.2094832e+038
-0.2317909 0.31995046 1.9530001 -2.1694503e+038
-0.22661494 0.3201271 1.9540001 -2.1427615e+038
-0.22120644 0.31997582 1.9530001 -2.1293656e+038
-0.2158028 0.31982437 1.9520001 -2.1026768e+038
-0.2106197 0.32000032 1.9530001 -2.1827434e+038
-0.20532548 0.32001221 1.9530001 -2.1560031e+038
-0.20033799 0.32051542 1.9560001 -2.2627586e+038
-0.19543339 0.32118231 1.96 -2.2092767e+038
-0.19108857 0.32283223 1.9700001 -2.0490923e+038
-0.18659472 0.32431811 1.9790001 -2.0623324e+038
-0.18150207 0.32482046 1.9820001 -2.0890213e+038
-0.15455331 0.29402879 1.794 -2.1293658e+038
-0.14801762 0.29075974 1.774 -2.4497871e+038
-0.14255869 0.28945714 1.766 -2.4364423e+038
-0.13753285 0.28897378 1.7630001 -2.369772e+038
-0.13259819 0.288654 1.761 -2.3296871e+038
-0.12731107 0.28751436 1.7540001 -2.3965133e+038
-0.12206157 0.28637436 1.7470001 -2.449891e+038
-0.11698405 0.28556198 1.7420001 -2.3965133e+038
-0.11231995 0.28573284 1.743 -2.4098577e+038
-0.10765009 0.28590342 1.7440001 -2.3698245e+038
-0.10285647 0.28574586 1.743 -2.4100139e+038
-0.098180577 0.28591594 1.7440001 -2.3299475e+038
-0.09349896 0.28608575 1.7450001 -2.3833249e+038
-0.089065939 0.28707498 1.751 -2.3966695e+038
-0.093340956 0.35824785 2.1850002 -2.4100139e+038
-0.087846816 0.36005694 2.1960001 -1.9424926e+038
-0.081882492 0.36006218 2.1960001 -2.0491438e+038
-0.057529774 0.29612446 1.8060001 -1.9958189e+038
-0.052332744 0.29448819 1.7960001 -2.2762072e+038
-0.047401246 0.29416332 1.794 -2.2495182e+038
-0.042693827 0.29531395 1.8010001 -2.1562631e+038
-0.037990227 0.29679224 1.8100001 -2.2363296e+038
-0.03321933 0.29810622 1.8180001 -2.1696075e+038
-0.02824931 0.29778019 1.8160001 -2.0894368e+038
-0.023367105 0.29843771 1.8200001 -2.1961406e+038
-0.018503582 0.29975086 1.8280001 -2.1826406e+038
-0.013677995 0.30286744 1.8470001 -2.1025742e+038
-0.0086741047 0.30336004 1.8500001 -2.0758854e+038
-0.0036538886 0.30385238 1.853 -1.9958189e+038
0.001379661 0.30368847 1.8520001 -2.129263e+038
0.0064320043 0.30467209 1.858 -2.0491965e+038
0.011498395 0.30516347 1.8610001 -2.1159186e+038
0.016527675 0.30467066 1.858 -2.0225077e+038
0.021552222 0.30434152 1.8560001 -2.0090591e+038
0.026694788 0.30548784 1.863 -2.0224037e+038
0.031858262 0.30646989 1.8690001 -1.9823705e+038
0.037054241 0.30745158 1.8750001 -1.9556301e+038
0.042192787 0.30777708 1.8770001 -1.9955591e+038
0.04746804 0.30892205 1.8840001 -2.0222479e+038
0.052725364 0.30973881 1.8890001 -1.9421815e+038
0.058070946 0.31088316 1.8960001 -1.9822147e+038
0.063521065 0.31235507 1.9050001 -1.9688703e+038
0.068803504 0.31284291 1.9080001 -1.9822147e+038
0.074373476 0.3144781 1.9180001 -1.9688703e+038
0.080578431 0.31840837 1.9420002 -1.9688703e+038
0.087001927 0.32266611 1.9680001 -1.9421294e+038
0.092909448 0.324628 1.9800001 -1.8754073e+038
0.098137252 0.32413027 1.9770001 -1.8887002e+038
0.10371497 0.3247799 1.9810001 -1.8887002e+038
0.10876339 0.32378972 1.9750001 -1.9287845e+038
0.11320105 0.3211599 1.9590001 -1.9821622e+038
0.11706749 0.31721833 1.9350001 -2.0889174e+038
0.12225723 0.31704715 1.9340001 -2.075573e+038
0.12915532 0.32113782 1.9590001 -2.0088514e+038
0.13570826 0.32408053 1.9770001 -1.9020446e+038
0.14107408 0.32407221 1.9770001 -1.9153892e+038
0.1463654 0.32389966 1.9760001 -1.875356e+038
0.15249552 0.3255299 1.9860001 -1.9020448e+038
0.15852048 0.32683188 1.9940001 -1.8887004e+038
0.16360186 0.32616672 1.9900001 -1.8486672e+038
0.16934045 0.32681245 1.9940001 -1.8620637e+038
0.17553848 0.32827735 2.003 -1.875356e+038
0.18323043 0.33236408 2.0280001 -1.8487193e+038
0.19133666 0.33694187 2.056 -1.8754081e+038
0.19978586 0.34184691 2.0860002 -1.9021487e+038
0.20573802 0.34232676 2.089 -1.8221865e+038
0.21119995 0.34198698 2.0870001 -1.8355309e+038
0.21519572 0.33935291 2.0710001 -1.8621155e+038
0.19526459 0.29263124 1.7860001 -1.9021487e+038
0.19831267 0.28999859 1.7700001 -1.8754599e+038
0.20207673 0.28851274 1.761 -1.8622708e+038
0.20520419 0.28620768 1.7470001 -1.9156482e+038
0.20789476 0.28341112 1.7300001 -2.0224035e+038
0.21270449 0.28356329 1.7310001 -2.1024699e+038
0.21739353 0.28355139 1.7310001 -2.2360697e+038
0.21964441 0.28042713 1.7120001 -2.2228294e+038
0.22152978 0.27697536 1.6910001 -2.369774e+038
0.22811456 0.27942002 1.7060001 -2.6233177e+038
0.23846339 0.28628632 1.748 -2.3964111e+038
0.24639562 0.29004019 1.771 -2.0760415e+038
0.25232428 0.29133707 1.779 -2.1023143e+038
0.25844026 0.29279745 1.7880001 -2.1023143e+038
0.26534054 0.29507625 1.802 -1.9421815e+038
0.27051657 0.2953898 1.8040001 -1.902304e+038
0.26959643 0.28915378 1.766 -2.0626971e+038
0.2687808 0.28324568 1.7300001 -2.2094852e+038
0.27093121 0.28061238 1.7140001 -2.5030619e+038
0.27653155 0.28158084 1.72 -2.4763731e+038
0.28412548 0.28451344 1.738 -2.276207e+038
0.29148382 0.28711829 1.7540001 -2.2228809e+038
0.29808366 0.28890434 1.7650001 -1.9826816e+038
0.30268323 0.28872594 1.7640001 -1.9827329e+038
0.30692831 0.28822017 1.761 -1.9827329e+038
0.3116875 0.28820527 1.761 -2.0626947e+038
0.31878218 0.29031777 1.774 -2.0360059e+038
0.32649374 0.29292092 1.7900001 -2.0893839e+038
0.3342911 0.29552367 1.8060001 -2.0892811e+038
0.34198651 0.29796249 1.8210001 -2.1426589e+038
0.34690484 0.29794669 1.8210001 -1.809153e+038
0.35240218 0.29842165 1.8240001 -1.9292527e+038
0.35811096 0.29906008 1.8280001 -2.1827964e+038
0.36403945 0.299862 1.8330001 -2.1696075e+038
0.36798131 0.29902798 1.8280001 -2.062904e+038
0.37128353 0.2977033 1.8200001 -2.0096306e+038
0.374542 0.29637867 1.812 -2.1698665e+038
0.38152599 0.29799822 1.8220001 -2.1298333e+038
0.44172966 0.33212736 2.0310001 -2.1430743e+038
0.45139179 0.33521622 2.0500002 -2.0495596e+038
0.45937276 0.33699673 2.0610001 -2.0360592e+038
0.46538228 0.33730552 2.0630002 -2.1026257e+038
0.47140193 0.33761427 2.0650001 -2.1025742e+038
0.47743183 0.33792305 2.0670002 -2.0093191e+038
0.48580873 0.33986658 2.079 -2.1159701e+038
0.49566802 0.34279075 2.0970001 -1.9427526e+038
0.50920987 0.34816661 2.1300001 -1.9562526e+038
0.52026975 0.351744 2.1520002 -2.0630594e+038
0.5302254 0.35450387 2.1690001 -2.1698659e+038
0.53508204 0.35383144 2.1650002 -2.3300499e+038
0.53766805 0.35168841 2.1520002 -2.3701342e+038
0.53538537 0.34644079 2.1200001 -2.4101159e+038
0.53446108 0.34217426 2.0940001 -2.263379e+038
0.53597575 0.33954233 2.0780001 -2.4102188e+038
0.53974938 0.33838129 2.0710001 -2.437011e+038
0.54348493 0.33722049 2.0640001 -2.4503554e+038
0.54824656 0.33671343 2.0610001 -2.4637511e+038
0.55299169 0.33620664 2.0580001 -2.4637511e+038
0.55609202 0.3347199 2.049 -2.4770956e+038
0.56106228 0.33437696 2.0470002 -2.4770956e+038
0.56519127 0.33354419 2.0420001 -2.5438174e+038
0.57096976 0.33369166 2.043 -2.6372797e+038
0.57195681 0.33106285 2.0270002 -2.5839534e+038
-0.39315376 0.33955565 2.1100001 nan
-0.38837183 0.34037831 2.115 -2.8230165e+038
-0.38247666 0.34023538 2.1140001 -2.650209e+038
-0.37729901 0.34073609 2.1170001 -2.6103317e+038
-0.37105131 0.34027097 2.1140001 -2.6101248e+038
-0.36464635 0.33964476 2.1100001 -2.3565813e+038
-0.35741165 0.33821341 2.1010001 -2.2631719e+038
-0.34955528 0.33613792 2.0880001 -2.2763607e+038
-0.34341562 0.33567196 2.085 -2.1828986e+038
-0.33729136 0.33520582 2.082 -2.1028326e+038
-0.32990828 0.33345145 2.0710001 -2.1293656e+038
-0.31960869 0.32863736 2.0410001 -2.1293658e+038
-0.30931681 0.32366163 2.01 -2.2093807e+038
-0.30236682 0.32206693 2 -2.2092765e+038
-0.29517335 0.32014984 1.988 -2.2092765e+038
-0.28891879 0.31919876 1.9820001 -2.2627583e+038
-0.28212374 0.31760314 1.9720001 -2.2494139e+038
-0.27538222 0.31600717 1.9620001 -2.3965141e+038
-0.26896942 0.31473303 1.9540001 -2.1963481e+038
-0.26300415 0.31394181 1.9490001 -2.1029368e+038
-0.25785875 0.31411687 1.95 -2.0629036e+038
-0.25348449 0.31525829 1.9570001 -2.0627989e+038
-0.24881801 0.31607738 1.9620001 -2.0361101e+038
-0.24337916 0.31592968 1.9610001 -2.1160723e+038
-0.23745954 0.31513733 1.9560001 -2.1961392e+038
-0.23180376 0.31466687 1.9530001 -2.1693988e+038
-0.22651161 0.31467959 1.9530001 -2.14271e+038
-0.22099234 0.31436983 1.9510001 -2.0092662e+038
-0.21592554 0.31470433 1.9530001 -2.0893326e+038
-0.21073951 0.31487751 1.9540001 -2.1826919e+038
-0.20565258 0.31521153 1.9560001 -2.1293143e+038
-0.20075916 0.31586769 1.96 -2.0491438e+038
-0.19624236 0.31716835 1.9680001 -2.0624367e+038
-0.19187564 0.31879112 1.978 -2.1423989e+038
-0.18717128 0.31993023 1.9850001 -2.1423989e+038
-0.18178739 0.31994092 1.9850001 -2.1290545e+038
-0.15387315 0.28788468 1.7860001 -2.2094322e+038
-0.14769256 0.28531441 1.7700001 -2.4897161e+038
-0.14240567 0.28435579 1.7640001 -2.4497867e+038
-0.13738498 0.28388041 1.761 -2.3831164e+038
-0.13230488 0.28324354 1.7570001 -2.4097535e+038
-0.12702832 0.28212279 1.7500001 -2.4098577e+038
-0.12199901 0.28148532 1.7460001 -2.3965133e+038
-0.11685675 0.28052512 1.7400001 -2.4765798e+038
-0.11226227 0.28085443 1.7420001 -2.3965133e+038
-0.10753314 0.28086105 1.7420001 -2.3431357e+038
-0.10345285 0.2826409 1.7530001 -2.4233583e+038
-0.09942513 0.28474307 1.766 -2.3699807e+038
-0.092449524 0.34894761 2.164 -2.0494036e+038
-0.086532027 0.34879181 2.1630001 -1.9824218e+038
-0.080246814 0.34702316 2.1520002 -1.9555255e+038
-0.052306831 0.28946567 1.7950001 -2.1826921e+038
-0.047272056 0.28850114 1.789 -2.2361738e+038
-0.042625353 0.28995532 1.7980001 -2.2230369e+038
-0.037929609 0.29140919 1.807 -2.1696593e+038
-0.033111751 0.29221773 1.812 -2.1696075e+038
-0.028111054 0.29141325 1.807 -2.0628523e+038
-0.023201639 0.29141483 1.807 -2.2229856e+038
-0.018352887 0.29238376 1.8130001 -2.1160743e+038
-0.013545536 0.29496506 1.8290001 -2.1160747e+038
-0.0086089987 0.29609469 1.8360001 -2.0893859e+038
-0.0036343958 0.29722396 1.8430001 -2.0360083e+038
0.0013760218 0.29786915 1.8470001 -2.0892298e+038
0.0064289425 0.2994816 1.8570001 -2.0892298e+038
0.011486752 0.29980356 1.8590001 -2.0360083e+038
0.016537601 0.29980269 1.8590001 -1.9958189e+038
0.021553559 0.29931772 1.8560001 -1.9557857e+038
0.026696445 0.30044508 1.863 -2.0090593e+038
0.031843193 0.30124965 1.868 -2.0357481e+038
0.036977485 0.30173132 1.8710001 -1.9823705e+038
0.042127959 0.30221266 1.8740001 -1.9556817e+038
0.04739539 0.30333877 1.881 -1.9822143e+038
0.052644882 0.30414203 1.886 -2.0355919e+038
0.057982638 0.30526748 1.8930001 -1.9822143e+038
0.063324891 0.30623126 1.899 -1.9955587e+038
0.068591364 0.30671102 1.9020001 -2.0222475e+038
0.074145377 0.30831921 1.9120001 -2.0355398e+038
0.080375902 0.31234583 1.937 -1.9821626e+038
0.087228313 0.31814578 1.973 -1.9287334e+038
0.093712881 0.32201022 1.9970001 -1.9020446e+038
0.099334665 0.32264933 2.0010002 -1.9020446e+038
0.10586797 0.32602921 2.0220001 -1.9287334e+038
0.11279035 0.3302148 2.0480001 -1.9287334e+038
0.11719558 0.31230393 1.937 -1.995507e+038
0.12074737 0.30794358 1.9100001 -2.1022622e+038
0.12652576 0.30938721 1.9190001 -2.1022107e+038
0.13523586 0.31760165 1.9700001 -1.9287334e+038
0.1494853 0.32532305 2.0180001 -1.7686533e+038
0.15503864 0.32547522 2.0190001 -1.8353753e+038
0.16027893 0.32498232 2.016 -1.8353749e+038
0.16509143 0.32368317 2.0080001 -1.8620637e+038
0.1704545 0.32351214 2.0070002 -1.8754081e+038
0.17633754 0.32430795 2.0120001 -1.8620637e+038
0.18405433 0.32832709 2.0370002 -1.8754081e+038
0.19311608 0.33444095 2.075 -1.8887525e+038
0.20295817 0.3415212 2.1190002 -1.875356e+038
0.20771973 0.33989772 2.1090002 -1.8754081e+038
0.19505696 0.28747684 1.784 -1.8488753e+038
0.1985479 0.28553212 1.7720001 -1.8755641e+038
0.20243233 0.28423187 1.7640001 -1.8622193e+038
0.2056855 0.28212589 1.751 -1.8622708e+038
0.20790629 0.27873096 1.7300001 -2.0224037e+038
0.21234757 0.27839717 1.728 -2.0490923e+038
0.21640068 0.2775799 1.723 -2.1425031e+038
0.21837331 0.27418497 1.702 -2.1427629e+038
0.22036265 0.27095127 1.682 -2.3965667e+038
0.2266559 0.27303341 1.6950001 -2.5033219e+038
0.23629329 0.27898094 1.7320001 -2.2230894e+038
0.24501735 0.28363922 1.761 -2.0361639e+038
0.25205392 0.28620315 1.7770001 -2.0891255e+038
0.25903201 0.28860563 1.7920001 -2.0489367e+038
0.2671214 0.292135 1.8140001 -1.9822147e+038
0.27143031 0.29147694 1.8100001 -1.9021483e+038
0.27113694 0.28598788 1.7760001 -1.9957149e+038
0.26910523 0.27888906 1.7320001 -2.1160747e+038
0.26904801 0.2740449 1.702 -2.4364443e+038
0.27268666 0.2730653 1.6960001 -2.4364956e+038
0.27858108 0.27433959 1.7040001 -2.3297404e+038
0.28568155 0.27674058 1.7190001 -2.3031033e+038
0.2928625 0.27914119 1.7340001 -2.2362251e+038
0.29943761 0.28089759 1.7450001 -2.1694503e+038
0.30485147 0.28152692 1.7490001 -2.2628612e+038
0.30975536 0.28167325 1.7500001 -2.3162388e+038
0.31574225 0.28278512 1.7570001 -2.1961392e+038
0.32413772 0.28598899 1.7770001 -2.0492479e+038
0.33541724 0.29160643 1.812 -2.1958808e+038
0.34726089 0.29754499 1.8490001 -2.0491965e+038
0.35549361 0.30026463 1.8660001 -1.9157525e+038
0.36072615 0.30040944 1.8670001 -1.8490305e+038
0.36596337 0.3005541 1.868 -2.3159804e+038
0.37140414 0.30085966 1.8700001 -2.316136e+038
0.37584847 0.30036068 1.8670001 -2.2227766e+038
0.38129607 0.30066612 1.8690001 -2.0362152e+038
0.38530686 0.2998454 1.8640001 -2.0763527e+038
0.38279849 0.29403836 1.8280001 -2.46334e+038
0.4492079 0.32806733 2.0400002 -2.7702618e+038
0.45805353 0.3304615 2.0550001 -2.1830562e+038
0.46494922 0.33140829 2.0610001 -2.0628527e+038
0.47119173 0.33187258 2.0640001 -2.1161786e+038
0.47721899 0.33217609 2.066 -2.1161786e+038
0.48559326 0.33408734 2.0780001 -2.1160743e+038
0.49615911 0.33744532 2.0990002 -1.956097e+038
0.51090187 0.34353581 2.1370001 -1.9828372e+038
0.5231896 0.34785753 2.164 -2.0363706e+038
0.53268874 0.35025004 2.1790001 -2.1698144e+038
0.53905511 0.3505528 2.181 -2.4501492e+038
0.54468226 0.35037357 2.1800001 -2.4635451e+038
0.5442425 0.34633723 2.1550002 -2.5032686e+038
0.54218525 0.33084023 2.059 -2.5169738e+038
0.54666716 0.33018076 2.0550001 -2.5169738e+038
0.55193341 0.33000356 2.0540001 -2.5437141e+038
0.55610842 0.32918385 2.049 -2.5304208e+038
0.56217474 0.32948896 2.0510001 -2.5837985e+038
0.56631422 0.32866973 2.046 -2.5304732e+038
0.57098544 0.328172 2.043 -2.6105388e+038
0.57253647 0.32590771 2.029 -2.6505716e+038
0.57315737 0.32316199 2.0120001 -2.6772608e+038
-0.39335805 0.33400851 2.1110001 nan
-0.38802251 0.3343429 2.1130002 -2.5831778e+038
-0.38231352 0.33436066 2.1130002 -2.6102806e+038
-0.37731677 0.33501136 2.1170001 -2.5968849e+038
-0.37019134 0.33376294 2.1090002 -2.5299558e+038
-0.36258987 0.33203945 2.098 -2.3164457e+038
-0.35521734 0.33047396 2.0880001 -2.1828986e+038
-0.34907004 0.33001614 2.085 -2.1694503e+038
-0.34359717 0.33019128 2.0860002 -2.1560544e+038
-0.3377941 0.33004972 2.085 -2.1160214e+038
-0.33119917 0.32911646 2.079 -2.1158656e+038
-0.32103422 0.32454181 2.0500002 -2.1158656e+038
-0.30994812 0.31885824 2.0140002 -2.2493099e+038
-0.30117273 0.31539056 1.9920001 -2.2759985e+038
-0.29459459 0.31413904 1.9840001 -2.2092765e+038
-0.28718442 0.31193727 1.9700001 -2.3295317e+038
-0.2818523 0.31195197 1.9700001 -2.5030605e+038
-0.27609849 0.31149143 1.9670001 -2.2896538e+038
-0.27104849 0.31182247 1.9690001 -2.2896538e+038
-0.26504239 0.31104475 1.9640001 -2.1562098e+038
-0.25985622 0.31121704 1.9650002 -2.2229322e+038
-0.25492296 0.31170592 1.9680001 -2.1561059e+038
-0.25009972 0.31235307 1.9720001 -2.14271e+038
-0.24413712 0.31157443 1.9670001 -2.2093278e+038
-0.23820098 0.31079549 1.9620001 -2.1292614e+038
-0.23193522 0.30954105 1.9540001 -2.0357992e+038
-0.22664015 0.30955365 1.9540001 -2.1025727e+038
-0.2206648 0.30861545 1.9480001 -2.0226106e+038
-0.21593761 0.30941969 1.9530001 -2.1426587e+038
-0.21096703 0.3099069 1.9560001 -2.1692433e+038
-0.20671564 0.31150302 1.9660001 -2.1025212e+038
-0.20199977 0.31246522 1.9720001 -2.0357994e+038
-0.19764964 0.31406105 1.9820001 -2.1290541e+038
-0.19285671 0.31502289 1.988 -2.1557433e+038
-0.18784212 0.3156676 1.9920001 -2.1158143e+038
-0.18253055 0.3158367 1.9930001 -2.0490923e+038
-0.15388209 0.28305104 1.7860001 -1.9691814e+038
-0.14745085 0.28004855 1.7670001 -2.4097026e+038
-0.14233328 0.27942303 1.7630001 -2.3964095e+038
-0.13731503 0.27895573 1.7600001 -2.3830647e+038
-0.13231267 0.2784881 1.7570001 -2.3564801e+038
-0.12703583 0.27738619 1.7500001 -2.3831689e+038
-0.12214599 0.27707645 1.748 -2.4098577e+038
-0.11693086 0.27597395 1.7410001 -2.3966695e+038
-0.11220451 0.27598074 1.7410001 -2.4367027e+038
-0.10760131 0.2763043 1.743 -2.3965133e+038
-0.10434433 0.28027374 1.7680001 -2.3698245e+038
-0.095560826 0.33341283 2.1030002 -1.9826816e+038
-0.091301575 0.33880892 2.1370001 -1.9823703e+038
-0.08561711 0.33928993 2.1400001 -1.9555772e+038
-0.079021074 0.33596542 2.1190002 -1.9421294e+038
-0.052368321 0.28492346 1.7970001 -2.0625925e+038
-0.047222108 0.28334093 1.7870001 -2.2494139e+038
-0.042485714 0.28413647 1.7920001 -2.1828475e+038
-0.037847973 0.2858831 1.8030001 -2.1830037e+038
-0.033004135 0.28636092 1.8060001 -2.1162816e+038
-0.028050551 0.28588709 1.8030001 -2.1028855e+038
-0.023138862 0.28573012 1.802 -2.2229856e+038
-0.0183034 0.28668272 1.8080001 -2.1961408e+038
-0.013472307 0.28842795 1.8190001 -2.1160743e+038
-0.0085767042 0.2900143 1.8290001 -2.0760415e+038
-0.003626731 0.29160026 1.8390001 -2.1027303e+038
0.0013761065 0.29286885 1.8470001 -2.0493527e+038
0.0064293393 0.29445428 1.8570001 -2.0493527e+038
0.011487459 0.29477087 1.8590001 -2.0226639e+038
0.016556412 0.2950871 1.8610001 -2.0491967e+038
0.021589726 0.29476881 1.8590001 -1.9957149e+038
0.026726751 0.29571873 1.8650001 -2.0224037e+038
0.031828102 0.29603407 1.8670001 -2.0357481e+038
0.036900699 0.29603198 1.8670001 -2.0756251e+038
0.04204062 0.29650524 1.8700001 -2.0489363e+038
0.047221906 0.29713672 1.8740001 -2.0622807e+038
0.052480612 0.298085 1.8800001 -2.0622807e+038
0.057710495 0.29871589 1.8840001 -2.0222475e+038
0.063061975 0.29982209 1.891 -1.9955587e+038
0.068487346 0.30108652 1.899 -2.0488842e+038
0.074382581 0.30409461 1.9180001 -2.008851e+038
0.08112774 0.30995613 1.955 -2.0089035e+038
0.088073671 0.31581718 1.9920001 -1.9688703e+038
0.094375573 0.31882396 2.0110002 -1.9287849e+038
0.10053215 0.32103762 2.0250001 -1.9020446e+038
0.10812587 0.32737279 2.0650001 -1.915389e+038
0.1171482 0.33719504 2.1270001 -1.9286292e+038
0.12355948 0.33893165 2.138 -1.9819026e+038
0.11993267 0.30071291 1.8970001 -1.995507e+038
0.12468706 0.29975453 1.891 -2.0488331e+038
0.13229185 0.30545339 1.927 -1.9554224e+038
0.14537282 0.32288137 2.0370002 -1.8620116e+038
0.15090168 0.3228727 2.0370002 -1.8219784e+038
0.15573891 0.32143718 2.0280001 -1.875356e+038
0.16084489 0.32063544 2.023 -1.9020969e+038
0.16584106 0.319675 2.0170002 -1.9287858e+038
0.17097403 0.31903127 2.013 -1.9154931e+038
0.17643541 0.3190212 2.013 -1.9021487e+038
0.18343244 0.32170501 2.0300002 -1.8888043e+038
0.19722244 0.33579817 2.1190002 -1.9287334e+038
0.19279081 0.28646281 1.8080001 -1.8755641e+038
0.1946305 0.28201571 1.7800001 -1.8221865e+038
0.19822282 0.28026202 1.7690001 -1.8755641e+038
0.20232879 0.27930042 1.7630001 -1.8355305e+038
0.2054619 0.2770713 1.7490001 -1.8889596e+038
0.20791769 0.27405012 1.7300001 -2.0222475e+038
0.21248205 0.27388027 1.7290001 -2.0490923e+038
0.21653803 0.27307662 1.7240001 -2.0491965e+038
0.2185134 0.26973867 1.7030001 -2.0761971e+038
0.22089857 0.26703435 1.6860001 -2.4233072e+038
0.22653426 0.26828945 1.6940001 -2.4365999e+038
0.23589651 0.27382028 1.7290001 -2.1830562e+038
0.24461281 0.27840027 1.7580001 -2.0628527e+038
0.25306004 0.28250459 1.784 -2.0490923e+038
0.26294848 0.28803352 1.8190001 -2.0622811e+038
0.27611822 0.29688683 1.8750001 -1.9555259e+038
0.27684307 0.29228094 1.8460001 -1.9688703e+038
0.27144954 0.27657911 1.7470001 -2.08923e+038
0.26953569 0.26991639 1.705 -2.2629675e+038
0.27173546 0.26752838 1.6900001 -2.4631849e+038
0.27597886 0.26719832 1.6880001 -2.3030516e+038
0.28154054 0.26813444 1.6940001 -2.3162915e+038
0.28797856 0.26986173 1.705 -2.2894985e+038
0.29499024 0.27206352 1.7190001 -2.2094836e+038
0.30155414 0.27379018 1.7300001 -2.2628097e+038
0.30693781 0.27440885 1.7340001 -2.1427615e+038
0.3139599 0.27645153 1.7470001 -2.0760395e+038
0.32214618 0.27944329 1.766 -2.2094322e+038
0.3333964 0.28496632 1.8010001 -2.0759369e+038
0.34671327 0.29207084 1.8460001 -1.9291484e+038
0.35684329 0.29632679 1.8730001 -1.7957044e+038
0.36306086 0.2972599 1.8790001 -2.2626028e+038
0.36833063 0.29740193 1.8800001 -2.4094428e+038
0.37340656 0.29738575 1.8800001 -2.382858e+038
0.37928715 0.29800218 1.8840001 -2.169399e+038
0.38661686 0.29972568 1.8950001 -1.9693372e+038
0.39400536 0.30144894 1.9060001 -2.3564292e+038
0.3690809 0.2751644 1.7400001 -2.0496638e+038
0.37377551 0.2751492 1.7400001 -2.6901953e+038
0.45472798 0.32253534 2.0400002 -2.810295e+038
0.46271122 0.32425663 2.0510001 -2.6234216e+038
0.47029662 0.32566157 2.0600002 -2.1697122e+038
0.47677496 0.32627597 2.0640001 -2.2764157e+038
0.48654604 0.32910335 2.082 -2.2630188e+038
0.49854115 0.33335307 2.1090002 -2.1962963e+038
0.51498479 0.34044728 2.154 -2.0363706e+038
0.52562594 0.34358969 2.174 -2.223192e+038
0.53392971 0.34515148 2.184 -2.3033098e+038
0.54030955 0.34544897 2.1860001 -2.3700827e+038
0.54869854 0.34701064 2.1960001 -2.4101675e+038
-0.39318958 0.32814431 2.1100001 nan
-0.38785663 0.32847306 2.112 -2.4764743e+038
-0.38251218 0.32880178 2.1140001 -2.5168184e+038
-0.37662143 0.32866377 2.1130002 -2.4100121e+038
-0.36897996 0.32697013 2.102 -2.1162279e+038
-0.36122444 0.32512063 2.0900002 -2.0227661e+038
-0.35472393 0.32435974 2.085 -2.2228276e+038
-0.34908691 0.32437664 2.085 -2.1561059e+038
-0.34394333 0.32486007 2.0880001 -2.1025725e+038
-0.33813474 0.32472107 2.0870001 -2.0358507e+038
-0.3316935 0.3239595 2.082 -2.0224548e+038
-0.32214645 0.32008556 2.0570002 -2.0089544e+038
-0.30934802 0.3127875 2.01 -2.1025214e+038
-0.30012959 0.30891231 1.9850001 -2.2493097e+038
-0.29460961 0.3087717 1.9840001 -2.4495273e+038
-0.28909433 0.30863085 1.983 -2.6231601e+038
-0.28386995 0.3088012 1.9840001 -2.2895496e+038
-0.27835876 0.30866003 1.983 -2.2896538e+038
-0.27354065 0.30929697 1.9870001 -2.2095874e+038
-0.2680254 0.30915546 1.9860001 -2.1828986e+038
-0.26251495 0.30901369 1.9850001 -2.2095874e+038
-0.25765693 0.30965018 1.9890001 -2.2094836e+038
-0.25239611 0.3098194 1.9900001 -2.2227764e+038
-0.24688096 0.30967703 1.9890001 -2.1959834e+038
-0.24076356 0.30875596 1.983 -2.142606e+038
-0.23420325 0.30721179 1.973 -2.1158656e+038
-0.22734849 0.30520004 1.96 -2.0491436e+038
-0.22067693 0.30334368 1.9480001 -1.9692329e+038
-0.21594958 0.30413431 1.9530001 -2.1825877e+038
-0.21141021 0.30523616 1.96 -2.1425544e+038
-0.20725296 0.30696088 1.9710001 -2.062488e+038
-0.20283061 0.30837396 1.9800001 -2.0491436e+038
-0.19815946 0.30947545 1.9870001 -2.1423985e+038
-0.19315869 0.31010944 1.9910001 -2.1290541e+038
-0.18832432 0.31105474 1.9970001 -2.1290545e+038
-0.18354847 0.31215566 2.0040002 -2.0756769e+038
-0.15406327 0.27852824 1.7880001 -1.8357376e+038
-0.14729245 0.27495396 1.7650001 -2.3028958e+038
-0.14193782 0.27387181 1.7580001 -2.396358e+038
-0.13677683 0.27310088 1.7530001 -2.3564801e+038
