# .PCD v.5 - Point Cloud Data file format
VERSION .5
FIELDS x y z
SIZE 4 4 4
TYPE F F F
COUNT 1 1 1
WIDTH 1380
HEIGHT 1
POINTS 1380
DATA ascii
30.6319688 -16.4030064 264.4833028
30.6564420 -16.0837397 265.2688324
30.6765232 -15.6394541 266.4841115
30.8585428 -16.9244912 263.8443708
31.2176216 -16.2456650 265.8647895
31.2819891 -16.9756729 264.3601000
27.6440606 -12.6075661 265.2413249
27.6701730 -13.2020898 263.6124790
27.7079046 -13.7283634 266.8691576
27.7611781 -14.9211092 263.6148930
27.8364476 -14.2201213 265.6704187
27.8618764 -12.4479476 266.1435604
27.8813187 -13.0188465 264.4930780
27.9693808 -14.7274435 264.4859254
28.0458685 -14.0307732 266.5453851
28.1709451 -14.5102600 265.3353810
28.1943511 -12.7309309 265.8019662
28.2143224 -13.3036943 264.1532123
28.3150487 -15.0571410 264.1871274
28.3813756 -14.3244937 266.2136555
28.4006093 -12.5303781 266.6666806
28.4145959 -13.0819427 264.9984658
28.5158791 -14.8373628 265.0342286
28.5923723 -14.1407261 267.0937479
28.6434963 -15.3258508 263.8324499
28.7178699 -14.6217020 265.8851147
28.7332535 -12.8139500 266.3256228
28.7538040 -13.3887576 264.6787167
28.8547818 -15.1431076 264.7134960
28.9273802 -14.4326622 266.7603493
28.9345421 -12.5957904 267.1741843
28.9587453 -13.1835490 265.5391395
28.9852396 -13.7794139 263.9115453
29.0643517 -14.9542876 265.5889690
29.1921496 -15.4434117 264.3877864
29.2669348 -14.7407195 266.4417326
29.2700678 -12.8895687 266.8424845
29.2968806 -13.4865679 265.2159333
29.3256491 -14.0904905 263.5957003
29.3993689 -15.2462628 265.2556300
29.4871926 -14.5897521 267.3518956
29.5050945 -13.2929403 266.0869956
29.5324959 -13.8920192 264.4623518
29.6091922 -15.0583405 266.1319077
29.7492109 -15.5907487 264.9703920
29.8215058 -14.8792341 267.0162618
29.8424065 -13.5930479 265.7611072
29.8743173 -14.2081035 264.1510963
29.9527217 -15.3804757 265.8261955
30.0495196 -13.3955274 266.6285932
30.0784465 -14.0000088 265.0088668
30.1595032 -15.1817743 266.6926086
30.3940643 -13.7212491 266.3261592
30.4209925 -14.3186506 264.6999955
30.5956267 -13.5040674 267.1756148
30.6265783 -14.1157191 265.5625045
30.6648314 -14.7532364 263.9730573
30.8039207 -15.3855002 267.3125863
30.9413448 -13.8339475 266.8770254
30.9684277 -14.4318994 265.2513385
31.0142059 -15.0960684 263.6862993
31.1808139 -14.2530501 266.1359310
31.2170051 -14.8832593 264.5398080
30.3377192 -8.6092744 267.1736777
31.1408248 -9.0137711 267.0753896
31.2408861 -9.8659517 267.2957182
28.1033311 -5.6878384 266.9161856
28.2521825 -6.9721616 267.2404945
28.3846203 -4.8013986 266.6157484
28.7285149 -7.8148525 267.3552930
28.9079845 -6.0848049 266.8256462
29.1885678 -5.2017984 266.5216625
29.3870140 -6.9143414 266.9539452
29.5340549 -8.2074851 267.2691643
29.9974438 -5.5781859 266.4522827
30.0955046 -6.4401184 266.6625977
30.1937386 -7.3012030 266.8737769
30.8042374 -5.9647155 266.3724422
30.9005659 -6.8350835 266.5740848
30.9965666 -7.7070631 266.7740881
31.0823917 -5.0935573 266.0562694
27.8581921 -3.5329368 266.3904727
28.1351879 -2.6674287 266.0684884
28.4137614 -1.7942273 265.7544315
28.6635887 -3.9262753 266.3036585
28.9420988 -3.0533844 265.9892440
29.1234292 -1.3142640 265.4689550
29.2229690 -2.1689874 265.6867206
29.4703636 -4.3128994 266.2237287
29.7499709 -3.4346534 265.9148574
29.8803505 -1.2739323 265.2797401
30.0274435 -2.5668279 265.5952573
30.2767921 -4.7012037 266.1421001
30.3071272 -1.6882132 265.2867436
30.5559840 -3.8249849 265.8311129
30.6374971 -1.2324946 265.0917172
30.7372436 -2.0862122 265.3104663
30.8370385 -2.9396981 265.5294836
31.0651623 -1.6424417 265.1031315
27.6736692 0.4273384 264.8769021
27.7509056 1.8389780 265.4810250
27.8002303 0.2311274 263.7321949
27.8345607 -0.1130373 265.4052377
27.8556440 1.9335519 265.9186125
27.9078353 1.9610540 266.1325336
28.1360224 1.4642555 265.2181685
28.1483680 0.2619667 265.1272118
28.2642078 -0.5133216 265.4266059
28.2753278 1.7045110 266.0576105
28.5445154 0.9155951 265.1494443
28.5881013 -0.0891822 265.1990950
28.6524389 1.3661697 265.7609582
28.6821499 1.4871071 265.9048438
28.6947284 -0.9093617 265.4523253
28.9090313 0.3096491 264.9544775
28.9540123 1.1870293 265.8750415
29.0137548 0.9810462 265.5129731
29.0238820 -0.4595777 265.2511895
29.3535274 -0.0073925 265.0525272
29.3794610 0.5803652 265.2792335
29.4541847 -0.8566657 265.2758360
29.5424890 0.6585719 265.7211125
29.5563079 0.7123554 265.8713162
29.7858007 -0.3948808 265.0870383
29.9258251 0.4310121 265.8659220
30.1232338 0.1362638 265.5627429
30.2114058 -0.8148699 265.0881708
30.3637665 0.1387243 265.9847438
30.4254685 0.0936017 266.0006881
30.6736883 -0.3887103 265.4130161
30.7413377 -0.1299699 266.0547495
30.8179837 -0.1878901 266.0512924
31.1796684 -0.9138772 265.2723789
31.2050208 -0.4711621 265.9376562
32.7390246 -41.8593809 267.3541903
32.9327211 -42.4857363 267.2015429
33.1604816 -41.1902629 266.7733431
33.2562216 -42.0635007 266.9720352
33.3502218 -42.9452062 267.1620548
33.4410556 -43.8423678 267.3361599
33.5931480 -41.5758267 266.8098807
33.6858518 -42.4638726 266.9933438
33.7784253 -43.3525406 267.1761811
34.0804830 -41.2359834 267.0305669
34.1043398 -41.7875834 267.0118809
34.2026167 -42.6214114 267.2527730
34.2332907 -43.6299294 267.3238814
31.9053382 -37.7276875 266.8047547
32.0569873 -38.2725596 266.7540014
32.0708528 -37.7384312 267.3326433
32.1601406 -38.2865816 267.2975063
32.1726985 -38.8193242 266.7122185
32.2535783 -38.8345197 267.2613263
32.3144160 -39.3841676 267.2333419
32.3909745 -39.3606946 266.6447461
32.4040726 -37.6930237 266.0982907
32.4286968 -39.9310067 267.1919167
32.4739330 -40.4814743 267.1678066
32.4984342 -38.5729596 266.2901282
32.6377302 -39.9038643 266.5665150
32.7358022 -40.7657549 266.7768896
32.8304619 -38.1091759 266.1033571
32.9256579 -38.9850698 266.2993371
33.0682918 -40.2997062 266.5924728
33.2946852 -38.5734886 266.2492096
33.3668478 -39.3291079 266.3785517
33.4969573 -37.9301347 266.6840255
33.4989168 -40.6952202 266.6187584
33.6425565 -37.9419215 267.2168911
33.6658098 -40.1326492 266.5906549
33.7071531 -38.7580767 266.8968737
33.7936208 -39.3063761 266.8624520
33.9935012 -40.1348658 267.0779228
34.0489969 -40.6847969 267.0512497
31.3341133 -36.0797308 266.4168477
31.3552991 -35.5452150 266.9936419
31.4150900 -35.5147161 265.8273280
31.5182544 -36.0894948 266.9400573
31.5787680 -36.6197154 266.3427293
31.6494331 -36.6354436 266.8944001
31.6958129 -34.6310362 265.5240297
31.7685530 -37.1820293 266.8518126
31.8422914 -35.9269306 265.8364177
31.9871679 -37.2306183 266.1408186
32.0787430 -34.1936834 265.5347288
32.1346149 -34.9867232 265.5912340
32.2696380 -36.3384336 265.8462524
32.4378014 -34.6298441 265.8872902
32.4597396 -34.0952873 266.4639354
32.5907283 -33.8411443 267.2915459
32.6179974 -34.6398167 266.4115131
32.6595344 -35.7238799 265.8062279
32.7018723 -36.7261097 265.8805847
32.7534936 -34.3854353 267.2379613
32.7756368 -35.1843759 266.3592100
32.8941084 -35.7309915 266.3167715
32.9053104 -35.1970010 266.8961287
33.0367163 -36.2763405 266.2682831
33.0426879 -35.7426256 266.8489218
33.1666954 -36.8223563 266.2229240
33.1727192 -36.2886339 266.8035626
33.2575850 -37.3704247 266.1873996
33.3054140 -36.3011062 267.3396468
33.3089419 -36.8343256 266.7566538
33.4119424 -37.3817571 266.7180896
33.4187821 -36.8479937 267.2984898
33.5408263 -37.3944230 267.2551572
31.3484631 -30.8366362 266.8190598
31.3992314 -31.3673653 266.2242055
31.4379856 -31.8987295 265.6323612
31.5607674 -31.3783213 266.7530775
31.5661915 -33.2728773 265.2918994
31.5955132 -31.9098942 266.1622167
31.6234678 -32.4418247 265.5730844
31.7557044 -31.9209173 266.6914761
31.7986012 -32.4520655 266.0985589
31.9412947 -32.4640051 266.6321695
31.9681503 -32.9959951 266.0433054
32.1164466 -33.0076441 266.5755153
32.1613550 -33.5386842 265.9821212
32.2960690 -33.5510485 266.5177286
32.4292667 -33.2967862 267.3447728
33.8609666 -19.5502900 263.5971904
34.0232626 -19.2945004 264.4169629
34.2662595 -19.3011686 264.9254203
34.4689302 -19.8239144 264.2924786
34.6896946 -19.8317505 264.8065090
34.8114520 -19.5780918 265.6364441
34.9135250 -20.3533806 264.1682327
31.3401148 -15.9101523 267.1653926
31.3694701 -16.6698173 265.1460767
31.5409452 -17.4638163 263.6822462
31.6558555 -16.6742019 265.6436861
31.7765959 -16.4205991 266.4738595
31.8378545 -17.1187781 264.9388015
31.8391025 -17.4452215 264.1551495
32.0115238 -16.4276902 266.9843137
32.2298706 -17.1968658 265.4869854
32.2643854 -15.9091204 263.6771500
32.3404893 -16.9437937 266.3196921
32.3676690 -17.9702733 264.0098631
32.4699767 -15.7062188 264.5396888
32.5153768 -17.7152511 264.8332715
32.5765088 -16.9508290 266.8299377
32.7598117 -17.7218430 265.3413713
32.8880176 -17.4678471 266.1696672
32.9109244 -18.4945539 263.8609111
33.0439284 -18.2403047 264.6880150
33.0455676 -16.0288233 264.7385895
33.1140943 -16.5391732 263.5698915
33.1323631 -17.4744446 266.6777968
33.1868604 -15.7741383 265.5636370
33.2821831 -18.2472225 265.1976645
33.3859697 -16.5443234 264.0711069
33.4084444 -19.0212391 263.7234330
33.4182158 -17.9928150 266.0239935
33.4553495 -15.7794654 266.0657167
33.5441008 -18.7668502 264.5498514
33.6587392 -17.9996137 266.5330768
33.7425135 -16.5984556 264.6030784
33.7794088 -16.2958261 265.4023170
33.8005945 -15.8366002 266.6028142
33.8096619 -18.7723320 265.0526464
33.8958018 -18.5205471 265.8915222
33.9684188 -17.0665421 263.9123201
34.0618491 -16.3004193 265.9008801
34.1259167 -18.5278933 266.4031982
34.2147239 -18.2759687 267.2413886
34.2303924 -17.0722120 264.4160390
34.3172327 -16.3064357 266.4062083
34.3591496 -16.8181881 265.2442157
34.3671590 -16.0176046 267.2162652
34.3831293 -19.0477688 265.7565475
34.5254466 -17.5900981 263.7599111
34.5875435 -19.0564655 266.2746906
34.6303582 -16.8233719 265.7455802
34.7071290 -18.8029241 267.1051621
34.7920656 -17.5955240 264.2624378
34.8973833 -16.8287754 266.2480175
34.9077918 -17.3421837 265.0938928
31.5282382 -14.5889651 265.8428252
31.5619223 -15.2103119 264.2385960
31.7383260 -14.4019900 266.7199969
31.7659713 -15.0019303 265.0961280
31.9139324 -15.5624691 263.9603913
32.0844054 -14.7331450 266.4225399
32.1175531 -15.3525770 264.8165226
32.2898179 -14.5295979 267.2845125
32.3261619 -15.1603511 265.6888664
32.6356813 -14.8599958 266.9863999
32.6728225 -15.4935671 265.3933167
32.8787789 -15.2919609 266.2570775
33.5500911 -15.3784137 267.3081160
34.5513709 -12.3458914 267.1128213
34.6449427 -13.2297073 267.3006654
31.9486558 -9.3952501 267.0007348
32.0456363 -10.2624539 267.2056258
32.6087438 -8.4869890 266.6073740
32.7546038 -9.7858980 266.9166923
32.8497440 -10.6620640 267.1123743
32.9409465 -11.5574291 267.2882974
33.4150940 -8.8756979 266.5252984
33.5589275 -10.1844706 266.8244541
33.6514674 -11.0733062 267.0071423
33.7456428 -11.9541697 267.1979964
34.1231562 -8.4035341 266.2318349
34.2189632 -9.2764562 266.4308548
34.3619362 -10.5894357 266.7256892
34.4556458 -11.4725791 266.9142187
34.9248052 -8.8151507 266.1262155
31.6082351 -6.3648573 266.2786245
31.7065492 -7.2255731 266.4901912
31.8018943 -8.1007276 266.6869164
31.8913795 -5.4693925 265.9874260
32.4149318 -6.7518605 266.1983073
32.5123444 -7.6169576 266.4053738
32.6969028 -5.8621089 265.9012377
32.9742692 -4.9947840 265.5811608
33.2206339 -7.1437140 266.1130130
33.3177447 -8.0102701 266.3185596
33.4034786 -5.3972322 265.6002939
33.5005298 -6.2640621 265.8055723
33.7300822 -4.9598548 265.3863728
34.0265147 -7.5346879 266.0286129
34.1572948 -5.3720130 265.3955519
34.3042985 -6.6653355 265.7105923
34.4833322 -4.9374057 265.1787996
34.5852263 -5.7806596 265.4083371
34.8276496 -7.9488102 265.9204304
34.9143781 -5.3308862 265.2071416
31.3631333 -4.2097764 265.7530904
31.4893238 -2.0694658 265.0970221
31.5911546 -2.9130308 265.3262019
31.8075344 -1.1864535 265.9626603
31.9183543 -2.4727725 265.1152611
31.9665149 -1.4447938 265.6317055
32.0196971 -3.3187128 265.3420269
32.0736393 -1.3369438 266.0559118
32.1700908 -4.5955162 265.6740844
32.3440023 -2.8925564 265.1165724
32.4484892 -3.7231729 265.3591037
32.4606039 -1.9716590 265.4950917
32.5184502 -1.5524394 266.1244869
32.5550735 -1.5827006 266.1404610
32.7742435 -1.7517240 266.2290931
32.7784903 -3.2692498 265.1622295
32.8739844 -4.1436991 265.3596699
32.9245031 -2.5001124 265.3660178
32.9433493 -1.8986469 266.2909329
33.0392942 -2.0171895 266.3108706
33.0810361 -2.2446262 266.1872208
33.1997015 -3.7106497 265.1413381
33.2179405 -2.5041276 265.8618391
33.3030969 -4.5465846 265.3783560
33.3043337 -2.3944674 266.2884295
33.3937965 -2.4881714 266.2511170
33.5198678 -2.6401901 266.1847472
33.5883945 -2.7707939 266.0472691
33.6280800 -4.1171429 265.1562989
33.7114036 -2.8581503 266.1077082
33.8069759 -3.2927005 265.4103339
33.8894725 -3.0346571 266.0612166
34.0290181 -3.1904718 266.0441101
34.0562798 -4.5244885 265.1703954
34.0749808 -3.2980535 265.9125328
34.1838188 -3.8257318 265.3031051
34.2876166 -3.4954045 266.0620511
34.3719944 -3.5876052 266.0956085
34.5978811 -3.8393482 266.2355006
34.6543379 -3.8911486 266.2679553
34.8323919 -4.1108537 266.3874030
34.8637961 -4.3622684 265.6892538
31.5391645 -0.6893742 265.9972310
31.6146538 -0.9242832 266.1377490
31.7351744 -1.0420834 266.1425173
36.9509645 -23.0104793 263.5936439
37.1700451 -23.0184048 264.1081214
37.5547074 -23.5510245 263.9989257
37.7060734 -23.2958104 264.8214102
37.9105434 -23.3045053 265.3395534
37.9215442 -24.0845811 263.8942003
38.0723514 -23.0487417 266.1594152
38.0868092 -23.8286369 264.7132277
38.2678285 -24.6192198 263.7946308
38.2713899 -23.0577197 266.6788995
38.2830165 -23.8377638 265.2333975
38.4329259 -23.5826280 266.0562694
38.4427346 -24.3627690 264.6112442
38.4506285 -23.0677407 267.2033310
35.0318290 -19.5859503 266.1505640
35.1427644 -20.3607734 264.6801472
35.1540521 -19.3322692 266.9803798
35.2787934 -20.1063659 265.5065060
35.3336558 -20.8841357 264.0501857
35.4942270 -20.1144833 266.0218775
35.5590209 -20.8917316 264.5630538
35.6104448 -19.8611170 266.8531835
35.7274711 -20.6356179 265.3812468
35.7572325 -21.4147083 263.9312148
35.9438993 -20.6436850 265.8963799
35.9870978 -21.4220677 264.4429505
36.0370167 -20.3915332 266.7334974
36.1189395 -21.1678818 265.2703524
36.1529104 -21.9467487 263.8192475
36.2607688 -20.3992110 267.2467530
36.3764502 -21.1737845 265.7751739
36.3888294 -21.9537914 264.3294930
36.4750214 -20.9213458 266.6108906
36.5321152 -21.6990020 265.1540339
36.5695357 -22.4776901 263.7020648
36.6721116 -20.9304299 267.1308815
36.7805324 -21.7053834 265.6610906
36.7926620 -22.4854015 264.2154992
36.8230380 -19.7001137 263.7022436
36.8962325 -21.4520451 266.4925456
36.9270518 -22.2310815 265.0422454
36.9394571 -19.4467362 264.5335197
37.0834544 -21.4616470 267.0149803
37.1683948 -22.2378355 265.5511200
37.1767394 -19.4537044 265.0434077
37.2716002 -20.2293713 263.5770142
37.3139530 -21.9829269 266.3750648
37.3304561 -22.7627140 264.9283409
37.3935997 -19.9757032 264.4068897
37.4232382 -19.4601882 265.5509710
37.5068672 -21.9922289 266.8960989
37.5614390 -22.7700137 265.4398084
37.6424491 -19.9820623 264.9138868
37.6961492 -22.5156769 266.2665248
37.8909968 -20.5023941 264.2694414
37.8940180 -19.9882798 265.4201984
37.9030220 -22.5242451 266.7840123
38.0413979 -19.7332744 266.2436962
38.0631201 -22.5352701 267.3132718
38.1371565 -20.5088947 264.7770941
38.1518565 -19.4802117 267.0764327
38.3312553 -21.0320894 264.1462982
38.3771881 -20.5157176 265.2862966
38.5263748 -20.2606209 266.1093473
38.5606065 -21.0394748 264.6581829
34.9922813 -16.5765304 267.0846879
35.0727215 -18.1141663 263.6099458
35.1723805 -17.3477158 265.5969262
35.3432298 -18.1193873 264.1115189
35.4288034 -17.3536781 266.1020160
35.4446508 -17.8667977 264.9465203
35.5419666 -17.1004739 266.9341266
35.7046872 -17.8725719 265.4507160
35.8680822 -18.6446346 263.9671564
35.9557159 -17.8788174 265.9571767
35.9875485 -18.3910988 264.7976577
36.0660069 -17.6257621 266.7899728
36.2255797 -18.3980279 265.3073668
36.3509320 -19.1720910 263.8333440
36.4748426 -18.9183205 264.6627426
36.4831947 -18.4039269 265.8121586
36.4955440 -17.6863950 267.3136890
36.6088524 -18.1500651 266.6411102
36.7156640 -18.9251024 265.1717663
36.8529260 -18.1566756 267.1492994
36.9688123 -18.9312380 265.6776607
37.1059552 -18.6767709 266.5037215
37.1987000 -15.7490317 267.3079669
37.3491682 -18.4550621 267.3404813
37.5859030 -19.2043800 266.3706243
37.7259515 -18.9497601 267.1959698
38.0029939 -16.1477458 267.2155797
38.4724103 -17.0241222 267.2957182
35.3551507 -12.7471006 267.0179009
35.4499370 -13.6250043 267.2118247
35.9215289 -14.4908018 267.3028111
36.0671431 -12.2558270 266.7440772
36.1629762 -13.1286159 266.9432461
36.6351865 -13.9913969 267.0373619
36.7275476 -14.8811014 267.2191262
36.8710198 -12.6565481 266.6496634
37.3446234 -13.5125397 266.7507529
37.4389850 -14.3925184 266.9425309
37.5779793 -12.1897869 266.3506567
37.9104093 -15.2591318 267.0326829
38.0534790 -13.0365584 266.4612234
38.1492525 -13.9096174 266.6600943
35.0224525 -9.6790995 266.3344741
35.1656564 -10.9909466 266.6304708
35.2606885 -11.8676387 266.8256164
35.7279144 -9.2196418 266.0279274
35.8235687 -10.0932904 266.2262022
35.9713063 -11.3830427 266.5449083
36.4363790 -8.7455343 265.7364607
36.5321897 -9.6184406 265.9354806
36.6309397 -10.4770185 266.1492527
36.7759429 -11.7800813 266.4542794
37.2405797 -9.1446796 265.6436563
37.3367183 -10.0159962 265.8443153
37.4337733 -10.8828312 266.0496235
37.5732072 -8.6779715 265.4598951
37.6656465 -9.5673176 265.6420171
38.0057395 -9.0642069 265.4957175
38.0938463 -9.9746594 265.6561732
38.1896719 -10.8474912 265.8552527
38.2459126 -8.6460924 265.8780217
38.2573158 -8.3925277 266.5683329
38.2846557 -11.7244050 266.0501897
38.3564606 -8.5323285 266.5587366
38.4136401 -8.6567178 266.4053738
38.5193527 -10.3951273 265.6567693
38.5620408 -9.1823172 265.7860219
35.0119285 -6.1953091 265.4149234
35.1095498 -7.0593795 265.6230330
35.3258252 -4.8908200 265.5606568
35.3425443 -5.7383901 265.2210891
35.4382358 -6.6118701 265.4195428
35.5339348 -7.4853245 265.6180561
35.5852842 -4.7543482 266.2202418
35.5900228 -4.8963730 266.0638094
35.6298909 -8.3575249 265.8177912
35.7729308 -6.1350833 265.2461529
35.7911624 -5.0759832 266.1983669
35.8614512 -5.1657506 266.2010491
35.8624496 -7.0386576 265.4136717
35.9001756 -5.2136332 266.2125826
35.9350219 -5.4310788 265.9645379
36.0224806 -5.4388675 266.3053274
36.1334570 -5.5589075 266.3545012
36.2897739 -7.4502742 265.4233873
36.3185145 -5.9637604 265.8556402
36.4136286 -5.7969969 266.4462328
36.5272723 -5.8788629 266.4745748
36.6011187 -5.9732264 266.4971054
36.6588943 -6.4987093 265.7575607
36.7177352 -7.8587784 265.4363215
36.7714800 -6.1898446 266.5356100
36.8208773 -6.2790820 266.5379345
36.9439274 -7.3032696 265.3822601
37.1036828 -6.7574456 266.4709091
37.1459238 -8.2661761 265.4503882
37.2183584 -7.0415842 266.1739290
37.3228826 -7.0510195 266.5850222
37.3906232 -7.1243192 266.6211426
37.5303179 -7.3227519 266.7086422
37.5700481 -7.5759371 266.0729885
37.6745537 -7.4727223 266.7440474
37.7641991 -7.5851739 266.5936947
37.9255004 -8.1100939 265.9711242
37.9505418 -7.7845589 266.7504251
38.0001739 -7.8564230 266.7399645
38.0428806 -7.9377918 266.7135894
38.0972810 -8.1205061 266.4974332
38.1879881 -8.2477229 266.6030526
34.9685103 -4.2209285 266.4086521
35.1140834 -4.3767020 266.2037909
35.1567194 -4.4045965 266.3680017
35.3378765 -4.4759875 266.3023472
40.0970243 -27.0205680 263.5633349
40.3292514 -27.0278025 264.0744746
40.5681506 -27.0346869 264.5839453
40.7056063 -26.7802048 265.4099464
40.7382511 -27.5591426 263.9591694
40.9414507 -26.7872494 265.9201920
40.9919024 -27.5652502 264.4649744
41.1311351 -27.3106750 265.2904987
41.1725491 -28.0891526 263.8375163
41.1803238 -26.7941318 266.4296925
41.3668342 -27.3177270 265.8007741
41.4116345 -28.0960277 264.3469870
41.4285436 -26.8005263 266.9368386
41.5569283 -27.8411321 265.1709914
41.5969640 -27.3250714 266.3124800
41.6134633 -28.6188144 263.7142241
41.7784117 -27.8489310 265.6848431
41.8403745 -27.3317192 266.8208182
41.8645889 -28.6250561 264.2206848
42.0023762 -28.3705555 265.0465667
42.0274176 -27.8552845 266.1918104
42.0765616 -27.3387432 267.3310041
42.1516560 -29.2760730 263.6956275
42.1859585 -28.3290725 265.6258941
38.6237428 -23.5920418 266.5778100
38.6328325 -25.1528732 263.6903822
38.6509746 -24.3712626 265.1283741
38.7749076 -24.1174921 265.9577727
38.7927927 -24.8972066 264.5107210
38.8321392 -23.6005280 267.0949399
38.9901213 -24.1256226 266.4732039
39.0087739 -25.6859530 263.5833323
39.0125811 -24.9050967 265.0249898
39.1338021 -25.4321229 264.4124329
39.1537957 -24.6504154 265.8500373
39.1953774 -24.1342746 266.9911087
39.3675305 -25.4392792 264.9232447
39.3757895 -24.6581901 266.3637400
39.5170227 -25.9648189 264.3036246
39.5257734 -25.1837019 265.7440305
39.5913310 -24.6663000 266.8790817
39.7413261 -25.9724706 264.8167610
39.7563465 -25.1910239 266.2555873
39.9118625 -26.4969040 264.1918659
39.9180278 -25.7159229 265.6328976
39.9609096 -23.1577829 263.6867166
39.9856120 -25.1984149 266.7674720
40.1476324 -26.5039522 264.7021413
40.1504226 -25.7231500 266.1440372
40.1812904 -25.2075717 267.2878206
40.1860811 -23.1653880 264.1996145
40.3111801 -26.2480956 265.5215859
40.3405502 -23.6906689 263.5787725
40.3885320 -25.7300735 266.6537166
40.3953530 -23.1738295 264.7165358
40.5440256 -23.6994140 264.0971243
40.5458361 -26.2552034 266.0321295
40.5458696 -22.9186602 265.5392587
40.6068750 -25.7380381 267.1683729
40.7485217 -23.7081069 264.6152377
40.7832153 -26.2621678 266.5419877
40.8987589 -23.4529506 265.4380202
40.9091562 -24.2330600 263.9928162
41.0127230 -26.2695439 267.0538425
41.0779640 -23.1962744 266.2535310
41.1060192 -24.2421553 264.5128369
41.2457511 -24.7682091 263.8956904
41.2467606 -23.9875000 265.3380036
41.2601717 -23.2061390 266.7772472
41.4156877 -23.7313621 266.1561370
41.4420627 -24.7773323 264.4158602
41.4738022 -23.2143514 267.2930658
41.5788293 -25.3035408 263.7993991
41.5867306 -24.5224703 265.2400136
41.6197479 -23.7400774 266.6743398
41.7262875 -24.2678784 266.0654783
41.7653099 -25.3131837 264.3220425
41.8178216 -23.7491094 267.1940625
41.8858491 -25.8402452 263.7096941
41.9156700 -25.0580218 265.1447952
41.9374816 -24.2762193 266.5819228
42.0546494 -24.8034578 265.9704089
42.0821905 -25.8493666 264.2298639
42.1467498 -24.2846608 267.0988441
42.2199145 -25.5948696 265.0557756
38.6117138 -20.0088769 266.9484019
38.7677215 -21.5619858 264.0241086
38.8212018 -21.0452173 265.1622295
38.9429070 -20.7915623 265.9921646
38.9895849 -21.5697642 264.5378709
39.0552804 -20.5384009 266.8244243
39.1831324 -22.0929887 263.9071941
39.2331518 -21.5764027 265.0461793
39.3170975 -20.5440782 267.3281431
39.3654853 -21.3221889 265.8734322
39.4063033 -22.1006982 264.4206285
39.5066366 -21.0675132 266.6985095
39.5716652 -22.6254035 263.7970150
39.6317430 -22.1082903 264.9334967
39.7343747 -21.0749842 267.2107816
39.7851877 -21.8529664 265.7554746
39.7944748 -22.6331353 264.3105388
39.9118550 -21.5990525 266.5841579
40.0145911 -22.6410069 264.8247778
40.1381738 -21.6065962 267.0967877
40.1673354 -22.3857202 265.6469047
40.3107144 -22.1309233 266.4714158
40.5172408 -22.1395120 266.9890225
40.6979099 -22.6634126 266.3615644
40.9132987 -22.6715319 266.8769658
41.0234891 -19.5565149 267.2895789
41.8255776 -19.9659709 267.1861947
38.7143530 -15.6595428 266.9385970
39.1876139 -16.5171977 267.0379877
39.2780006 -17.4165387 267.2098279
39.7492796 -18.2838459 267.2993243
39.8974046 -16.0366278 266.7531371
39.9914868 -16.9179663 266.9435143
40.4611640 -17.7930892 267.0249343
40.5527242 -18.6866950 267.2027051
40.6999663 -16.4437909 266.6521370
41.1253348 -16.8649275 266.6520476
41.2638038 -18.1998443 266.9243217
41.4054543 -15.9841962 266.3457096
41.5497087 -17.2909144 266.6470110
41.7335257 -19.0747567 267.0059800
41.8350287 -16.3848381 266.3667202
41.9756845 -17.7091081 266.6499317
42.0658179 -18.6096653 266.8205500
38.6205763 -14.7767309 266.7497694
38.7108028 -12.1417604 266.0540044
38.8550758 -13.4484004 266.3553357
39.1375422 -12.5562213 266.0607994
39.3276662 -14.3093262 266.4513886
39.4216105 -15.1913166 266.6410804
39.4666530 -12.1066477 265.8594251
39.5611078 -12.9861515 266.0517097
39.8954898 -12.5108967 265.8767402
39.9877988 -13.4008378 266.0582662
40.1309207 -14.7131011 266.3538158
40.4148661 -13.8137080 266.0666704
40.5553356 -15.1388822 266.3489580
40.5655354 -12.6996431 266.0548985
40.6279005 -12.1761253 267.0067251
40.6998657 -13.2454280 266.0084665
40.7204404 -12.3045584 267.0289576
40.7952629 -12.4403089 266.8577433
40.8262387 -12.7053801 266.5588856
40.8446118 -14.2135341 266.0885453
40.9601331 -12.6970345 267.0745552
40.9805663 -15.5606940 266.3482130
41.0601161 -13.2459300 266.4875090
41.1584154 -12.9871760 267.1379745
41.2367433 -13.1182689 267.1630383
41.2602387 -13.2548530 267.0067549
41.2773415 -14.6129448 266.1223710
41.3093604 -13.7856714 266.4122880
41.4198004 -13.5178529 267.2306895
41.6904017 -14.0712280 267.1644390
41.7079963 -14.6037042 266.5778995
41.7678915 -15.4558290 266.2938237
42.0212969 -14.8928231 267.3470378
42.0881324 -15.4227111 266.7481601
38.6146903 -11.2703452 265.8534348
38.6430360 -8.9061838 266.6022182
38.7817249 -9.7236130 265.7181919
38.8497971 -9.2012435 266.7111754
38.9159769 -9.3022296 266.7273283
38.9486998 -10.7968859 265.6766474
38.9904678 -9.4653806 266.5263116
39.0411988 -11.6859265 265.8590674
39.1933583 -9.7034285 266.7173445
39.3218398 -10.0008035 266.4304674
39.4243263 -10.0075817 266.7610049
39.5259410 -11.0763209 265.7844126
39.5794325 -10.1638697 266.7637467
39.6287255 -10.5375135 266.3407624
39.6448076 -10.2699669 266.6278183
39.8655050 -10.4166437 266.7264342
39.8707204 -11.0776369 266.2673593
39.9687700 -10.6087187 266.7257190
40.0493443 -11.8877925 265.9187615
40.1047729 -11.0770287 266.7705119
40.2958691 -11.4938701 266.8633163
40.3014794 -11.6272792 266.7159736
40.3676853 -11.8904980 266.4083242
40.4780805 -11.8959853 266.9420838
44.7249599 -30.1928315 266.8828666
44.7466262 -30.1943850 266.9354379
42.2654785 -27.8622117 266.7015195
42.3934087 -28.9028399 264.9357617
42.4021706 -29.4024963 263.7971640
42.4822196 -27.8702602 267.2165632
42.5214171 -28.8572144 263.7649179
42.5414555 -28.3033103 263.7726367
42.5673425 -27.7491044 263.7788951
42.5681435 -27.1962099 263.7914419
42.6250212 -28.9127734 265.4441893
42.6549800 -29.1363373 264.0097439
42.6652096 -28.3940379 266.5885389
42.7723080 -29.4136479 264.2615438
42.7955650 -29.4318739 264.8251057
42.8396612 -26.6679768 264.8748755
42.8702310 -27.1997694 264.2850876
42.8818129 -28.8577080 264.2439306
42.8965725 -28.4013171 267.0999169
42.9053232 -28.3036232 264.2507851
42.9296941 -27.7494919 264.2574012
42.9908708 -29.6532791 264.5232975
43.0193171 -29.4422209 265.3354704
43.0744924 -28.9111417 266.4886713
43.1060866 -27.2068139 264.7953629
43.1225933 -29.6908319 265.0323212
43.1826711 -29.4141825 264.7251189
43.2479344 -28.8578998 264.7215128
43.2767570 -26.9505847 265.6130195
43.2768017 -27.7506839 264.7397816
43.2861857 -28.3030421 264.7246718
43.2920158 -29.7547597 265.2471364
43.2952754 -29.6911020 264.9788260
43.3035940 -28.9327614 266.9851184
43.3232561 -29.6809245 265.5069828
43.4592068 -26.9604363 266.1366165
43.5367525 -27.4897609 265.5350566
43.5636826 -29.4135939 265.1989758
43.6160006 -28.8579930 265.1986182
43.6340198 -28.3041950 265.2068436
43.6378233 -26.9704890 266.6612267
43.7197424 -27.4995845 266.0585642
43.7283255 -29.6824835 265.4454112
43.8389145 -26.9793626 267.1802044
43.9118929 -27.5089256 266.5797770
43.9460501 -29.4129308 265.6725049
43.9462699 -28.3072218 265.6979263
43.9732447 -28.8586523 265.6784356
44.0953635 -27.5187250 267.1031356
44.1032276 -29.6881460 265.9143209
44.1652611 -28.0484501 266.5034831
44.2465134 -29.9506821 266.1742568
44.3197042 -28.8598780 266.1609352
44.3688780 -28.0571897 267.0218349
44.4438383 -29.6923481 266.3953900
44.5671007 -29.9693476 266.6457295
44.5785187 -28.8657155 266.6654289
44.6460396 -29.4150151 266.6357756
44.7642617 -28.8753957 267.1882510
44.8486768 -30.0421789 267.2053277
44.8531397 -29.9764182 267.1404779
42.2662310 -24.8117764 266.4867640
42.3885472 -25.3387466 265.8739388
42.3932783 -26.3858549 264.1390860
42.4650721 -24.8207692 267.0062780
42.5276905 -26.1315331 264.9658620
42.5866544 -25.3477767 266.3936317
42.6676385 -25.8769188 265.7912374
42.7959822 -25.3562145 266.9105530
42.8848974 -25.8849412 266.3061321
42.9776907 -26.4134631 265.7007277
43.0771895 -25.8942749 266.8273151
43.1778170 -26.4223870 266.2199438
43.2914980 -25.9024519 267.3429549
43.3726199 -26.4315885 266.7404711
43.5713120 -26.4405869 267.2600448
42.2956049 -20.8393987 267.2693431
42.9210551 -19.4300208 266.8429613
43.0085361 -20.3435179 267.0002580
43.1010090 -21.2326888 267.1825886
43.3584712 -19.8023804 266.9011652
43.4384122 -20.7427070 267.0227587
43.5239971 -21.6654371 267.1705484
43.8692644 -20.3435775 267.3255801
44.0075919 -22.4727299 267.3217058
44.0298282 -21.4408319 267.2598362
42.2828123 -15.9653220 266.6865885
42.3075780 -17.2459707 266.4625347
42.3983522 -18.1434099 266.6363418
42.4548686 -16.5091231 266.6307092
42.4879640 -19.0465152 266.8043077
42.8244807 -17.3286814 266.8035924
42.9352000 -17.8757068 266.7630911
43.2919785 -18.6959412 266.9392228
-19.5790287 -14.1682383 271.1716592
-19.2651544 -13.7929032 270.8939612
-19.1676114 -14.6573689 271.1016834
-19.0244168 -12.4341836 270.5308199
-18.9305115 -13.3163687 270.7203031
-18.8172534 -14.1042424 271.0067630
-18.5805392 -12.7651282 270.6234753
-18.1718878 -12.4075990 270.8877623
-19.2427263 -11.9110653 271.1690068
-19.1136319 -11.3514271 271.1493969
-19.0965179 -11.8839284 270.5629468
-19.0525465 -11.3287671 270.5646753
-18.9568531 -10.7708853 270.5534399
-18.8973136 -10.7872020 271.1078823
-18.7509302 -10.2266548 271.0839510
-18.7295601 -10.2060819 270.5091834
-18.6139364 -9.6471542 270.4929411
-18.5714997 -9.6643697 271.0517049
-18.4816662 -10.2374079 269.9397206
-18.4058491 -11.0583669 270.0699270
-18.3671061 -9.0813246 270.4438269
-18.3585845 -9.1003235 271.0110843
-18.3194503 -9.0593714 269.8624730
-18.2914212 -11.8405372 270.3622580
-18.1843545 -8.5188644 270.4107761
-18.1686431 -9.7168516 269.6890831
-18.1487314 -8.4975446 269.8324323
-18.1436203 -8.5361702 270.9698975
-18.0123542 -11.8463598 270.8604932
-17.8262945 -9.2027606 269.5540488
-17.8092681 -10.4243867 269.9874043
-17.7767798 -11.2811234 270.8142102
-17.5919831 -10.7185552 270.7806230
-17.4894407 -8.7154470 269.3914771
-17.4472127 -9.8524978 269.9093521
-17.3693132 -10.1539968 270.7375586
-17.1582457 -9.5900474 270.6973553
-17.1568710 -9.2843799 269.8493302
-16.9022176 -9.0237344 270.6459463
-16.8534126 -8.7155728 269.7859704
-16.6667830 -8.4585035 270.5996335
-16.6386757 -8.4764725 271.1619735
-17.9705396 -7.9353238 269.8005140
-17.9443993 -7.9533970 270.3633308
-17.9239735 -8.3389645 269.3456411
-17.9066826 -7.9708602 270.9232867
-17.7162737 -7.3885508 270.3188956
-17.6889114 -7.3676649 269.7426379
-17.6733080 -7.4057383 270.8775103
-17.6114719 -7.3767561 269.1855729
-17.5243672 -6.8061622 269.7141469
-17.4619239 -6.8223258 270.2678740
-17.4262766 -6.8398979 270.8283067
-17.3008740 -6.2221130 269.1014707
-17.2855128 -6.8661976 268.9844370
-17.2662251 -6.2397378 269.6621716
-17.2106177 -6.2562609 270.2176273
-17.2056556 -7.8168483 269.1035271
-17.1813909 -6.2741707 270.7796693
-17.0225035 -5.6546251 269.0444291
-16.9973746 -5.6727505 269.6075141
-16.9559140 -5.6900172 270.1665163
-16.9240367 -5.7077873 270.7279027
-16.8684013 -7.3275757 268.9429820
-16.7689174 -5.0884401 268.9935863
-16.7459343 -8.0705695 269.2755759
-16.6976508 -5.1041394 269.5451081
-16.6873671 -5.1230453 270.1119184
-16.6752674 -5.5309418 268.4818208
-16.6526679 -5.1406673 270.6726193
-16.5842101 -6.4269970 268.6570287
-16.4087955 -7.8726402 269.9783444
-16.3832158 -7.8907423 270.5412805
-16.3606126 -7.9090009 271.1050212
-16.3489990 -5.0952127 268.2662010
-16.2496231 -5.9507261 268.4831321
-16.2050948 -7.2896322 269.3706155
-16.4521299 -4.5383782 269.4963217
-16.4164770 -4.5170565 268.9180076
-16.4098162 -4.4972585 268.3469355
-16.4052453 -4.5553599 270.0539231
-16.3780674 -4.5733778 270.6165016
-16.3533166 -4.5915232 271.1796761
-16.1444694 -6.7781089 268.7289715
-16.1140077 -7.3042889 269.9171901
-16.1017049 -7.3230891 270.4834640
-16.0733517 -7.3410450 271.0457444
-15.9123447 -5.4613538 268.3227062
-15.8305075 -6.7170840 269.2894638
-15.8295743 -6.7364816 269.8585987
-15.8012137 -6.7544375 270.4208791
-15.7976281 -6.2421132 268.6164677
-15.7711841 -6.7723054 270.9827125
-15.5163640 -6.1477148 269.2234516
-15.4886805 -6.1657056 269.7858810
-15.4847624 -6.1849467 270.3542709
-15.4572548 -5.7376437 268.4715688
-15.4565666 -6.2029110 270.9165812
-15.1973981 -4.9556619 268.0636942
-15.1371546 -5.5943700 269.7104812
-15.1307601 -5.6134812 270.2782750
-15.1260421 -5.5743386 269.1383362
-15.1246209 -5.6326049 270.8461285
-14.7842513 -5.0035152 269.0653801
-14.7830900 -5.0229011 269.6344554
-14.7780702 -4.9837432 268.4944570
-14.7740152 -5.0418712 270.2015638
-14.7713264 -5.0611766 270.7702816
-16.1451939 -3.9499407 268.8627243
-16.1318425 -3.9297915 268.2899833
-16.1280967 -3.9684889 269.4278359
-16.1117408 -3.9870758 269.9930966
-16.0923768 -4.0055048 270.5576122
-16.0623267 -4.0233713 271.1194754
-15.9299839 -3.3663271 268.2521343
-15.8144943 -3.3991477 269.3619430
-15.8041026 -3.4180481 269.9287236
-15.7914367 -3.4368294 270.4949379
-15.7886073 -3.3783393 268.7860727
-15.7480948 -3.4539970 271.0534334
-15.7270376 -3.7028554 267.8223252
-15.6254545 -4.5476207 268.0502832
-15.5234560 -2.7920990 268.1629658
-15.4853789 -2.8095439 268.7227726
-15.4613499 -2.8666216 270.4249322
-15.4607994 -2.8860392 270.9941566
-15.4482881 -2.8464873 269.8522508
-15.4384635 -2.8265235 269.2804039
-15.3820906 -3.1760954 267.7003145
-15.2927134 -4.0803491 267.8671181
-15.1379537 -2.2189773 268.0790424
-15.1203554 -2.2374985 268.6440051
-15.1172904 -2.2567844 269.2126334
-15.1146883 -2.2955416 270.3507245
-15.1066771 -2.3145673 270.9181309
-15.1030030 -2.2754800 269.7784305
-15.0698740 -2.2384638 267.5339282
-15.0637068 -2.7787907 267.4452066
-14.9559835 -3.5936357 267.7039504
-14.8518914 -4.4261795 267.9444849
-14.7666922 -1.7049449 269.7068453
-14.7598656 -1.6656916 268.5663700
-14.7591261 -1.6850997 269.1355944
-14.7570297 -1.7433306 270.8432078
-14.7551242 -1.7237832 270.2733576
-14.7233168 -1.6401944 267.4333453
-14.7207221 -1.6441860 267.9871917
-14.6249011 -3.1344523 267.5124407
-14.5225348 -3.9753951 267.7443624
-14.4464709 -4.4134553 268.4240341
-14.4191915 -4.4703623 270.1253593
-14.4169275 -4.4507962 269.5554197
-14.4143449 -4.4895546 270.6935406
-14.4042699 -1.1330362 269.6287632
-14.4018633 -1.1523566 270.1975405
-14.3990563 -1.1716563 270.7661986
-14.3981781 -4.4303630 268.9813375
-14.3853882 -1.1125961 269.0546215
-14.1841937 -3.4808409 267.5892413
-14.0377041 -3.8974509 270.0424790
-14.0345460 -3.9361790 271.1804509
-14.0317911 -3.8582459 268.9022124
-14.0305646 -3.9165225 270.6100643
-14.0268682 -3.8774339 269.4703639
-14.0012614 -3.8371936 268.3252096
-13.6563294 -3.3245459 269.9595988
-13.6544248 -3.3438925 270.5284953
-13.6478683 -3.3046538 269.3880796
-13.6360824 -3.3623753 271.0932791
-13.6297988 -3.2842564 268.8141763
-13.6287212 -3.2647529 268.2445347
-13.4388898 -2.8272059 267.4823403
-13.2503873 -2.7892427 271.0093260
-13.2469665 -2.7696160 270.4390883
-13.2423975 -2.7499285 269.8685527
-13.2289063 -2.7297719 269.2958117
-13.2227661 -2.7100020 268.7248886
-13.1739005 -2.6879851 268.1432366
-12.8320521 -2.1949471 270.3478038
-12.8272427 -2.2141410 270.9159851
-12.8123183 -2.1550150 269.2041099
-12.8122205 -2.1744568 269.7734535
-12.7854524 -2.1341550 268.6280012
-12.7807027 -2.1144580 268.0574059
-14.4028217 -1.0746189 267.9202259
-14.3650901 -1.0920817 268.4801519
-14.0359765 -0.5997131 270.6879377
-14.0274120 -0.5798156 270.1163888
-14.0227396 -0.5601228 269.5458233
-14.0112629 -0.5400723 268.9735591
-13.9767677 -0.5188112 268.3955431
-13.9717022 -0.4990977 267.8248882
-13.6433579 -0.0456637 271.1716294
-13.6178564 -0.0054284 270.0264454
-13.6135342 -0.0246482 270.5947459
-13.6119220 0.0143307 269.4556117
-13.6003317 0.0343873 268.8832879
-13.5819372 0.0548017 268.3092952
-13.5784242 0.0744335 267.7390575
-13.2402331 0.5478324 270.5139220
-13.2306321 0.5872315 269.3727314
-13.2225519 0.5682093 269.9401081
-13.2016903 0.6082004 268.7960863
-13.1733268 0.6291391 268.2195902
-12.8403949 1.1217085 270.4264224
-12.8018707 1.1626286 269.2779899
-12.7838505 1.2024704 268.1347132
-12.0274639 -20.2511176 271.0653543
-11.7462780 -19.3651859 270.7643807
-11.6037969 -20.6805561 271.0567713
-11.3159204 -19.7620168 270.7892954
-11.1771934 -21.0956838 271.0628808
-10.9818662 -19.2883480 270.6127465
-10.8887376 -20.1743208 270.7982957
-10.7524833 -21.5200353 271.0595131
-10.5575053 -19.7144039 270.6075907
-10.4658594 -20.6076019 270.7857788
-10.1260422 -20.1058444 270.6380486
-9.8835733 -20.6283946 271.1742520
-9.7539043 -20.0687274 271.1545229
-9.6111204 -19.5083693 271.1314559
-11.9192451 -17.9517567 271.1790204
-11.8167559 -18.5624901 270.6516385
-11.7741358 -17.3912775 271.1553872
-11.7303515 -17.3695274 270.5750465
-11.6284005 -16.8113168 270.5622315
-11.6012497 -16.8293361 271.1247802
-11.4990380 -17.9747734 270.4338431
-11.4340223 -16.2482467 270.5262303
-11.4293452 -16.2674468 271.0944414
-11.2571185 -16.6102890 270.0766027
-11.2231029 -15.6843048 270.4861164
-11.1968080 -15.7023706 271.0489035
-11.1711808 -17.5313037 270.2262104
-11.0755311 -18.4049867 270.4244256
-10.9670172 -15.6809054 269.8203027
-10.8337933 -17.0413926 270.0662911
-10.7391402 -17.9199334 270.2595592
-10.6486771 -18.8188888 270.4317868
-10.5489576 -16.1376707 269.7835863
-10.4062585 -17.4519774 270.0770795
-10.3127528 -18.3361117 270.2645659
-10.2192508 -19.2202590 270.4520524
-10.2133406 -15.6563856 269.6148455
-10.1208352 -16.5453907 269.7973251
-9.9806171 -17.8717971 270.0783610
-9.8901577 -18.7707692 270.2506185
-9.7859120 -16.0674825 269.6250975
-9.6940454 -16.9596076 269.8043883
-9.4487919 -18.9469829 271.1035013
-9.3722763 -18.0845167 270.2493668
-9.3606263 -16.4890345 269.6245909
-9.2695663 -18.3847100 271.0713148
-9.2596319 -17.3366759 269.8495984
-9.0888124 -17.8223550 271.0387707
-9.0228170 -15.9970615 269.4668174
-8.9123612 -17.2407795 270.4378664
-8.8904863 -17.2590762 271.0017562
-10.9578613 -15.1175074 270.4323530
-10.9330518 -15.1356496 270.9955275
-10.8768083 -15.0937978 269.8426545
-10.7134543 -14.5518053 270.3838050
-10.7045462 -14.5318899 269.8121965
-10.6750950 -14.5692350 270.9436119
-10.4737971 -13.9669059 269.7670758
-10.4448386 -13.9848301 270.3292370
-10.4001239 -14.0019255 270.8874047
-10.3068957 -14.7724906 269.4270909
-10.2107879 -13.4002259 269.7139084
-10.1780379 -13.4179499 270.2750862
-10.1221846 -13.4344595 270.8304822
-10.0412872 -13.4309968 269.1595554
-9.9747637 -14.3081881 269.2408860
-9.8909987 -12.8305592 269.6464956
-9.8785572 -15.1791619 269.4419026
-9.8429797 -12.8474804 270.2038288
-9.7692562 -12.8047094 269.0465748
-9.6379332 -13.8209844 269.0782249
-9.5430091 -14.6982102 269.2728043
-9.5122550 -12.2577921 269.5642710
-9.4966143 -12.2764166 270.1297402
-9.4632804 -12.2941099 270.6907690
-9.4506247 -15.5878086 269.4546878
-9.3739200 -12.1432636 268.8747942
-9.3042934 -13.3493375 268.8995302
-9.2092631 -14.2260408 269.0946758
-9.1147730 -15.1053760 269.2871094
-8.9694839 -12.8719918 268.7267065
-8.8752545 -13.7525965 268.9178586
-9.1487635 -11.6858268 269.4858611
-9.1253631 -11.7040435 270.0493932
-8.9115538 -11.4455465 270.8562315
-8.8653266 -11.3653271 268.5671151
-12.3990728 -1.6387749 270.8213925
-12.3913707 -1.5994757 269.6807086
-12.3906787 -1.6188864 270.2499032
-12.3722302 -1.5790220 269.1065073
-12.3405661 -1.5579099 268.5291767
-12.3357428 -1.5187621 267.3892081
-12.3251313 -1.5376511 267.9559290
-12.3847295 1.7179678 269.7555125
-12.2842258 1.7621472 268.5915530
-12.2680720 1.8018909 267.4487233
-12.2085083 1.9744888 270.5717981
-11.9611556 -1.0434492 270.1549828
-11.9574219 -1.0626998 270.7234323
-11.9469222 -1.0232534 269.5820034
-11.9058648 -1.0016473 269.0023184
-11.8871825 -0.9812177 268.4282660
-11.8749291 2.3170735 269.0710723
-11.8696308 -0.9608477 267.8544819
-11.7939748 2.3602252 267.9120302
-11.5001388 -0.4858027 270.6215084
-11.4639541 -0.4450056 269.4736719
-11.4205834 -0.4038308 268.3240473
-11.3793369 -0.3822146 267.7443027
-11.0288542 0.0723837 271.0854709
-10.9994421 0.1128246 269.9393332
-10.9587815 0.1538570 268.7903643
-10.8959218 0.1960568 267.6358223
-10.5233304 0.6712648 270.4021037
-10.4994122 0.7114167 269.2573369
-10.4563013 0.7525780 268.1077719
-10.0409025 1.2689314 269.7245181
-10.0240288 1.3087130 268.5815096
-9.9880071 1.3300540 268.0030763
-9.9693686 1.3504814 267.4290538
-9.8218666 1.5277041 270.5300152
-9.5819533 1.8459162 269.6222067
-9.5724724 1.8658618 269.0504193
-9.5588714 1.8860241 268.4776187
-9.5492983 1.9059746 267.9058611
-9.3551120 2.0856524 270.9951401
-9.1437241 2.4218110 269.5250511
-9.1379099 2.4026700 270.0929940
-9.1232201 2.4423366 268.9505219
-9.1185356 2.4620299 268.3799863
-9.1157621 2.4816229 267.8098977
-11.7738331 2.5307501 271.0449398
-11.6984798 2.5736070 269.8872983
-11.2864450 3.1092304 270.9354758
-11.2416325 3.1310341 270.3548968
-11.1339074 3.1755934 269.1890895
-11.0375574 3.2195544 268.0261731
-10.7879732 3.6882935 270.8232701
-10.6615759 3.7338347 269.6528137
-10.5770333 3.7771750 268.4928477
-10.5297379 3.7991093 267.9115832
-10.2910958 4.1775256 270.2482641
-10.1445476 4.3138736 269.5359290
-10.1081757 4.3352335 268.9574361
-10.0091817 4.3598865 268.3632076
-9.9971285 4.3799677 267.7907944
-9.9050514 4.5737228 270.3363299
-9.7011989 4.8085367 269.5167959
-9.6907308 4.8079253 271.1667120
-9.5458264 4.9176561 268.8291967
-9.5090214 4.9390388 268.2505846
-9.4137890 5.1329597 270.7952857
-9.3746046 5.1544677 270.2161074
-9.2998426 5.2127093 269.5940435
-9.0899132 5.3637912 268.8547373
-9.0417806 5.1568421 267.3950195
-9.0199728 5.6180875 270.7953155
-8.9211883 2.6613211 270.8991170
-8.8961776 5.6086988 269.6788013
-8.8705253 5.4813754 268.1461275
-9.3825040 6.5524993 271.1536586
-8.8200234 -16.6636277 269.8580921
-8.6663384 -16.6944396 270.9583044
-8.5116317 -16.0945598 269.7935104
-8.4744142 -16.1120519 270.3535855
-8.4370384 -16.1295310 270.9135711
-8.7813856 -14.6349557 269.1071630
-8.6881742 -15.5205261 269.2931890
-8.5412236 -13.2790385 268.7411606
-8.4474077 -14.1616603 268.9301670
-8.3499616 -15.0265880 269.1374123
-8.2535855 -12.3616615 268.4724629
-8.2156798 -15.5455945 270.3014612
-8.2094809 -15.5258216 269.7305381
-8.1960345 -15.5640086 270.8659172
-8.1155319 -13.6986058 268.7426805
-7.9881735 -14.9613339 269.6877718
-7.9578739 -14.9791883 270.2495754
-7.9365987 -14.9975158 270.8136439
-7.8256968 -12.7705242 268.4850395
-7.7986633 -14.3790720 269.0836191
-7.7063036 -14.3936612 269.6298659
-7.6837195 -14.4119216 270.1935768
-7.4947914 -12.3121990 268.2926655
-7.4111121 -13.8058411 268.9992189
-7.4024354 -13.2019352 268.4744000
-7.3775318 -13.8624171 270.6989348
-7.3638880 -13.8228051 269.5567608
-7.0559853 -12.6678552 268.3599293
-7.0529813 -13.2730529 270.0609565
-7.0357714 -13.2332547 268.9178586
-7.0201200 -13.2518774 269.4832981
-6.8776147 -13.0165769 270.8774209
-6.7268927 -12.7030555 269.9919045
-6.7230174 -12.1994773 268.1778967
-6.7164553 -12.6636121 268.8505650
-6.3788686 -12.1124573 269.3480253
-6.3782060 -12.1318689 269.9172795
-6.3599995 -12.1698054 271.0514665
-6.3579618 -12.0919105 268.7734067
-8.7386668 -11.1308582 269.9652016
-8.6849025 -11.9695086 268.4427500
-8.5683716 -10.7968608 268.5053945
-8.5348450 -10.8145447 269.0663934
-8.3470000 -11.4770811 268.2854533
-8.3151255 -10.5751827 270.4411447
-8.1515852 -10.2415411 268.9830661
-8.1477398 -10.2218911 268.4126794
-8.0171516 -11.0239107 268.0877745
-7.9203593 -11.8920254 268.2917416
-7.8470390 -9.9782702 269.7671652
-7.7211959 -9.7994674 267.9167092
-7.6789195 -10.5298785 267.9321170
-7.6243640 -9.7193066 270.5717683
-7.5850799 -11.4123840 268.1213021
-7.5764502 -9.6584456 268.8515782
-7.3365327 -9.3361698 267.9397762
-7.2521609 -10.9442482 267.9390311
-7.1724090 -9.1621373 271.0405886
-7.1578980 -11.8246898 268.1303024
-7.1501103 -9.1220699 269.8962092
-7.0911832 -9.0800775 268.7426805
-7.0144152 -9.6001057 267.5608695
-6.9289021 -8.9542232 268.0374086
-6.9190944 -10.4753915 267.7574754
-6.8270373 -11.3665853 267.9377198
-6.6373199 -8.5903313 269.2767084
-6.6170865 -8.5606361 270.3447342
-6.5857251 -10.0050606 267.5774395
-6.5435134 -8.4934989 268.0628598
-6.4906622 -10.8816056 267.7727342
-6.3806139 -11.6851190 268.0431306
-6.2518590 -9.5323063 267.3999071
-6.1591039 -10.4200989 267.5836384
-6.0500475 -11.2284468 267.8490579
-5.9936573 -11.5393503 269.2641914
-5.9899827 -11.5586044 269.8326707
-5.9641618 -11.5183517 268.6874270
-5.8227861 -9.9353977 267.4183846
-5.7097287 -10.7242456 267.7038610
-5.6075817 -11.0050915 270.3188956
-5.5933166 -10.9654479 269.1765726
-5.5604889 -10.9442743 268.5989738
-5.3818799 -10.2808177 267.4961984
-6.4116870 -8.3025806 271.1536586
-6.1343913 -8.0803717 269.7812617
-6.1259554 -8.1467154 268.1926787
-5.9399074 -7.8381142 270.6077695
-5.7308068 -7.7205580 268.2498097
-5.5303201 -7.4995630 269.0958083
-5.4715616 -7.5836093 267.5144076
-5.4383329 -7.3233587 271.1079121
-5.3239521 -7.2994018 269.9608505
-5.3223153 -7.3416629 268.3502138
-8.7204948 3.0163643 268.8623071
-8.7104766 2.9974445 269.4292068
-8.7101245 3.0363570 268.2903409
-8.7069133 2.9781847 269.9976861
-8.7030204 3.0561776 267.7191794
-8.6830687 5.7485192 268.9498067
-8.6180465 6.0202391 270.8744109
-8.6100781 5.5111293 267.5828338
-8.4927827 6.0056462 269.7626650
-8.4811039 3.2373138 270.8015144
-8.4652258 5.8715767 268.2361901
-8.3206501 3.6291352 267.6360607
-8.3117383 3.5907098 268.7725723
-8.3089024 3.5714118 269.3412602
-8.2989801 3.6108277 268.1999803
-8.2921572 3.5528452 269.9064314
-8.2759708 6.1323554 269.0456808
-8.0496715 3.8128514 270.7060874
-7.9903146 6.0047405 267.7318752
-7.9230629 4.2028930 267.5490975
-7.9131266 4.1645211 268.6854005
-7.9085436 4.1453154 269.2536414
-7.9025822 4.1845231 268.1133747
-7.9018427 4.1262205 269.8213160
-7.6032202 4.3891789 270.6069052
-7.5047584 4.7582933 268.0263817
-7.5017554 4.7778981 267.4562335
-7.4874633 4.7008614 269.7301805
-7.4828286 4.7399993 268.5902417
-7.4789063 4.7207586 269.1586614
-7.2547570 4.4511906 271.1578012
-7.2124465 4.9625784 270.5216706
-7.0986641 5.3324979 267.9372728
-7.0985970 5.2741608 269.6454525
-7.0892940 5.3524380 267.3655748
-7.0726830 5.2949707 269.0695524
-7.0712650 5.3144922 268.4998214
-6.9180420 4.9378248 270.9945738
-6.7772781 5.5383123 270.4253197
-6.6984016 5.9063970 267.8497136
-6.6843634 5.8682407 268.9849436
-6.6831023 5.8488604 269.5540190
-6.6819815 5.8878129 268.4149444
-6.3225082 6.1150775 270.3240216
-6.1835716 5.5386643 270.8333731
-6.0831378 4.6882960 271.0556090
-5.8530974 5.9948890 270.6388533
-5.7479362 5.1675583 270.8847225
-5.6482349 4.3136198 271.1032927
-5.4180310 5.6210076 270.6873715
-5.3193485 4.7621024 270.9008157
-8.5986434 6.7241238 271.0994482
-8.0819027 6.3760830 269.8708475
-8.0525735 6.2357355 268.3500946
-7.9329303 6.7795436 270.5496550
-7.8856908 7.5433422 270.8982527
-7.8645265 6.5007927 269.1557109
-7.6856236 6.7982362 269.9316442
-7.6390319 6.5967441 268.4668899
-7.4631372 6.9048442 269.2330480
-7.2896946 7.2216284 269.9912786
-7.2276951 6.9655613 268.5765624
-7.1734353 7.7409581 270.5639005
-7.0518609 7.2738766 269.3425417
-6.9400868 6.8461630 268.0903375
-6.8796854 7.5951493 270.0966299
-6.8106428 7.3141349 268.7047422
-6.6347094 7.6220976 269.4710493
-6.5417606 6.1966074 267.5361633
-6.4302841 8.0599580 270.6557810
-6.3584326 6.4740838 267.7801549
-6.2843114 6.4421282 268.8974142
-6.2733497 6.4232578 269.4640160
-6.2580351 6.4629572 268.3214247
-6.1987885 6.8492810 267.8255439
-6.0259453 6.9329659 267.8179741
-5.9458627 7.0451060 267.8786814
-5.8769318 7.0164013 268.8079774
-5.8520357 8.3017787 271.1269557
-5.8508520 6.9983252 269.3708539
-5.8318861 8.2224328 270.5854774
-5.8195549 7.2168750 268.0510879
-5.7902760 7.2843321 268.1301534
-5.7196775 6.9931149 269.9002028
-5.6993677 7.2924406 269.0545321
